1500 5
0.0498016 0.760453 0.612404 0.046529 0.517152 
0.376199 0.47168 0.221876 0.89519 0.237232 
0.0119981 0.425942 0.921848 0.146462 0.590059 
0.417662 0.384956 0.482814 0.664225 0.805578 
0.171816 0.7522 0.599683 0.89698 0.557013 
0.701936 0.779261 0.540754 0.960381 0.678506 
0.553392 0.598725 0.691219 0.391095 0.510964 
0.28305 0.787096 0.571592 0.790126 0.788569 
0.94037 0.627081 0.348059 0.813846 0.50879 
0.706169 0.266254 0.235023 0.971556 0.455534 
0.922641 0.891383 0.29637 0.964991 0.540591 
0.106834 0.681431 0.481763 0.74622 0.363641 
0.621553 0.233376 0.820304 0.155824 0.02149 
0.105578 0.484556 0.0723722 0.420458 0.721736 
0.30614 0.46349 0.299215 0.849361 0.254424 
0.953188 0.78511 0.62581 0.184866 0.970029 
0.128791 0.647522 0.458227 0.602589 0.403894 
0.14676 0.0801528 0.0760619 0.587036 0.768126 
0.47805 0.591304 0.711771 0.200536 0.642003 
0.879143 0.727511 0.0323095 0.393522 0.0306641 
0.03363 0.670336 0.385643 0.41909 0.995108 
0.729962 0.909534 0.661581 0.184975 0.980132 
0.98429 0.526639 0.802112 0.796247 0.208559 
0.472481 0.5477 0.920598 0.832029 0.460962 
0.753046 0.328965 0.344428 0.66418 0.659334 
0.535322 0.277519 0.954331 0.793664 0.932931 
0.509073 0.467026 0.502451 0.028787 0.179899 
0.949898 0.0988302 0.199805 0.264445 0.678186 
0.111907 0.0107385 0.285585 0.614926 0.31103 
0.842794 0.906415 0.252239 0.0747163 0.802074 
0.572133 0.239113 0.107364 0.283969 0.268573 
0.318178 0.979726 0.262017 0.699851 0.459358 
0.375403 0.87871 0.227545 0.211492 0.498334 
0.0683697 0.309665 0.912907 0.737741 0.16995 
0.163726 0.273045 0.32186 0.935204 0.842922 
0.412177 0.108446 0.696716 0.655185 0.0680326 
0.974687 0.139835 0.510564 0.0800215 0.182337 
0.405177 0.477634 0.812597 0.0319236 0.603938 
0.512438 0.755527 0.322029 0.881637 0.747038 
0.272825 0.261586 0.364696 0.329938 0.755004 
0.883697 0.483886 0.512129 0.685462 0.874009 
0.46235 0.081756 0.752446 0.310571 0.592318 
0.954527 0.292724 0.0701223 0.665644 0.338057 
0.648514 0.895778 0.523831 0.021982 0.749122 
0.646019 0.895062 0.405819 0.812642 0.865824 
0.597948 0.732548 0.836694 0.553906 0.12148 
0.354759 0.0834512 0.869847 0.752027 0.610256 
0.774473 0.526833 0.58082 0.670361 0.999633 
0.440862 0.157964 0.816883 0.87803 0.192878 
0.190756 0.237704 0.0101691 0.147813 0.765003 
0.972643 0.39251 0.568655 0.659906 0.800015 
0.0239691 0.919007 0.717243 0.960169 0.251357 
0.841076 0.99268 0.523734 0.408421 0.881632 
0.114868 0.836438 0.323627 0.034366 0.27594 
0.678407 0.98355 0.248019 0.769906 0.733679 
0.22337 0.568289 0.215174 0.0221725 0.961681 
0.0746872 0.465867 0.685302 0.0395961 0.353864 
0.700091 0.917987 0.287348 0.976378 0.302539 
0.243147 0.237275 0.290748 0.150036 0.1328 
0.560512 0.873745 0.103768 0.729252 0.75717 
0.965098 0.335871 0.0407877 0.427308 0.831572 
0.243556 0.689016 0.725374 0.852727 0.645564 
0.502722 0.243924 0.963104 0.20797 0.735776 
0.203586 0.554173 0.906846 0.200078 0.666511 
0.656795 0.909463 0.869878 0.00453713 0.0549 
0.986904 0.60801 0.50793 0.515244 0.773833 
0.761298 0.906982 0.986461 0.229561 0.969008 
0.122855 0.817842 0.51524 0.412537 0.564378 
0.883557 0.837936 0.607721 0.310634 0.762365 
0.750399 0.832237 0.98937 0.432239 0.0590987 
0.928853 0.625593 0.971074 0.723879 0.23343 
0.0292147 0.567844 0.73397 0.382106 0.158507 
0.491916 0.369258 0.573431 0.492159 0.168845 
0.202079 0.96195 0.414371 0.335868 0.0801023 
0.335792 0.396904 0.381732 0.852941 0.661575 
0.540754 0.272016 0.653007 0.317385 0.64559 
0.576803 0.140905 0.157239 0.553081 0.154425 
0.550697 0.919723 0.584967 0.28963 0.891993 
0.807406 0.228225 0.407853 0.708984 0.760166 
0.880494 0.86717 0.496911 0.263576 0.383651 
0.0857838 0.688502 0.00906251 0.25581 0.225665 
0.379467 0.698414 0.358071 0.544031 0.344288 
0.780721 0.901501 0.749507 0.196731 0.123648 
0.333475 0.551094 0.0495254 0.53762 0.827199 
0.484852 0.74614 0.175504 0.34915 0.60334 
0.401004 0.993068 0.784815 0.19188 0.210441 
0.931874 0.814527 0.744065 0.555188 0.269086 
0.156193 0.5784 0.77643 0.565163 0.0547895 
0.0428607 0.181082 0.547006 0.172553 0.707655 
0.460499 0.503716 0.0399368 0.227754 0.156495 
0.247691 0.842177 0.690465 0.707856 0.409591 
0.340214 0.0451765 0.877911 0.542279 0.689726 
0.888587 0.367826 0.90855 0.0909053 0.674473 
0.529457 0.954529 0.225647 0.995511 0.184819 
0.0148989 0.838648 0.828834 0.106618 0.493679 
0.272634 0.899868 0.608616 0.298292 0.156262 
0.236899 0.176732 0.992806 0.204292 0.748964 
0.25104 0.292755 0.128773 0.004577 0.50657 
0.430904 0.968812 0.691475 0.186201 0.903879 
0.039492 0.409441 0.429433 0.445323 0.565097 
0.881607 0.761347 0.186001 0.396692 0.632473 
0.364799 0.772837 0.735556 0.812414 0.312048 
0.236864 0.513282 0.744015 0.899042 0.250382 
0.693246 0.687052 0.860475 0.284476 0.412868 
0.246312 0.365361 0.0986009 0.676659 0.676104 
0.61763 0.551182 0.216707 0.159506 0.786428 
0.900241 0.325188 0.144875 0.506127 0.827379 
0.866187 0.37208 0.0685244 0.747692 0.931554 
0.255499 0.877859 0.365955 0.161212 0.389404 
0.757194 0.268857 0.0887663 0.826471 0.064522 
0.280453 0.102701 0.0642638 0.722019 0.781447 
0.894664 0.900543 0.103587 0.653476 0.16776 
0.428646 0.36871 0.179468 0.306086 0.0713544 
0.924825 0.966559 0.141671 0.137843 0.214303 
0.318681 0.7759 0.721295 0.143245 0.64173 
0.795077 0.000969811 0.0885389 0.409641 0.403684 
0.491857 0.489322 0.178616 0.228814 0.105098 
0.221526 0.691323 0.960523 0.903439 0.314969 
0.400939 0.243246 0.896834 0.537213 0.32329 
0.225563 0.0513599 0.455899 0.119233 0.994228 
0.00821176 0.0653596 0.11408 0.532057 0.541265 
0.0369637 0.331278 0.416559 0.501117 0.597049 
0.397462 0.963232 0.768134 0.173398 0.910434 
0.582161 0.400249 0.969996 0.561757 0.0579264 
0.710755 0.324508 0.886805 0.21742 0.367151 
0.525272 0.76598 0.875444 0.454967 0.297676 
0.746467 0.552574 0.196606 0.95322 0.616967 
0.0688805 0.513836 0.878358 0.0041517 0.693152 
0.593345 0.479864 0.933607 0.881331 0.968217 
0.813372 0.916154 0.0157031 0.600401 0.260631 
0.850325 0.056164 0.349297 0.747886 0.0717066 
0.755883 0.487122 0.993663 0.526378 0.487167 
0.406248 0.644693 0.746263 0.456102 0.870685 
0.678481 0.876241 0.2885 0.37458 0.380695 
0.973016 0.118252 0.690788 0.604747 0.668145 
0.688878 0.608022 0.303336 0.3541 0.68467 
0.0369425 0.914685 0.71613 0.588095 0.623962 
0.00733027 0.274583 0.242723 0.999533 0.0282737 
0.610815 0.999973 0.612389 0.152282 0.902417 
0.920765 0.603799 0.0440642 0.0684214 0.470702 
0.129041 0.391241 0.260733 0.610742 0.598018 
0.671 0.155732 0.296293 0.521342 0.502418 
0.241963 0.157053 0.550117 0.913718 0.59258 
0.232149 0.859952 0.191591 0.335042 0.803951 
0.484948 0.70751 0.513198 0.863136 0.462979 
0.952553 0.396449 0.666893 0.810736 0.672477 
0.80929 0.245324 0.904388 0.194826 0.669618 
0.556104 0.754346 0.249298 0.547861 0.127966 
0.510125 0.0271283 0.315145 0.440412 0.189887 
0.197963 0.157879 0.455189 0.608151 0.626692 
0.480645 0.992093 0.8092 0.607882 0.523073 
0.722155 0.844664 0.862569 0.430606 0.637609 
0.418273 0.115061 0.483974 0.422982 0.0909634 
0.446161 0.852862 0.984825 0.759123 0.59896 
0.348737 0.742953 0.964678 0.569724 0.525543 
0.91963 0.3079 0.893219 0.574637 0.705581 
0.898667 0.958521 0.101246 0.845851 0.37434 
0.364308 0.891376 0.969908 0.913206 0.369623 
0.124594 0.233436 0.82199 0.18251 0.546367 
0.943536 0.184905 0.362796 0.953563 0.686628 
0.99473 0.559161 0.306174 0.461923 0.379642 
0.785446 0.330385 0.536016 0.383425 0.817375 
0.528553 0.371216 0.769107 0.961278 0.292953 
0.937536 0.829018 0.256283 0.706963 0.340314 
0.0475808 0.659945 0.0496599 0.132546 0.372536 
0.352191 0.0240798 0.748239 0.375725 0.795298 
0.93731 0.311838 0.833723 0.104598 0.816224 
0.320956 0.735498 0.0279871 0.359832 0.805772 
0.839307 0.489039 0.341124 0.525923 0.131149 
0.0245945 0.807479 0.0892299 0.515072 0.219331 
0.291298 0.429104 0.0356538 0.777178 0.00527877 
0.650716 0.406602 0.425254 0.742533 0.59177 
0.0520194 0.919157 0.574504 0.801931 0.670355 
0.435288 0.928018 0.202436 0.384581 0.263399 
0.286298 0.794896 0.297553 0.373015 0.534352 
0.26374 0.134843 0.701504 0.694314 0.726852 
0.625827 0.651067 0.811369 0.467417 0.976999 
0.79668 0.474167 0.947952 0.479916 0.140089 
0.121349 0.520922 0.739583 0.866036 0.421476 
0.944523 0.395502 0.843628 0.887784 0.766042 
0.268061 0.0164746 0.828844 0.321263 0.291014 
0.0304985 0.198552 0.701208 0.344195 0.623451 
0.198835 0.213843 0.549272 0.258296 0.193891 
0.449013 0.512297 0.803338 0.697469 0.526675 
0.362535 0.713663 0.622813 0.780166 0.163109 
0.845595 0.547426 0.77742 0.946752 0.55114 
0.27817 0.259385 0.984684 0.347668 0.760167 
0.764397 0.572411 0.755804 0.149817 0.541946 
0.440022 0.0535696 0.590335 0.915362 0.756182 
0.707763 0.535858 0.615801 0.488599 0.2396 
0.684511 0.749783 0.745258 0.190807 0.146377 
0.853784 0.797621 0.774461 0.991343 0.71162 
0.557415 0.461539 0.193519 0.508007 0.782226 
0.717227 0.24497 0.413321 0.118305 0.0394207 
0.518744 0.519743 0.362715 0.121484 0.629181 
0.284438 0.557799 0.00301818 0.670894 0.782769 
0.676842 0.243712 0.0672136 0.264932 0.283509 
0.278366 0.421271 0.111934 0.671495 0.753544 
0.461606 0.222548 0.859609 0.781665 0.110559 
0.433936 0.306424 0.343287 0.0650998 0.644381 
0.3947 0.307054 0.646654 0.212976 0.461816 
0.41584 0.197811 0.402675 0.31188 0.0869512 
0.288705 0.183539 0.200369 0.761146 0.522951 
0.00440912 0.303803 0.243789 0.235138 0.678533 
0.174435 0.451189 0.350689 0.139874 0.0521858 
0.750795 0.104036 0.191158 0.598042 0.602308 
0.603387 0.0566648 0.765225 0.395356 0.684168 
0.56442 0.477527 0.766677 0.520296 0.12488 
0.989315 0.707227 0.440497 0.405487 0.944357 
0.948391 0.987374 0.752371 0.212746 0.57306 
0.571866 0.721906 0.59152 0.093918 0.781242 
0.750284 0.80104 0.371076 0.386132 0.837044 
0.209819 0.588627 0.341808 0.881203 0.395003 
0.800215 0.19538 0.106439 0.492319 0.293589 
0.501616 0.20769 0.519309 0.385645 0.909227 
0.273121 0.858383 0.59376 0.229862 0.259559 
0.316122 0.504169 0.166394 0.64447 0.478334 
0.978696 0.175528 0.156222 0.719772 0.236272 
0.388211 0.241368 0.44109 0.083606 0.22269 
0.808254 0.428622 0.077331 0.894243 0.0994458 
0.595991 0.64638 0.223675 0.797397 0.515375 
0.355305 0.83633 0.972476 0.767774 0.514266 
0.264906 0.234313 0.668798 0.619937 0.246333 
0.768314 0.568933 0.270322 0.823005 0.54266 
0.839242 0.839998 0.4626 0.331198 0.517379 
0.758102 0.0216639 0.4213 0.825482 0.257826 
0.358812 0.688065 0.848108 0.473096 0.27113 
0.525692 0.516932 0.598967 0.301145 0.287294 
0.370788 0.454683 0.461578 0.880321 0.669973 
0.597136 0.760318 0.600424 0.0819066 0.00404876 
0.313546 0.563123 0.76089 0.663549 0.910052 
0.202154 0.696806 0.625859 0.478341 0.577791 
0.462833 0.762301 0.757626 0.37995 0.135973 
0.0774289 0.442651 0.450106 0.470507 0.348621 
0.494523 0.07112 0.506039 0.0328932 0.75135 
0.686303 0.370159 0.951838 0.980695 0.424658 
0.538687 0.79831 0.0611372 0.732479 0.948253 
0.189667 0.535492 0.0747363 0.119201 0.149725 
0.564809 0.134726 0.373499 0.370949 0.696248 
0.779456 0.31492 0.952602 0.591059 0.515331 
0.62649 0.560984 0.231447 0.43242 0.494854 
0.977101 0.893672 0.971906 0.0665398 0.861713 
0.520238 0.626832 0.845523 0.121167 0.959549 
0.408017 0.138722 0.677104 0.50818 0.85075 
0.243225 0.736994 0.370667 0.108289 0.64713 
0.0375815 0.679891 0.00361415 0.683017 0.221146 
0.464183 0.169931 0.276461 0.0992452 0.372416 
0.489526 0.0140425 0.0516298 0.0976303 0.21888 
0.211604 0.0855166 0.959679 0.432592 0.6972 
0.568775 0.775278 0.901811 0.540379 0.404108 
0.743171 0.716649 0.176986 0.974437 0.588075 
0.0568597 0.518525 0.811324 0.564845 0.118486 
0.842986 0.539641 0.645147 0.580217 0.422002 
0.499881 0.596734 0.0579428 0.202827 0.754243 
0.578229 0.0861499 0.126643 0.339676 0.523916 
0.792509 0.290305 0.13484 0.101167 0.440353 
0.347988 0.73633 0.322363 0.938367 0.750261 
0.171181 0.136061 0.323611 0.886298 0.839214 
0.473386 0.534288 0.0927367 0.54006 0.395725 
0.0354087 0.921942 0.944233 0.478548 0.364279 
0.229999 0.0297798 0.592532 0.543323 0.940114 
0.139003 0.120735 0.855262 0.452618 0.896609 
0.36699 0.569156 0.0130328 0.955501 0.136741 
0.544045 0.364849 0.90974 0.160462 0.294779 
0.342797 0.913759 0.683885 0.895972 0.791123 
0.998467 0.703317 0.255547 0.967321 0.247486 
0.433349 0.782554 0.719523 0.168279 0.215625 
0.561823 0.756762 0.987356 0.811703 0.907638 
0.286247 0.0925819 0.580933 0.140462 0.337503 
0.477755 0.0305283 0.687378 0.775158 0.952063 
0.41466 0.499532 0.0113465 0.0940043 0.287166 
0.69678 0.937876 0.83877 0.350007 0.0575767 
0.201949 0.332207 0.485185 0.606988 0.710556 
0.158116 0.596036 0.118007 0.520441 0.481942 
0.138355 0.448003 0.387126 0.584256 0.661779 
0.253749 0.382421 0.0345935 0.835377 0.106914 
0.469127 0.518381 0.862472 0.866845 0.653186 
0.966713 0.466698 0.35071 0.125358 0.297943 
0.783399 0.50061 0.837217 0.940789 0.124369 
0.845273 0.311908 0.777467 0.162435 0.380574 
0.306473 0.146261 0.735579 0.208029 0.20109 
0.524407 0.0423561 0.436138 0.4518 0.474974 
0.990053 0.0672719 0.131929 0.705217 0.868165 
0.529132 0.271161 0.609526 0.484796 0.766506 
0.694945 0.774422 0.547959 0.948933 0.615873 
0.158046 0.471885 0.79988 0.0822735 0.235922 
0.60205 0.0888842 0.815229 0.476472 0.824688 
0.733355 0.112305 0.598014 0.783688 0.817895 
0.901315 0.411362 0.924699 0.554487 0.175444 
0.706333 0.0196789 0.0489981 0.955028 0.707388 
0.936663 0.532867 0.0768825 0.802047 0.608262 
0.273166 0.935791 0.316702 0.0233435 0.929248 
0.315422 0.557483 0.692103 0.654225 0.686605 
0.944386 0.45994 0.529708 0.0413068 0.533629 
0.284155 0.70112 0.176755 0.00083339 0.378914 
0.480228 0.191267 0.70503 0.405848 0.35297 
0.315384 0.688304 0.357019 0.31483 0.302292 
0.828977 0.86999 0.968848 0.483227 0.40838 
0.1526 0.963474 0.497493 0.55226 0.186868 
0.42224 0.886062 0.0413658 0.091876 0.310214 
0.55058 0.563199 0.0517356 0.907411 0.298431 
0.481981 0.998392 0.888504 0.830976 0.591243 
0.416419 0.625645 0.541627 0.0479557 0.315326 
0.238869 0.873224 0.847631 0.570446 0.470214 
0.0396504 0.150781 0.58469 0.301761 0.917694 
0.249694 0.278104 0.790535 0.00969749 0.656498 
0.891861 0.246551 0.728117 0.165315 0.399359 
0.00386078 0.993906 0.544012 0.672696 0.928368 
0.475802 0.691845 0.864927 0.669941 0.67768 
0.380424 0.705123 0.55524 0.700469 0.611143 
0.547428 0.117446 0.572913 0.075759 0.0359245 
0.968168 0.943064 0.921875 0.891255 0.756838 
0.970008 0.391345 0.912037 0.679028 0.754824 
0.48936 0.413769 0.491224 0.787376 0.0957377 
0.952442 0.0954586 0.379482 0.823365 0.149767 
0.913448 0.160155 0.867084 0.862436 0.857263 
0.322867 0.293337 0.587361 0.68989 0.902354 
0.635576 0.320914 0.257611 0.422539 0.548851 
0.525606 0.492979 0.393263 0.0541097 0.287545 
0.0223962 0.808618 0.115911 0.581914 0.88753 
0.0464457 0.498808 0.726306 0.323106 0.491298 
0.679435 0.152082 0.174589 0.910188 0.247026 
0.530139 0.49199 0.699494 0.645616 0.490609 
0.093638 0.372764 0.700057 0.853034 0.0513122 
0.546473 0.500665 0.917967 0.177329 0.751196 
0.016865 0.597199 0.0558774 0.69641 0.852834 
0.270367 0.844751 0.916604 0.620537 0.287376 
0.855209 0.248912 0.370547 0.660864 0.715957 
0.420567 0.00310609 0.317476 0.848157 0.435895 
0.0434302 0.234839 0.436356 0.434465 0.80444 
0.246107 0.300985 0.833556 0.899207 0.487968 
0.322903 0.00703433 0.934664 0.701294 0.15105 
0.894556 0.271897 0.68737 0.173607 0.161226 
0.0953404 0.718994 0.478408 0.126498 0.297371 
0.462044 0.635797 0.647826 0.248429 0.614043 
0.655699 0.637076 0.873773 0.896443 0.999352 
0.511808 0.268434 0.89614 0.493696 0.507675 
0.00862788 0.64614 0.900031 0.304569 0.162743 
0.0232094 0.269634 0.327248 0.9762 0.65333 
0.543803 0.237018 0.898897 0.991891 0.278873 
0.783712 0.789756 0.597435 0.628845 0.203864 
0.818724 0.0233326 0.486649 0.443065 0.430154 
0.97497 0.463106 0.466003 0.55282 0.5614 
0.232431 0.201546 0.368054 0.208249 0.194763 
0.0368263 0.191183 0.859192 0.318305 0.143425 
0.113947 0.900338 0.118539 0.268619 0.447013 
0.978872 0.738036 0.756133 0.981889 0.802685 
0.611276 0.248754 0.56927 0.260785 0.174413 
0.472892 0.451156 0.133727 0.77759 0.0556016 
0.451006 0.122959 0.852639 0.0662605 0.130934 
0.926576 0.458763 0.69274 0.0292934 0.0084512 
0.827546 0.502836 0.576016 0.289476 0.0952898 
0.495952 0.760618 0.321728 0.416451 0.247439 
0.669676 0.640635 0.0947056 0.536659 0.408893 
0.511975 0.0845397 0.547837 0.0684456 0.355475 
0.0183703 0.16223 0.0640033 0.520287 0.195106 
0.181236 0.159774 0.72516 0.116259 0.00125719 
0.0909435 0.212375 0.287728 0.62666 0.0517908 
0.793486 0.87427 0.569101 0.300671 0.524387 
0.020091 0.80584 0.0858777 0.669295 0.547198 
0.230653 0.0370568 0.0281161 0.558079 0.761333 
0.938434 0.834807 0.407303 0.389529 0.591138 
0.693234 0.73615 0.401552 0.198443 0.481268 
0.136203 0.440857 0.954922 0.768788 0.437336 
0.990885 0.74151 0.782377 0.536121 0.905664 
0.54825 0.136427 0.337932 0.488903 0.247043 
0.213012 0.636168 0.608897 0.31614 0.311157 
0.551904 0.726014 0.83607 0.615853 0.705124 
0.636023 0.973396 0.145787 0.1014 0.505403 
0.899775 0.696629 0.744568 0.53786 0.724225 
0.204488 0.828392 0.289983 0.272474 0.152439 
0.0206927 0.969167 0.351668 0.868091 0.660664 
0.575874 0.237761 0.271118 0.636692 0.118927 
0.983354 0.945148 0.85872 0.737113 0.564515 
0.959671 0.377674 0.847758 0.261211 0.401699 
0.570633 0.262421 0.960448 0.441395 0.339937 
0.520341 0.102257 0.926535 0.127985 0.267488 
0.934201 0.270571 0.593767 0.746574 0.327265 
0.00457361 0.20611 0.626878 0.553711 0.0172578 
0.386639 0.420129 0.445534 0.838439 0.37267 
0.328609 0.161423 0.195352 0.186229 0.946972 
0.470759 0.446255 0.476856 0.473449 0.587255 
0.0202987 0.178066 0.293546 0.940862 0.00414306 
0.501669 0.259206 0.0080077 0.96 0.297501 
0.897513 0.737421 0.694034 0.717381 0.610877 
0.868322 0.873307 0.772991 0.341349 0.532515 
0.668563 0.731711 0.487229 0.830451 0.91791 
0.705755 0.835755 0.914105 0.817995 0.147497 
0.337944 0.743189 0.953454 0.891415 0.191666 
0.597884 0.155352 0.223376 0.25154 0.579863 
0.787173 0.834175 0.834972 0.984809 0.605807 
0.386086 0.694615 0.218902 0.950971 0.561539 
0.664632 0.495362 0.660678 0.329052 0.503359 
0.502569 0.191595 0.832846 0.117014 0.89052 
0.977399 0.735168 0.845015 0.874585 0.496879 
0.744865 0.187512 0.345639 0.260768 0.848043 
0.95503 0.159146 0.386508 0.711139 0.274735 
0.396951 0.304731 0.806862 0.824929 0.811117 
0.863108 0.0724273 0.236673 0.0666824 0.734575 
0.92914 0.919589 0.921773 0.0413981 0.0537451 
0.837925 0.741899 0.449052 0.115174 0.538823 
0.688418 0.681239 0.631879 0.64991 0.35674 
0.623128 0.334143 0.239069 0.975325 0.497116 
0.370907 0.608291 0.314383 0.783506 0.836876 
0.577724 0.608163 0.911694 0.460361 0.0842065 
0.743302 0.120297 0.756407 0.762872 0.464698 
0.782744 0.0150921 0.594647 0.0517477 0.167721 
0.411482 0.827874 0.341293 0.238628 0.754948 
0.526867 0.00612943 0.491884 0.97454 0.256782 
0.830231 0.207781 0.446562 0.906395 0.498371 
0.660504 0.19037 0.900289 0.101859 0.711088 
0.419577 0.542073 0.993919 0.393776 0.0435771 
0.328774 0.451502 0.821128 0.192186 0.134737 
0.179603 0.303705 0.0738366 0.247129 0.921025 
0.887821 0.298891 0.103483 0.0805702 0.62203 
0.00999787 0.731101 0.771316 0.856558 0.2878 
0.408075 0.929993 0.581008 0.911095 0.762184 
0.620823 0.631577 0.897872 0.0465844 0.116919 
0.60212 0.564965 0.396231 0.68877 0.228029 
0.22464 0.494446 0.217041 0.827441 0.0230522 
0.0124293 0.546342 0.940815 0.682989 0.318026 
0.612946 0.42168 0.356123 0.82763 0.280918 
0.268534 0.603425 0.160551 0.945071 0.0723831 
0.102077 0.433572 0.234395 0.699165 0.567488 
0.717627 0.772674 0.955855 0.535191 0.773023 
0.350582 0.0644816 0.199022 0.535732 0.0313364 
0.511835 0.26293 0.262635 0.862128 0.468776 
0.959585 0.461381 0.326482 0.0992318 0.380736 
0.11489 0.650125 0.213274 0.0620222 0.122314 
0.154425 0.129167 0.538282 0.996038 0.800107 
0.864743 0.884099 0.16006 0.322083 0.714824 
0.724765 0.200608 0.687496 0.0447824 0.376888 
0.890127 0.607088 0.560725 0.170859 0.60203 
0.147077 0.719386 0.478578 0.191944 0.343332 
0.973873 0.315504 0.757569 0.206748 0.0120625 
0.280784 0.460853 0.201494 0.278726 0.514607 
0.636149 0.123703 0.315758 0.455626 0.747014 
0.0773235 0.986219 0.254378 0.909817 0.429133 
0.327299 0.114296 0.674606 0.091786 0.513978 
0.886489 0.899287 0.528745 0.471877 0.192637 
0.464115 0.891223 0.892946 0.749477 0.348566 
0.913903 0.889919 0.596522 0.629355 0.575101 
0.730778 0.283508 0.27181 0.815311 0.127507 
0.474829 0.0563686 0.554526 0.94191 0.588534 
0.856483 0.762135 0.226798 0.466616 0.186597 
0.0582979 0.853696 0.8464 0.842889 0.64998 
0.934593 0.67254 0.799116 0.316736 0.414221 
0.300412 0.0911528 0.508853 0.667849 0.492557 
0.610319 0.365272 0.00254338 0.278353 0.795016 
0.965645 0.907586 0.491143 0.726979 0.601781 
0.894905 0.755772 0.214835 0.188896 0.220213 
0.202458 0.00764174 0.316365 0.070089 0.291177 
0.972904 0.391354 0.878394 0.0947756 0.726203 
0.253989 0.278863 0.481139 0.0944439 0.192888 
0.866343 0.779882 0.219213 0.663477 0.0471032 
0.469406 0.917608 0.358554 0.791563 0.674855 
0.324016 0.516861 0.532967 0.728007 0.970611 
0.323983 0.826763 0.118665 0.619785 0.91585 
0.16103 0.450333 0.805506 0.37593 0.689726 
0.912503 0.0545525 0.864251 0.396597 0.201523 
0.74996 0.469341 0.536249 0.198039 0.331303 
0.441951 0.973958 0.618625 0.973131 0.762728 
0.672571 0.00572522 0.77457 0.360713 0.759256 
0.954432 0.0946922 0.30454 0.0467226 0.211222 
0.34187 0.493132 0.68654 0.943503 0.879656 
0.606467 0.457821 0.3527 0.850436 0.682313 
0.67258 0.1802 0.613212 0.458329 0.187653 
0.326822 0.0280237 0.244335 0.37259 0.769818 
0.523682 0.939242 0.405797 0.87039 0.243925 
0.237855 0.0941057 0.282637 0.215544 0.607397 
0.240724 0.153877 0.814802 0.156796 0.452834 
0.623704 0.101408 0.500683 0.738122 0.512767 
0.900949 0.191178 0.498694 0.244969 0.744042 
0.0565514 0.0328465 0.526157 0.336765 0.917191 
0.0307359 0.206328 0.864895 0.737751 0.392693 
0.145282 0.087617 0.636267 0.594769 0.769684 
0.236442 0.913776 0.23537 0.52749 0.188564 
0.9326 0.16638 0.750534 0.277947 0.109667 
0.87157 0.631941 0.106133 0.222792 0.547988 
0.180504 0.492961 0.0529085 0.510803 0.279867 
0.551737 0.47172 0.253295 0.100481 0.0109164 
0.519157 0.234904 0.44864 0.826579 0.323315 
0.148576 0.0769388 0.0841438 0.0709308 0.544576 
0.503357 0.939669 0.722564 0.101566 0.0103749 
0.471768 0.802078 0.245751 0.854911 0.147436 
0.364343 0.863817 0.750479 0.169075 0.411801 
0.185125 0.690676 0.76036 0.104746 0.0144087 
0.716055 0.828266 0.391395 0.249518 0.206195 
0.565553 0.483194 0.263676 0.904353 0.176334 
0.955729 0.73141 0.430175 0.838791 0.26272 
0.685653 0.259379 0.569439 0.493993 0.78999 
0.196363 0.0554939 0.0110563 0.434675 0.211418 
0.765394 0.871161 0.481285 0.823826 0.185765 
0.668074 0.417789 0.812502 0.777458 0.77778 
0.718631 0.0858579 0.50895 0.0295482 0.147551 
0.537504 0.626232 0.31181 0.203433 0.29079 
0.403645 0.932129 0.464356 0.140057 0.274161 
0.689842 0.72842 0.928983 0.649411 0.175664 
0.156086 0.860178 0.505456 0.0931713 0.174659 
0.805389 0.102535 0.27109 0.862066 0.584609 
0.28727 0.00658367 0.258208 0.971841 0.354116 
0.219511 0.207665 0.0577613 0.828792 0.326755 
0.0899904 0.724625 0.652829 0.599579 0.210667 
0.660433 0.185477 0.440928 0.896954 0.661782 
0.435887 0.301886 0.467894 0.475884 0.246154 
0.96659 0.34743 0.118705 0.618053 0.792337 
0.504106 0.911965 0.733673 0.939507 0.09312 
0.878616 0.650161 0.452622 0.572125 0.802218 
0.0865558 0.134465 0.846344 0.505823 0.569215 
0.86672 0.714106 0.0900324 0.988706 0.703989 
0.846674 0.255755 0.554909 0.0201058 0.584986 
0.0621084 0.710752 0.34612 0.374421 0.925204 
0.57472 0.989738 0.716181 0.480441 0.31803 
0.762273 0.737204 0.306487 0.687847 0.268833 
0.19568 0.807905 0.816717 0.209565 0.358192 
0.632373 0.118354 0.128693 0.562877 0.231268 
0.688141 0.676497 0.0392502 0.618341 0.252791 
0.667542 0.128143 0.0934596 0.451924 0.188086 
0.324311 0.159509 0.818776 0.30982 0.0458133 
0.671412 0.982554 0.604884 0.39426 0.217991 
0.00491566 0.474946 0.662808 0.98449 0.221691 
0.948346 0.4347 0.211749 0.59697 0.431664 
0.145558 0.634798 0.465454 0.548318 0.129531 
0.344753 0.787525 0.3281 0.13231 0.999868 
0.271503 0.316201 0.899482 0.22544 0.332172 
0.0310059 0.823965 0.555537 0.626638 0.0452885 
0.834884 0.394389 0.266237 0.658777 0.785273 
0.479857 0.16212 0.428404 0.468989 0.176205 
0.376486 0.782363 0.705411 0.918763 0.926267 
0.394661 0.817201 0.0248222 0.136178 0.608403 
0.253024 0.221835 0.344628 0.423944 0.396887 
0.140941 0.368172 0.774641 0.437441 0.231407 
0.881855 0.463995 0.0729724 0.32869 0.558341 
0.0565208 0.855168 0.672845 0.833567 0.292504 
0.221401 0.561299 0.476709 0.99436 0.233577 
0.469547 0.323357 0.811769 0.737504 0.902895 
0.961726 0.181755 0.970201 0.751005 0.993588 
0.463772 0.0492601 0.208583 0.373803 0.627561 
0.452792 0.975579 0.827659 0.518426 0.464599 
0.25058 0.96708 0.771441 0.962863 0.3978 
0.653579 0.986294 0.849987 0.146567 0.455365 
0.939262 0.11437 0.0533811 0.0708668 0.26262 
0.624489 0.415921 0.202504 0.331267 0.13442 
0.170826 0.157314 0.678491 0.234511 0.544995 
0.751643 0.444034 0.180876 0.944015 0.936829 
0.0601604 0.64876 0.535261 0.432558 0.148491 
0.737467 0.701538 0.586961 0.838036 0.0194348 
0.429397 0.217043 0.324794 0.0317909 0.291939 
0.983418 0.174427 0.206088 0.978151 0.542948 
0.412568 0.0804327 0.644269 0.457856 0.376664 
0.0154536 0.135236 0.405082 0.573383 0.975152 
0.739604 0.676083 0.644443 0.738354 0.896771 
0.753916 0.479582 0.263553 0.65114 0.783528 
0.454756 0.374893 0.753427 0.464794 0.785007 
0.785834 0.0399878 0.21928 0.331557 0.125477 
0.313347 0.641904 0.832904 0.966923 0.447326 
0.553848 0.927659 0.868647 0.501493 0.328145 
0.3254 0.0199026 0.302682 0.367855 0.89367 
0.705456 0.145873 0.00501687 0.904748 0.638351 
0.0912282 0.62847 0.0638502 0.0463476 0.409438 
0.281866 0.188011 0.837157 0.933861 0.991748 
0.693292 0.620162 0.968103 0.0436516 0.181122 
0.863399 0.790865 0.647125 0.205242 0.464985 
0.472926 0.116466 0.702163 0.252273 0.641144 
0.730393 0.907939 0.126967 0.555544 0.578424 
0.0601074 0.909674 0.197008 0.195136 0.386934 
0.236839 0.334032 0.262273 0.419678 0.948496 
0.593442 0.102609 0.0286043 0.618297 0.925617 
0.369044 0.954537 0.569665 0.657636 0.00665745 
0.669909 0.500277 0.184198 0.686638 0.36701 
0.132542 0.00496308 0.888854 0.909208 0.576909 
0.126116 0.433932 0.934914 0.511576 0.916001 
0.29077 0.0195709 0.336825 0.102131 0.0439705 
0.561721 0.142656 0.287531 0.988711 0.126966 
0.224256 0.32756 0.876144 0.373423 0.702059 
0.563566 0.553175 0.910385 0.901559 0.88781 
0.827113 0.452989 0.24278 0.0331847 0.90282 
0.145401 0.372066 0.813892 0.389286 0.906725 
0.590249 0.508551 0.561684 0.650168 0.877503 
0.545146 0.703724 0.250963 0.874122 0.0815598 
0.862921 0.643889 0.494678 0.183506 0.40758 
0.536628 0.178339 0.468329 0.415598 0.882059 
0.289312 0.591386 0.852309 0.146955 0.759729 
0.125648 0.402257 0.435159 0.295144 0.0418438 
0.945189 0.362971 0.756127 0.56231 0.295817 
0.706463 0.0661104 0.227693 0.648273 0.598283 
0.482319 0.61603 0.134161 0.11611 0.0469686 
0.0980621 0.52567 0.602851 0.694653 0.39395 
0.921642 0.919216 0.397897 0.213259 0.774776 
0.246359 0.871922 0.183758 0.222651 0.856855 
0.621022 0.148439 0.854363 0.460641 0.851332 
0.97558 0.064216 0.872943 0.728666 0.958044 
0.292989 0.591741 0.10323 0.92835 0.823682 
0.267157 0.958989 0.663467 0.0909114 0.59189 
0.941176 0.00673661 0.0172469 0.553163 0.956032 
0.593789 0.20198 0.355399 0.414758 0.7243 
0.819394 0.837585 0.686025 0.470388 0.485666 
0.0767739 0.00116202 0.933257 0.52385 0.478566 
0.298563 0.232344 0.0982665 0.189509 0.988891 
0.556718 0.778732 0.658546 0.972364 0.96882 
0.517949 0.191711 0.225208 0.55845 0.70385 
0.776151 0.592308 0.0560032 0.668109 0.66321 
0.289394 0.246909 0.394705 0.289082 0.718855 
0.535235 0.317742 0.00732167 0.390809 0.920072 
0.166606 0.564043 0.547566 0.721619 0.943867 
0.886425 0.760258 0.0942701 0.488614 0.906483 
0.420056 0.530168 0.675476 0.769774 0.244266 
0.798011 0.230248 0.125345 0.00989077 0.585242 
0.558206 0.0889297 0.317937 0.357468 0.270042 
0.487142 0.576862 0.967114 0.405197 0.930978 
0.130426 0.334671 0.438051 0.220063 0.454083 
0.811675 0.350356 0.643848 0.273701 0.829199 
0.950141 0.632449 0.286766 0.947528 0.631455 
0.875369 0.871292 0.783303 0.257424 0.200437 
0.266072 0.426496 0.597959 0.877168 0.844735 
0.694266 0.08789 0.514196 0.569222 0.126215 
0.453412 0.861228 0.049831 0.854823 0.923781 
0.937458 0.515752 0.464096 0.563242 0.131976 
0.629863 0.545434 0.50858 0.578101 0.976944 
0.275027 0.243494 0.588486 0.469872 0.367743 
0.491533 0.93911 0.814009 0.216217 0.109661 
0.932298 0.395981 0.647948 0.416352 0.45969 
0.621155 0.815038 0.435038 0.978165 0.515439 
0.31455 0.374988 0.246065 0.079879 0.83055 
0.799007 0.45611 0.967623 0.109718 0.968166 
0.664234 0.525212 0.54992 0.134899 0.351358 
0.557573 0.824897 0.735392 0.0219319 0.864958 
0.913974 0.654834 0.608104 0.771455 0.746237 
0.533097 0.570925 0.681173 0.883906 0.206037 
0.930502 0.510155 0.0274909 0.353786 0.0512801 
0.0724296 0.604443 0.553305 0.523516 0.200439 
0.209001 0.0762148 0.928965 0.182143 0.416476 
0.764077 0.623724 0.532669 0.731142 0.423546 
0.206349 0.468923 0.824235 0.526899 0.111159 
0.552903 0.210676 0.91479 0.457589 0.952113 
0.210496 0.294909 0.628977 0.261383 0.712314 
0.209973 0.36413 0.167509 0.351235 0.613902 
0.90098 0.566199 0.393525 0.118316 0.55794 
0.688746 0.863635 0.667867 0.264486 0.472026 
0.65062 0.875825 0.12323 0.425754 0.810989 
0.482642 0.728171 0.68057 0.931909 0.351754 
0.934799 0.708001 0.954699 0.733057 0.0942463 
0.941697 0.933203 0.304771 0.598965 0.0840567 
0.567167 0.907878 0.203122 0.423974 0.805484 
0.820898 0.989509 0.693376 0.896376 0.448987 
0.351342 0.724604 0.642685 0.23967 0.547675 
0.755242 0.0899327 0.330086 0.292623 0.692171 
0.744592 0.349219 0.857534 0.649149 0.838044 
0.00122188 0.680607 0.0458876 0.0318726 0.64594 
0.320096 0.985134 0.167602 0.660931 0.895432 
0.629478 0.403195 0.783468 0.114191 0.883394 
0.933844 0.380406 0.124636 0.0300153 0.388374 
0.940877 0.681926 0.227034 0.0642103 0.192354 
0.900798 0.36017 0.526996 0.495146 0.344049 
0.0633583 0.155633 0.636359 0.968425 0.915403 
0.317372 0.906212 0.378305 0.793196 0.853406 
0.166862 0.275978 0.170408 0.233135 0.113145 
0.621113 0.93201 0.448194 0.882068 0.97754 
0.487182 0.646227 0.592702 0.223097 0.234104 
0.454563 0.377905 0.671635 0.0980928 0.855731 
0.352453 0.97981 0.431455 0.391736 0.689777 
0.106204 0.366197 0.840485 0.386508 0.310729 
0.499545 0.789998 0.378858 0.544938 0.0707831 
0.618227 0.904796 0.166481 0.460264 0.826404 
0.878295 0.0617099 0.0968774 0.236907 0.0720331 
0.793015 0.101912 0.387977 0.217627 0.259431 
0.94513 0.708589 0.868299 0.114483 0.445007 
0.637999 0.192005 0.135833 0.12871 0.50766 
0.259454 0.559443 0.542908 0.220533 0.999539 
0.33109 0.773984 0.514216 0.27886 0.998929 
0.831171 0.986643 0.407114 0.360768 0.427627 
0.966839 0.891347 0.673824 0.95836 0.0235416 
0.656426 0.955364 0.36945 0.122738 0.495508 
0.612225 0.139664 0.374295 0.572242 0.834269 
0.236862 0.846569 0.656171 0.0741769 0.264527 
0.151138 0.856687 0.750766 0.806795 0.615675 
0.603247 0.911369 0.512941 0.557915 0.518501 
0.802273 0.910756 0.882241 0.604916 0.83794 
0.0804743 0.710531 0.759277 0.57646 0.121076 
0.583916 0.62751 0.261741 0.261814 0.415526 
0.273489 0.599926 0.146277 0.0777474 0.400643 
0.977991 0.941869 0.866679 0.896087 0.417723 
0.968514 0.516575 0.105092 0.418716 0.74217 
0.297891 0.0712881 0.396494 0.619885 0.236883 
0.379753 0.448746 0.506221 0.968117 0.267668 
0.706623 0.18181 0.346098 0.552655 0.156004 
0.0568518 0.467647 0.380466 0.901699 0.508936 
0.553037 0.733651 0.161548 0.179157 0.800476 
0.93281 0.290394 0.292306 0.921317 0.791421 
0.758332 0.953685 0.545677 0.260437 0.575123 
0.308911 0.099523 0.213155 0.431663 0.716021 
0.0220376 0.587717 0.742483 0.758907 0.702715 
0.925317 0.428926 0.863831 0.306795 0.62382 
0.151907 0.933207 0.718857 0.728754 0.219652 
0.159549 0.656524 0.824485 0.312765 0.440901 
0.895949 0.0497872 0.437291 0.815471 0.577419 
0.170632 0.250127 0.584853 0.499945 0.109964 
0.317109 0.462108 0.208787 0.0665347 0.421085 
0.574705 0.825326 0.332083 0.919073 0.322982 
0.00732837 0.873377 0.522003 0.971356 0.567521 
0.147877 0.804404 0.654374 0.806202 0.658954 
0.0452499 0.562637 0.0572126 0.79747 0.778988 
0.839669 0.88457 0.345161 0.707272 0.111565 
0.948284 0.731237 0.601274 0.912534 0.255885 
0.0525003 0.56773 0.0208952 0.0592958 0.0514919 
0.998714 0.02327 0.131819 0.988043 0.904229 
0.021348 0.0550752 0.750434 0.749819 0.270747 
0.628386 0.826319 0.779696 0.549943 0.712096 
0.464578 0.108402 0.386004 0.633141 0.836502 
0.437933 0.202854 0.537229 0.95378 0.345425 
0.728784 0.0599912 0.421996 0.659277 0.348803 
0.283622 0.951195 0.520478 0.88043 0.484457 
0.325038 0.227682 0.319514 0.31765 0.675338 
0.0850267 0.784113 0.605798 0.227193 0.990552 
0.033862 0.67805 0.441958 0.915287 0.726131 
0.0215173 0.162347 0.143153 0.641544 0.316532 
0.3224 0.873584 0.66232 0.105246 0.912864 
0.808709 0.250401 0.0417256 0.293535 0.74088 
0.256506 0.273605 0.380446 0.235984 0.046731 
0.774833 0.827609 0.497518 0.663827 0.194459 
0.445585 0.190963 0.0175974 0.923568 0.4407 
0.342391 0.20486 0.00461559 0.713146 0.732617 
0.74718 0.9297 0.489119 0.665278 0.172296 
0.555919 0.0871978 0.152558 0.83506 0.522286 
0.275525 0.790635 0.583118 0.760456 0.909212 
0.0917174 0.547832 0.3121 0.427089 0.450535 
0.180958 0.824321 0.267365 0.0488487 0.0267566 
0.536639 0.25381 0.703647 0.429851 0.406131 
0.957726 0.739926 0.31272 0.192571 0.338474 
0.884381 0.663923 0.129993 0.397351 0.304357 
0.299414 0.216558 0.578483 0.0724829 0.945543 
0.0981879 0.429503 0.0778172 0.778214 0.471215 
0.815098 0.507846 0.324817 0.187257 0.388321 
0.687306 0.665214 0.168992 0.617904 0.273614 
0.605076 0.546454 0.475681 0.402137 0.217362 
0.228748 0.395572 0.76738 0.292938 0.693818 
0.782605 0.905925 0.487259 0.924662 0.477559 
0.164466 0.570633 0.741056 0.575779 0.122731 
0.362865 0.594215 0.949001 0.966772 0.00491639 
0.222219 0.862926 0.501509 0.980101 0.577455 
0.590164 0.60894 0.823323 0.633279 0.924704 
0.209193 0.0189587 0.393145 0.393891 0.878817 
0.325067 0.24237 0.505683 0.769893 0.467627 
0.644768 0.959747 0.262867 0.287368 0.113515 
0.428275 0.439287 0.398115 0.925885 0.588192 
0.955424 0.405079 0.270455 0.926607 0.302748 
0.21 0.259751 0.442238 0.010888 0.154685 
0.565012 0.536328 0.621234 0.305696 0.211471 
0.339842 0.0160856 0.269144 0.297779 0.553053 
0.0687809 0.2988 0.56295 0.837968 0.48936 
0.70886 0.255088 0.743326 0.985889 0.737405 
0.607956 0.85322 0.9717 0.539243 0.662395 
0.948746 0.724511 0.57865 0.902404 0.25488 
0.524904 0.206383 0.431763 0.847633 0.67248 
0.903082 0.112696 0.804347 0.703753 0.45842 
0.641294 0.834816 0.843948 0.296528 0.463647 
0.668422 0.712951 0.929697 0.853795 0.791558 
0.211963 0.891297 0.908599 0.581184 0.0440213 
0.503731 0.421131 0.596062 0.863043 0.165766 
0.511899 0.323491 0.848933 0.542014 0.992127 
0.542078 0.296103 0.384124 0.336013 0.367028 
0.572833 0.841406 0.439644 0.775005 0.958383 
0.962369 0.94404 0.0126491 0.525094 0.0693028 
0.359154 0.877355 0.937213 0.606598 0.493377 
0.00228438 0.706901 0.552342 0.752082 0.148392 
0.417619 0.790216 0.0838394 0.475811 0.629796 
0.0192346 0.129091 0.652489 0.213007 0.867845 
0.265072 0.516005 0.849622 0.437791 0.435692 
0.352404 0.667528 0.950728 0.448202 0.444143 
0.156233 0.173112 0.71317 0.457772 0.0633724 
0.737009 0.204694 0.0799612 0.815011 0.140463 
0.757334 0.227118 0.150738 0.966721 0.0503131 
0.166696 0.817887 0.48119 0.593106 0.948519 
0.206038 0.99126 0.612991 0.631751 0.344289 
0.0228529 0.607662 0.705048 0.583345 0.510683 
0.614401 0.362944 0.958097 0.423268 0.902381 
0.808438 0.187385 0.911452 0.849695 0.432738 
0.890196 0.727066 0.939358 0.553906 0.733232 
0.48218 0.153688 0.932987 0.682238 0.662388 
0.798767 0.563424 0.926715 0.86494 0.234297 
0.914328 0.175083 0.554231 0.0430015 0.640579 
0.337759 0.488111 0.814576 0.574404 0.520965 
0.665166 0.107248 0.52927 0.392773 0.818185 
0.834567 0.442058 0.666791 0.249061 0.600528 
0.551142 0.995991 0.456799 0.297891 0.464114 
0.769711 0.0132487 0.0999484 0.0174561 0.0626935 
0.175825 0.808345 0.270741 0.466396 0.435462 
0.64504 0.465261 0.401309 0.0184623 0.670693 
0.434869 0.306916 0.720666 0.0487063 0.0124199 
0.95169 0.57542 0.599235 0.743194 0.298323 
0.548665 0.932388 0.969821 0.820515 0.885374 
0.347479 0.18367 0.381634 0.839024 0.640816 
0.148272 0.627457 0.722478 0.726089 0.747574 
0.390549 0.867309 0.110631 0.645807 0.087103 
0.586137 0.160939 0.951796 0.753055 0.154398 
0.15509 0.122626 0.383863 0.874637 0.360603 
0.744889 0.731873 0.259602 0.720469 0.758463 
0.43025 0.832605 0.862517 0.134495 0.925883 
0.682996 0.591144 0.786921 0.976501 0.155053 
0.0455597 0.880248 0.205533 0.0804064 0.861893 
0.595497 0.127797 0.146204 0.9919 0.166978 
0.164192 0.532437 0.971124 0.535089 0.356712 
0.128849 0.42042 0.817913 0.041341 0.72729 
0.0891035 0.0444454 0.911647 0.49373 0.278219 
0.362698 0.508693 0.84128 0.961849 0.273611 
0.600951 0.114158 0.525418 0.635806 0.109859 
0.309041 0.442691 0.916679 0.095755 0.472434 
0.387714 0.115721 0.769763 0.62144 0.90259 
0.212254 0.0101814 0.871291 0.685896 0.640767 
0.417543 0.498891 0.404249 0.789386 0.148189 
0.0786309 0.898751 0.344675 0.814451 0.771094 
0.91931 0.928649 0.543375 0.919869 0.097827 
0.947529 0.574949 0.202103 0.663495 0.866903 
0.289214 0.108686 0.653895 0.807279 0.203975 
0.636174 0.831359 0.923372 0.262279 0.252784 
0.456124 0.650549 0.0215632 0.0783357 0.202963 
0.498176 0.537193 0.519893 0.663448 0.825751 
0.739754 0.99036 0.856637 0.0111502 0.232364 
0.119393 0.972016 0.71391 0.708212 0.301181 
0.0750208 0.578429 0.201269 0.0757173 0.770305 
0.621865 0.323035 0.277594 0.125554 0.119578 
0.566103 0.00183966 0.439141 0.666291 0.543191 
0.224098 0.272437 0.919494 0.750748 0.370263 
0.157813 0.5944 0.756935 0.222218 0.993077 
0.37262 0.156351 0.292874 0.729295 0.846499 
0.660037 0.845684 0.0700722 0.89327 0.00322423 
0.879232 0.682853 0.10667 0.564179 0.176311 
0.277848 0.920323 0.300961 0.548886 0.167953 
0.244477 0.801097 0.895154 0.850562 0.399934 
0.806714 0.281694 0.276112 0.896467 0.369382 
0.232394 0.0772432 0.858947 0.351449 0.0782085 
0.723285 0.971814 0.204031 0.345995 0.278495 
0.336581 0.358687 0.79613 0.260348 0.48801 
0.102016 0.885124 0.332718 0.668482 0.929735 
0.801708 0.948221 0.637376 0.83541 0.494715 
0.477049 0.461265 0.0899259 0.971182 0.194005 
0.145134 0.653622 0.241256 0.129714 0.624849 
0.524562 0.888238 0.217957 0.87816 0.696852 
0.0814883 0.77656 0.865208 0.552855 0.570245 
0.0429382 0.32072 0.268987 0.574255 0.118338 
0.92534 0.237398 0.212221 0.769344 0.477932 
0.272976 0.349899 0.455345 0.0974659 0.693646 
0.759938 0.36228 0.283973 0.376612 0.591251 
0.995691 0.378155 0.38345 0.155664 0.0320443 
0.208405 0.612238 0.932514 0.45862 0.65297 
0.244859 0.443086 0.346332 0.489784 0.142034 
0.791682 0.0012625 0.879106 0.71307 0.897239 
0.210878 0.290234 0.471084 0.75863 0.780817 
0.377369 0.720249 0.610808 0.0842703 0.534842 
0.582839 0.0524021 0.469449 0.660359 0.5901 
0.433306 0.443139 0.892875 0.659741 0.196789 
0.848586 0.988065 0.842369 0.573724 0.415112 
0.348502 0.685592 0.162193 0.947673 0.580937 
0.585982 0.980335 0.959261 0.992072 0.842485 
0.934797 0.605651 0.887527 0.27657 0.361273 
0.102352 0.179672 0.665544 0.896811 0.39779 
0.522785 0.633955 0.551011 0.443105 0.391334 
0.975056 0.650471 0.571307 0.342063 0.0703191 
0.543195 0.524797 0.960861 0.977355 0.491643 
0.118532 0.89031 0.0864448 0.22363 0.643297 
0.419356 0.351083 0.824118 0.646136 0.537623 
0.735476 0.362714 0.752659 0.410631 0.89209 
0.340797 0.59611 0.32613 0.770013 0.903125 
0.42458 0.0343127 0.651038 0.105059 0.361138 
0.565137 0.973373 0.688731 0.490395 0.66494 
0.473086 0.189097 0.126415 0.794283 0.207481 
0.0952574 0.900231 0.672384 0.280523 0.624615 
0.914795 0.198975 0.107977 0.997042 0.399549 
0.713354 0.454543 0.425434 0.782975 0.960256 
0.721624 0.31781 0.865472 0.0719177 0.0637971 
0.180084 0.201905 0.553063 0.867676 0.476772 
0.518011 0.0987007 0.368506 0.419936 0.155034 
0.715012 0.8812 0.0616569 0.440037 0.233628 
0.801883 0.23027 0.208247 0.578747 0.850426 
0.84008 0.127987 0.59518 0.71428 0.79976 
0.078667 0.230419 0.781234 0.244459 0.0208688 
0.521472 0.749904 0.770513 0.931897 0.413562 
0.823887 0.388013 0.151063 0.544274 0.930591 
0.178781 0.643429 0.836214 0.656656 0.889812 
0.982495 0.549798 0.239463 0.74305 0.809068 
0.994229 0.719847 0.622741 0.860732 0.523212 
0.741273 0.974074 0.294395 0.383936 0.0256041 
0.919876 0.184509 0.279502 0.77497 0.409895 
0.886286 0.124429 0.264801 0.138325 0.825882 
0.250751 0.870664 0.961831 0.887027 0.258214 
0.758114 0.0617412 0.679896 0.799822 0.943214 
0.51955 0.430999 0.716621 0.389463 0.15096 
0.997437 0.268968 0.234231 0.91002 0.0711742 
0.349825 0.412143 0.951675 0.536991 0.0333488 
0.574665 0.847014 0.126038 0.67154 0.621545 
0.827325 0.694705 0.617999 0.392791 0.884366 
0.749425 0.247833 0.102701 0.506233 0.580306 
0.339883 0.742636 0.566056 0.919017 0.334402 
0.689155 0.279766 0.0783405 0.956638 0.907252 
0.886913 0.947987 0.121332 0.117136 0.807573 
0.705483 0.783897 0.291972 0.99334 0.353314 
0.738631 0.543048 0.234715 0.308271 0.202269 
0.620072 0.343073 0.909749 0.309921 0.0104163 
0.589781 0.928181 0.814181 0.0525054 0.93577 
0.35423 0.0240363 0.613374 0.897341 0.843916 
0.674852 0.831424 0.281472 0.215431 0.958119 
0.433059 0.915243 0.889231 0.683275 0.797134 
0.354545 0.574905 0.149684 0.379688 0.905059 
0.444339 0.913251 0.519125 0.637613 0.619251 
0.266549 0.00933365 0.3994 0.625841 0.0484488 
0.865627 0.502972 0.597171 0.92052 0.225906 
0.808951 0.42098 0.864839 0.48507 0.791755 
0.246881 0.254463 0.337304 0.186925 0.707104 
0.0807931 0.603348 0.168703 0.359951 0.553733 
0.475927 0.567459 0.434153 0.665192 0.16284 
0.0219116 0.290486 0.398038 0.543964 0.184297 
0.26177 0.000713946 0.963927 0.161968 0.278479 
0.138704 0.174351 0.211805 0.506005 0.226614 
0.718607 0.674315 0.462392 0.385472 0.614424 
0.238055 0.104256 0.261945 0.276822 0.624512 
0.814226 0.0319333 0.181647 0.921112 0.490915 
0.699771 0.66764 0.0270706 0.310485 0.421607 
0.451885 0.0866416 0.543508 0.184879 0.240254 
0.349041 0.82682 0.800437 0.947771 0.543999 
0.638602 0.999368 0.849191 0.989002 0.0117922 
0.316098 0.020549 0.483216 0.750441 0.683067 
0.151608 0.540302 0.116229 0.98802 0.921362 
0.58026 0.012683 0.680312 0.300677 0.163976 
0.415409 0.510084 0.29182 0.401359 0.536534 
0.578965 0.00744565 0.233516 0.583668 0.306942 
0.161255 0.888101 0.106262 0.306145 0.966787 
0.0136473 0.843197 0.478526 0.939364 0.337251 
0.692566 0.193095 0.0735539 0.267134 0.372983 
0.574673 0.802233 0.715876 0.538931 0.41149 
0.304665 0.615249 0.129825 0.345845 0.523775 
0.319602 0.00733997 0.207367 0.980563 0.764788 
0.127005 0.638945 0.705954 0.173923 0.376898 
0.174886 0.707581 0.810604 0.933851 0.135323 
0.828302 0.797125 0.139369 0.665907 0.50379 
0.50244 0.753897 0.156497 0.0251174 0.537175 
0.401753 0.18728 0.951257 0.908089 0.199535 
0.432584 0.724781 0.916481 0.384634 0.494274 
0.00696893 0.597405 0.887344 0.904427 0.54293 
0.185817 0.186163 0.733934 0.849985 0.972433 
0.359502 0.618767 0.545705 0.226627 0.555977 
0.446863 0.840926 0.747846 0.242074 0.309017 
0.390576 0.111395 0.743102 0.0570711 0.962286 
0.320075 0.928515 0.239468 0.942798 0.541402 
0.182146 0.763529 0.194114 0.619021 0.406726 
0.124538 0.234511 0.890096 0.341989 0.460314 
0.934168 0.192386 0.85696 0.970867 0.966705 
0.891072 0.862008 0.935027 0.822896 0.338883 
0.0782023 0.43343 0.671489 0.51588 0.26854 
0.881744 0.231808 0.629315 0.228693 0.304745 
0.998764 0.778528 0.185612 0.55296 0.068321 
0.411769 0.831059 0.516723 0.468101 0.600966 
0.610997 0.103274 0.387981 0.138635 0.716882 
0.689394 0.502075 0.239454 0.346813 0.32793 
0.984433 0.97885 0.665083 0.593491 0.817614 
0.213337 0.435795 0.899969 0.15842 0.105193 
0.713333 0.334338 0.401647 0.520767 0.661668 
0.836001 0.80638 0.475358 0.876072 0.498854 
0.803529 0.899087 0.334251 0.826928 0.609282 
0.768768 0.114072 0.0640677 0.540483 0.0869886 
0.762202 0.693611 0.00866328 0.496287 0.269338 
0.0706614 0.507677 0.42235 0.58796 0.81256 
0.737103 0.417324 0.710978 0.146902 0.496722 
0.281833 0.0471567 0.282727 0.185852 0.423462 
0.573331 0.207011 0.822278 0.632979 0.20249 
0.588452 0.372656 0.372267 0.103606 0.292815 
0.634414 0.0486937 0.599175 0.545722 0.461089 
0.96828 0.69632 0.487479 0.633051 0.400341 
0.267951 0.222258 0.996986 0.0419549 0.615982 
0.736906 0.533261 0.908187 0.417743 0.901904 
0.757375 0.554333 0.216926 0.562985 0.62666 
0.586934 0.713681 0.979445 0.708934 0.0555735 
0.445768 0.490014 0.942456 0.481437 0.523776 
0.728796 0.923867 0.972005 0.183703 0.60331 
0.851435 0.0940051 0.482065 0.158175 0.0210003 
0.730526 0.909669 0.972639 0.817958 0.568393 
0.0773096 0.740108 0.458192 0.732361 0.487716 
0.401152 0.342414 0.397323 0.379162 0.95366 
0.220611 0.844654 0.235924 0.512416 0.305991 
0.712177 0.23935 0.367017 0.21825 0.95333 
0.848685 0.854114 0.480959 0.2645 0.861571 
0.314752 0.547612 0.05458 0.660949 0.480572 
0.896978 0.699299 0.333261 0.995571 0.484885 
0.623101 0.109061 0.42364 0.908344 0.73913 
0.804733 0.0271636 0.209238 0.47094 0.509305 
0.980888 0.424516 0.318409 0.445015 0.0482799 
0.25615 0.709757 0.982671 0.396947 0.852317 
0.437597 0.806287 0.704175 0.00678138 0.969979 
0.0393134 0.65933 0.353961 0.548578 0.192677 
0.722992 0.593327 0.79072 0.110581 0.323731 
0.410292 0.487409 0.177604 0.336497 0.857226 
0.734445 0.0517723 0.123487 0.290817 0.722501 
0.239678 0.592171 0.62355 0.619386 0.388586 
0.516831 0.877268 0.754854 0.029741 0.565487 
0.602507 0.355602 0.137334 0.805751 0.922449 
0.275345 0.303334 0.335313 0.331332 0.925646 
0.623272 0.577916 0.445344 0.687729 0.881457 
0.812826 0.0362836 0.117465 0.670414 0.137321 
0.418169 0.637648 0.243155 0.314518 0.955573 
0.703673 0.0672347 0.846225 0.339398 0.88526 
0.394207 0.737483 0.79251 0.544887 0.183171 
0.0921723 0.52661 0.99177 0.0639479 0.0589208 
0.784262 0.636753 0.0192988 0.513178 0.755852 
0.66278 0.290861 0.550489 0.821269 0.328697 
0.0912126 0.25421 0.726716 0.378196 0.910003 
0.678811 0.125863 0.575984 0.229315 0.624296 
0.290268 0.694196 0.430863 0.00839709 0.90325 
0.535143 0.0838194 0.288865 0.704076 0.964719 
0.174391 0.307197 0.226353 0.399752 0.759565 
0.649532 0.111123 0.385916 0.0149061 0.140226 
0.173572 0.561859 0.741036 0.384182 0.173008 
0.0869845 0.724115 0.140485 0.128128 0.614562 
0.26603 0.219887 0.0948612 0.917108 0.657861 
0.924539 0.0117835 0.651681 0.41128 0.429871 
0.0291746 0.202238 0.418147 0.901155 0.780794 
0.218697 0.715816 0.588012 0.0184763 0.13795 
0.0368423 0.611083 0.339176 0.607838 0.0938865 
0.729669 0.0979843 0.097811 0.0109364 0.647264 
0.496077 0.710012 0.176722 0.136303 0.818996 
0.913727 0.871266 0.266413 0.581374 0.873918 
0.161546 0.132918 0.835811 0.59412 0.493064 
0.578279 0.480056 0.199374 0.817632 0.0103156 
0.988847 0.460088 0.232309 0.369987 0.722278 
0.898677 0.0583767 0.594123 0.82082 0.482403 
0.33936 0.997813 0.587514 0.204078 0.446873 
0.713251 0.952056 0.560217 0.373498 0.0193139 
0.903658 0.0817413 0.823443 0.917605 0.314769 
0.0243678 0.457162 0.856772 0.328299 0.932825 
0.392901 0.834671 0.453283 0.124384 0.73397 
0.512038 0.684147 0.769787 0.296628 0.552344 
0.976928 0.168608 0.807551 0.245787 0.878168 
0.230447 0.3207 0.215896 0.651786 0.524774 
0.54702 0.749039 0.947311 0.646506 0.961064 
0.375391 0.462276 0.724643 0.79201 0.227465 
0.397507 0.827413 0.83304 0.712868 0.742242 
0.8946 0.926779 0.0690697 0.268544 0.0560858 
0.458836 0.304578 0.659147 0.773289 0.793393 
0.634263 0.894015 0.309499 0.283518 0.478913 
0.361344 0.688363 0.510603 0.633535 0.57529 
0.959083 0.289627 0.180911 0.601054 0.167964 
0.0770874 0.297505 0.862965 0.86782 0.999242 
0.92603 0.47367 0.625199 0.740503 0.564432 
0.596028 0.595479 0.567574 0.801269 0.165873 
0.583394 0.747152 0.702874 0.990809 0.417467 
0.014811 0.827564 0.469131 0.966419 0.77736 
