4200 5
0.360973 0.573968 0.931012 0.170612 0.0634752 
0.034146 0.517092 0.151435 0.890506 0.364052 
0.477201 0.101925 0.41044 0.756957 0.142757 
0.631311 0.170397 0.639177 0.661397 0.544427 
0.465992 0.398665 0.0668819 0.716504 0.111543 
0.743223 0.650818 0.281647 0.878488 0.864866 
0.0914414 0.671712 0.399175 0.250679 0.275124 
0.884425 0.144596 0.479335 0.416127 0.7631 
0.369438 0.478551 0.522929 0.266024 0.991581 
0.840274 0.932555 0.742639 0.31648 0.968352 
0.845606 0.000824401 0.334195 0.284322 0.726742 
0.261382 0.215568 0.632331 0.685792 0.441227 
0.51504 0.0802731 0.577156 0.214204 0.193495 
0.845684 0.289557 0.39081 0.462294 0.700984 
0.85189 0.953285 0.283032 0.698457 0.288526 
0.384849 0.864101 0.963001 0.773047 0.193334 
0.14914 0.826922 0.365991 0.865857 0.749539 
0.189423 0.644066 0.600383 0.0694521 0.367664 
0.458274 0.409687 0.657421 0.888988 0.459164 
0.162241 0.656998 0.714928 0.388131 0.0331269 
0.288183 0.306258 0.471184 0.874088 0.756814 
0.802969 0.742896 0.709208 0.927491 0.823232 
0.653244 0.170397 0.264348 0.523985 0.766445 
0.0972573 0.45271 0.689518 0.70753 0.941974 
0.543345 0.430637 0.0481633 0.647442 0.454659 
0.568358 0.474038 0.0371744 0.136586 0.354441 
0.979005 0.368566 0.0902886 0.310139 0.412715 
0.41798 0.876925 0.668355 0.629803 0.057161 
0.12127 0.30234 0.653948 0.532039 0.915555 
0.167695 0.804342 0.18825 0.504025 0.326921 
0.0551475 0.50219 0.634318 0.176468 0.786925 
0.323261 0.122609 0.585062 0.0867555 0.250906 
0.561214 0.878385 0.0477154 0.669481 0.493668 
0.601535 0.0200472 0.495085 0.744284 0.402907 
0.625436 0.336816 0.991978 0.408415 0.17379 
0.550095 0.206608 0.51426 0.450092 0.721355 
0.120206 0.0872591 0.963014 0.0201496 0.668002 
0.376333 0.710937 0.315397 0.663828 0.141533 
0.36984 0.58468 0.807539 0.17231 0.383126 
0.745322 0.423124 0.55213 0.06263 0.367772 
0.176542 0.149837 0.680669 0.256323 0.513964 
0.906671 0.779643 0.159513 0.257362 0.48107 
0.82542 0.834996 0.359508 0.956399 0.903008 
0.21426 0.867905 0.294017 0.926568 0.213285 
0.136836 0.586472 0.334844 0.585485 0.116096 
0.684108 0.637865 0.40607 0.130857 0.253069 
0.548779 0.887325 0.638177 0.677495 0.0235193 
0.986271 0.0810448 0.463393 0.050673 0.363171 
0.154032 0.0399319 0.805573 0.787528 0.794238 
0.722522 0.527352 0.190916 0.0739207 0.307628 
0.969164 0.631351 0.112954 0.652854 0.085539 
0.328382 0.704708 0.375408 0.466833 0.653362 
0.487473 0.053959 0.750238 0.124007 0.818796 
0.887715 0.366046 0.429228 0.387376 0.0295346 
0.969259 0.952615 0.130218 0.227922 0.464843 
0.722064 0.0644312 0.00588999 0.857762 0.0840812 
0.224888 0.709039 0.871496 0.0430274 0.708143 
0.147521 0.485342 0.469596 0.620808 0.117965 
0.86974 0.955353 0.091662 0.163477 0.174556 
0.566692 0.47011 0.171757 0.789484 0.485386 
0.590518 0.914991 0.461316 0.0032042 0.309388 
0.381989 0.0433561 0.971853 0.353203 0.465825 
0.114444 0.252359 0.0570889 0.459775 0.176879 
0.503516 0.416563 0.230416 0.633369 0.716732 
0.547338 0.323727 0.619818 0.345899 0.992655 
0.0042669 0.80991 0.876077 0.124849 0.559984 
0.839415 0.0818809 0.171921 0.499806 0.844032 
0.870037 0.0648482 0.0674716 0.0417593 0.333051 
0.0101572 0.392047 0.471221 0.599412 0.338451 
0.889356 0.0875571 0.566533 0.233272 0.366482 
0.810032 0.844268 0.6613 0.021896 0.558018 
0.154563 0.83456 0.541535 0.517803 0.793045 
0.61111 0.972897 0.804828 0.502051 0.456521 
0.516987 0.64042 0.980678 0.798788 0.00891347 
0.00233986 0.87412 0.363031 0.844072 0.502663 
0.396336 0.175975 0.638918 0.773826 0.789844 
0.611605 0.676248 0.250247 0.887399 0.0998978 
0.460258 0.806138 0.723915 0.0317662 0.299301 
0.0320044 0.595266 0.675965 0.321529 0.204447 
0.337473 0.726836 0.407867 0.521253 0.382544 
0.355081 0.285636 0.780242 0.433366 0.393674 
0.995853 0.641476 0.16255 0.39967 0.556524 
0.629829 0.290486 0.830874 0.523789 0.0060421 
0.138053 0.843918 0.528596 0.907471 0.421028 
0.010604 0.332429 0.664285 0.433951 0.330512 
0.126439 0.573177 0.306928 0.317101 0.787262 
0.311175 0.446143 0.697499 0.500678 0.113803 
0.607556 0.327578 0.7485 0.788773 0.197841 
0.715472 0.0691565 0.888956 0.908273 0.295329 
0.33083 0.946369 0.27725 0.0101066 0.78943 
0.878713 0.954894 0.0176915 0.837028 0.753908 
0.441268 0.25537 0.106693 0.774064 0.00247147 
0.342005 0.890738 0.984861 0.689988 0.352733 
0.267574 0.053086 0.0421325 0.530952 0.423787 
0.861184 0.678442 0.0219925 0.116784 0.0585809 
0.21564 0.346592 0.984664 0.217717 0.505634 
0.255557 0.520301 0.962657 0.326965 0.179142 
0.438426 0.908468 0.255645 0.471834 0.828096 
0.971491 0.959835 0.984781 0.135594 0.362314 
0.388324 0.775166 0.161518 0.411412 0.622623 
0.911282 0.692226 0.396604 0.436246 0.193676 
0.222188 0.890737 0.685308 0.402007 0.802476 
0.431047 0.203181 0.370852 0.917416 0.867527 
0.0844383 0.536872 0.105611 0.86051 0.135948 
0.887378 0.920557 0.8695 0.31324 0.170449 
0.701688 0.0788211 0.131169 0.845477 0.853135 
0.929031 0.447617 0.860365 0.587561 0.385188 
0.770691 0.456998 0.00210052 0.00215845 0.7693 
0.892383 0.783074 0.393134 0.285247 0.45946 
0.352457 0.959815 0.947339 0.341375 0.470098 
0.0273019 0.70861 0.461038 0.938024 0.280527 
0.496122 0.0943251 0.325912 0.789202 0.0614856 
0.575479 0.941589 0.597828 0.895517 0.80297 
0.476631 0.629187 0.755088 0.742389 0.58686 
0.321929 0.335063 0.927444 0.16391 0.27346 
0.40759 0.776742 0.239143 0.604229 0.94412 
0.290276 0.754199 0.203615 0.194651 0.773214 
0.368122 0.829996 0.463618 0.835096 0.561233 
0.409136 0.658649 0.632289 0.2969 0.0868768 
0.481141 0.638008 0.446821 0.297177 0.062664 
0.0510638 0.974601 0.266893 0.335037 0.307147 
0.380715 0.41205 0.199585 0.0303901 0.602664 
0.760029 0.369845 0.446113 0.644748 0.428919 
0.0536413 0.558155 0.0670439 0.465747 0.211925 
0.488479 0.912597 0.908036 0.323284 0.154129 
0.993915 0.334362 0.239287 0.778888 0.632244 
0.243379 0.898834 0.183041 0.886386 0.701681 
0.329162 0.615992 0.0753203 0.647898 0.738552 
0.806398 0.279616 0.717074 0.658034 0.283601 
0.0351138 0.315092 0.329948 0.0626327 0.897675 
0.220958 0.958709 0.243361 0.00384944 0.75371 
0.762038 0.531876 0.206501 0.61747 0.542997 
0.739434 0.289435 0.816192 0.579521 0.867373 
0.121125 0.671689 0.964118 0.247169 0.38299 
0.684435 0.663455 0.147982 0.79683 0.335763 
0.858538 0.418758 0.799126 0.376876 0.633687 
0.465317 0.314832 0.770569 0.462739 0.292877 
0.277953 0.874574 0.253677 0.239093 0.804013 
0.597314 0.313717 0.513262 0.484273 0.241155 
0.430492 0.250314 0.417767 0.438683 0.615506 
0.199243 0.679948 0.639722 0.516101 0.319356 
0.115772 0.601735 0.0129777 0.642291 0.908071 
0.800311 0.593483 0.759652 0.63366 0.837998 
0.442978 0.193111 0.346769 0.495088 0.910733 
0.580659 0.888419 0.282623 0.833443 0.00448789 
0.0277428 0.792228 0.348688 0.00576908 0.119657 
0.970566 0.861762 0.532775 0.707827 0.925896 
0.153338 0.331884 0.887288 0.23774 0.0135589 
0.99925 0.694114 0.263805 0.352909 0.500655 
0.000470975 0.146815 0.526696 0.855523 0.863352 
0.635602 0.589 0.786895 0.925444 0.482446 
0.578734 0.501401 0.0281818 0.9139 0.641187 
0.792175 0.632548 0.489643 0.939728 0.397216 
0.169078 0.0421807 0.763356 0.116427 0.317427 
0.844529 0.483442 0.139759 0.665241 0.847503 
0.495764 0.984613 0.406112 0.845126 0.260823 
0.630889 0.442853 0.57792 0.10658 0.132627 
0.291612 0.638557 0.805493 0.748427 0.39449 
0.0407473 0.628436 0.733761 0.11621 0.709215 
0.0244487 0.259314 0.351722 0.668896 0.111324 
0.145199 0.495711 0.546395 0.869811 0.757422 
0.131384 0.93034 0.774622 0.920261 0.383707 
0.979599 0.943989 0.722176 0.147812 0.474867 
0.618914 0.435478 0.779093 0.0420509 0.0280148 
0.159905 0.00620251 0.772281 0.931905 0.929318 
0.202962 0.757511 0.871375 0.702615 0.386132 
0.661372 0.890568 0.501053 0.984349 0.805685 
0.873515 0.298114 0.557062 0.614123 0.343738 
0.601422 0.969604 0.400682 0.101899 0.0418897 
0.251304 0.78754 0.356018 0.417571 0.798578 
0.380237 0.377478 0.340054 0.770907 0.283521 
0.0547889 0.523638 0.687198 0.953329 0.821025 
0.492824 0.705581 0.57043 0.742917 0.201384 
0.981118 0.048109 0.2648 0.698396 0.906408 
0.68184 0.494004 0.492578 0.602282 0.952856 
0.0148479 0.539121 0.102815 0.402381 0.671641 
0.131004 0.70175 0.735643 0.391623 0.90674 
0.263214 0.584436 0.494688 0.918013 0.93986 
0.595485 0.374761 0.944605 0.44998 0.871987 
0.796863 0.129289 0.363001 0.185102 0.174272 
0.527868 0.601645 0.465246 0.531945 0.774897 
0.876329 0.200513 0.532681 0.571946 0.415557 
0.914912 0.0964936 0.107709 0.468853 0.276025 
0.0934358 0.995223 0.533462 0.645532 0.815719 
0.869178 0.236144 0.955067 0.626753 0.523332 
0.205929 0.594164 0.918918 0.153226 0.00544612 
0.162411 0.473075 0.878914 0.220447 0.653177 
0.923667 0.196126 0.910608 0.2884 0.685417 
0.86067 0.949017 0.522746 0.327842 0.976687 
0.0758261 0.984027 0.616423 0.902871 0.0913987 
0.638793 0.649439 0.734608 0.623578 0.345276 
0.372849 0.764395 0.600987 0.204146 0.846352 
0.20988 0.77684 0.323754 0.308746 0.388461 
0.602194 0.137478 0.101183 0.739732 0.8371 
0.379405 0.202553 0.780145 0.452491 0.727542 
0.948448 0.701452 0.14239 0.998756 0.0394921 
0.972297 0.943838 0.457716 0.199475 0.434549 
0.283183 0.834997 0.379016 0.000724885 0.350325 
0.80648 0.806409 0.994813 0.59928 0.610189 
0.908424 0.362266 0.834617 0.0615123 0.231949 
0.934909 0.0835925 0.5592 0.4874 0.879066 
0.75655 0.475787 0.744412 0.947417 0.00222717 
0.872958 0.203505 0.52667 0.166745 0.743951 
0.707828 0.468872 0.557055 0.088939 0.350591 
0.770347 0.272504 0.961233 0.123296 0.372776 
0.590454 0.193746 0.396366 0.971929 0.273496 
0.566132 0.531193 0.0758885 0.907125 0.468014 
0.315454 0.216181 0.654145 0.943824 0.106111 
0.33041 0.224756 0.23597 0.633502 0.0681171 
0.130984 0.356131 0.837249 0.0486946 0.475821 
0.455788 0.159794 0.570296 0.540011 0.562765 
0.893769 0.80131 0.873745 0.731479 0.219117 
0.871767 0.375856 0.390582 0.678227 0.440673 
0.0992687 0.47257 0.727885 0.836649 0.914421 
0.396551 0.237561 0.169067 0.600201 8.00614e-06 
0.01504 0.0232084 0.0160744 0.20744 0.996498 
0.922519 0.684919 0.332997 0.751157 0.0340624 
0.330554 0.734928 0.340154 0.144271 0.445364 
0.603594 0.643183 0.808003 0.562516 0.573694 
0.136725 0.0151105 0.417582 0.902617 0.676624 
0.602887 0.928319 0.821967 0.753374 0.803046 
0.379354 0.861581 0.656826 0.384581 0.830002 
0.945956 0.165024 0.731339 0.772168 0.159938 
0.546149 0.791866 0.7861 0.542216 0.238293 
0.805993 0.329897 0.482178 0.706613 0.185984 
0.345984 0.276152 0.225603 0.410894 0.601369 
0.127678 0.892608 0.172915 0.639755 0.577442 
0.15103 0.0278524 0.117642 0.0684306 0.278405 
0.750817 0.676086 0.925804 0.757476 0.254756 
0.84056 0.666248 0.842785 0.680197 0.498113 
0.821295 0.39202 0.962879 0.569722 0.675029 
0.60109 0.242091 0.121639 0.334069 0.221364 
0.187848 0.500386 0.513882 0.0723348 0.537993 
0.412203 0.741693 0.265565 0.602207 0.0649879 
0.805217 0.00967885 0.376416 0.587749 0.989161 
0.480557 0.131744 0.77995 0.566346 0.258703 
0.930347 0.0692346 0.122492 0.266155 0.203557 
0.200385 0.801123 0.0749843 0.504609 0.945788 
0.433334 0.527512 0.460322 0.531271 0.786202 
0.569586 0.530245 0.104332 0.608864 0.0721528 
0.198436 0.962323 0.516965 0.585872 0.153151 
0.640654 0.272755 0.656752 0.145479 0.848964 
0.660909 0.298697 0.503569 0.363368 0.889585 
0.789277 0.217648 0.124904 0.962323 0.0369019 
0.0486678 0.854274 0.508783 0.22588 0.48901 
0.0225192 0.492328 0.199219 0.198986 0.646032 
0.186496 0.378978 0.49257 0.562028 0.910916 
0.652701 0.804181 0.697099 0.143039 0.910355 
0.12918 0.671063 0.820351 0.753653 0.712804 
0.355689 0.597761 0.427502 0.591708 0.652802 
0.952969 0.533795 0.15177 0.203732 0.918227 
0.44865 0.0731179 0.77957 0.386479 0.278893 
0.646061 0.70582 0.716195 0.617189 0.332402 
0.414422 0.0585613 0.697577 0.254834 0.791669 
0.115166 0.657781 0.725183 0.680515 0.278843 
0.297501 0.95339 0.100378 0.741932 0.907245 
0.942172 0.0109902 0.181996 0.824452 0.115956 
0.827568 0.65139 0.829466 0.744323 0.260948 
0.729253 0.474642 0.680125 0.609088 0.295964 
0.706882 0.0924345 0.145746 0.862777 0.700792 
0.792718 0.175789 0.751595 0.52704 0.600173 
0.707873 0.885698 0.855049 0.0123437 0.70304 
0.316042 0.391985 0.810749 0.234389 0.792986 
0.703718 0.113773 0.985218 0.510579 0.0444157 
0.928275 0.229253 0.640158 0.209578 0.776956 
0.0895982 0.324373 0.49596 0.76687 0.27414 
0.258779 0.778118 0.655399 0.187735 0.562124 
0.964652 0.0379952 0.780375 0.169528 0.810278 
0.992594 0.342113 0.024288 0.856348 0.388571 
0.591306 0.651637 0.18822 0.266867 0.359779 
0.71207 0.0816472 0.825298 0.76769 0.894821 
0.0404462 0.72955 0.0483672 0.0707669 0.551454 
0.733935 0.297752 0.75928 0.676805 0.560633 
0.34285 0.599402 0.476641 0.367106 0.065096 
0.754117 0.435716 0.166824 0.243114 0.758845 
0.591726 0.492964 0.677269 0.813754 0.286287 
0.184099 0.345051 0.90993 0.675617 0.868064 
0.168607 0.471989 0.917466 0.133313 0.565167 
0.289048 0.355871 0.901139 0.685043 0.118965 
0.179055 0.158841 0.0534272 0.927615 0.402428 
0.24998 0.746574 0.343659 0.213575 0.869822 
0.187935 0.968851 0.258333 0.093987 0.775387 
0.577757 0.247058 0.866914 0.935419 0.78882 
0.123678 0.453373 0.556034 0.416312 0.842252 
0.0292797 0.938575 0.89053 0.422287 0.222798 
0.303995 0.124148 0.453728 0.487639 0.0349634 
0.616388 0.605943 0.44462 0.585564 0.598422 
0.293854 0.348375 0.676779 0.17565 0.47534 
0.228112 0.192816 0.862513 0.86316 0.355281 
0.811249 0.551793 0.498097 0.472749 0.609494 
0.0920227 0.0971142 0.139101 0.682455 0.168138 
0.596896 0.0844034 0.00949856 0.90198 0.812587 
0.864847 0.515829 0.689758 0.187466 0.351499 
0.688694 0.64837 0.846803 0.548535 0.178604 
0.311916 0.172314 0.561756 0.0559788 0.90274 
0.907811 0.863504 0.275869 0.700614 0.359973 
0.282426 0.708934 0.810067 0.83061 0.157984 
0.323149 0.0717224 0.65015 0.0544439 0.928234 
0.900302 0.749331 0.152277 0.644882 0.582561 
0.378451 0.605977 0.975265 0.735486 0.709358 
0.560042 0.615334 0.176101 0.760891 0.500741 
0.649423 0.267199 0.126054 0.05686 0.91687 
0.160309 0.305987 0.0693599 0.639872 0.298371 
0.273997 0.835424 0.52981 0.0629692 0.356663 
0.235076 0.438148 0.963615 0.423651 0.431409 
0.0479703 0.884484 0.538161 0.53613 0.235361 
0.23674 0.998233 0.206686 0.780939 0.0135251 
0.655929 0.861147 0.494404 0.310682 0.611607 
0.19333 0.443894 0.00452217 0.979567 0.670054 
0.801077 0.777151 0.230644 0.513944 0.00249223 
0.378183 0.00074128 0.361619 0.0770399 0.129162 
0.483358 0.643889 0.236583 0.135354 0.643001 
0.924026 0.256173 0.922221 0.939534 0.246139 
0.409279 0.108079 0.632281 0.88268 0.464011 
0.844071 0.733389 0.966647 0.145209 0.726649 
0.504957 0.0196629 0.1432 0.719126 0.538925 
0.00170008 0.789018 0.205262 0.526988 0.288626 
0.422984 0.368764 0.200902 0.0284075 0.750947 
0.257663 0.79925 0.12764 0.128203 0.206742 
0.777076 0.217601 0.656465 0.69051 0.264155 
0.548088 0.288652 0.480663 0.540079 0.880911 
0.910618 0.979855 0.991064 0.302128 0.158044 
0.903086 0.695958 0.4061 0.770142 0.302624 
0.994296 0.769743 0.072953 0.25287 0.670002 
0.279471 0.374964 0.237511 0.15106 0.106685 
0.192508 0.448996 0.843903 0.0617683 0.275399 
0.636537 0.514852 0.930883 0.0901443 0.267494 
0.556775 0.696846 0.640027 0.968625 0.990005 
0.0536278 0.825832 0.744299 0.108981 0.933593 
0.201443 0.442711 0.258582 0.922289 0.850891 
0.950961 0.457108 0.702717 0.653597 0.25305 
0.286884 0.433594 0.27803 0.0441982 0.674567 
0.768464 0.20155 0.118119 0.994309 0.463111 
0.244743 0.804648 0.588737 0.908485 0.687033 
0.160416 0.87109 0.584194 0.379144 0.847027 
0.787327 0.400265 0.383878 0.722725 0.0466097 
0.154456 0.313512 0.461487 0.781957 0.121681 
0.53004 0.38944 0.240985 0.735823 0.414495 
0.00520967 0.442083 0.55134 0.459042 0.993968 
0.444837 0.322003 0.891665 0.0738781 0.901223 
0.627972 0.932066 0.512885 0.724962 0.312731 
0.690826 0.701057 0.769911 0.0898064 0.459082 
0.0665696 0.749055 0.959478 0.700494 0.277994 
0.835579 0.0523081 0.847684 0.32742 0.491826 
0.625056 0.888069 0.0697617 0.110447 0.425267 
0.468527 0.543173 0.0495619 0.292872 0.700695 
0.942356 0.464024 0.24935 0.453439 0.771263 
0.751565 0.29194 0.291823 0.568464 0.308555 
0.485792 0.694622 0.0549144 0.479566 0.207699 
0.76566 0.813703 0.421846 0.186489 0.822977 
0.804221 0.461313 0.434629 0.899702 0.302699 
0.387497 0.147048 0.0221766 0.278971 0.0446998 
0.689572 0.0622493 0.159576 0.889864 0.23899 
0.978988 0.305497 0.497146 0.211429 0.145987 
0.215771 0.636889 0.779737 0.27629 0.171857 
0.988644 0.188642 0.902485 0.904129 0.960435 
0.626307 0.384556 0.75331 0.264209 0.84057 
0.0207093 0.36386 0.497759 0.856735 0.31679 
0.994455 0.867402 0.833938 0.204982 0.974738 
0.629045 0.979889 0.0199066 0.455504 0.0390428 
0.540969 0.880759 0.233824 0.344337 0.293213 
0.496051 0.376052 0.116271 0.276842 0.615195 
0.333574 0.470306 0.766305 0.380007 0.644618 
0.283929 0.618833 0.0145465 0.215833 0.144265 
0.0363451 0.210554 0.754899 0.652355 0.911446 
0.433864 0.87081 0.69157 0.0913183 0.14627 
0.887264 0.799833 0.898104 0.48638 0.941564 
0.0176638 0.565084 0.653519 0.597482 0.358166 
0.516266 0.62328 0.407372 0.00108966 0.73869 
0.0169749 0.183414 0.446699 0.257561 0.808978 
0.903609 0.555464 0.323059 0.673128 0.705307 
0.887572 0.963608 0.057053 0.169948 0.0781071 
0.441996 0.242173 0.738572 0.896359 0.0974624 
0.864402 0.654826 0.141572 0.377134 0.759167 
0.588907 0.619494 0.758795 0.356385 0.110563 
0.34581 0.733595 0.743138 0.0774029 0.175238 
0.699626 0.286659 0.0821127 0.942423 0.502838 
0.0126528 0.901485 0.489002 0.5124 0.440616 
0.881486 0.977389 0.24132 0.0048938 0.813658 
0.388172 0.620532 0.788852 0.734243 0.260021 
0.374498 0.434682 0.848004 0.0575289 0.404812 
0.29434 0.625765 0.192908 0.510755 0.222343 
0.924392 0.396639 0.570112 0.224366 0.356616 
0.723164 0.410622 0.687207 0.629696 0.826964 
0.3393 0.46506 0.432207 0.55306 0.360413 
0.570929 0.154662 0.696829 0.26314 0.382207 
0.901503 0.861179 0.44549 0.43721 0.693564 
0.566195 0.484998 0.721155 0.151551 0.0395505 
0.744874 0.778867 0.269733 0.910552 0.72154 
0.772624 0.852815 0.925721 0.452404 0.515588 
0.271664 0.366137 0.525784 0.679381 0.984162 
0.418635 0.176369 0.345753 0.85065 0.672696 
0.360441 0.276914 0.167898 0.633172 0.656501 
0.153059 0.591957 0.780659 0.773861 0.454246 
0.58176 0.089391 0.365151 0.0117056 0.429198 
0.0217252 0.548668 0.704809 0.495628 0.0614116 
0.327069 0.628993 0.142963 0.781782 0.893257 
0.58218 0.945615 0.190648 0.361989 0.409086 
0.372586 0.369283 0.628554 0.92801 0.290343 
0.861507 0.695877 0.675829 0.927695 0.91939 
0.124318 0.792441 0.158037 0.103558 0.0738615 
0.752116 0.60531 0.633194 0.6068 0.336991 
0.371177 0.353231 0.410146 0.0160732 0.277141 
0.530058 0.316482 0.974526 0.109167 0.205779 
0.847318 0.98381 0.784736 0.104545 0.480757 
0.461338 0.531374 0.303564 0.748911 0.0282256 
0.382644 0.917776 0.821517 0.61124 0.121386 
0.0503231 0.698597 0.186471 0.347335 0.112364 
0.401927 0.317628 0.321746 0.348745 0.580108 
0.336336 0.39348 0.302047 0.754933 0.0680274 
0.837359 0.338676 0.177109 0.192237 0.810429 
0.5969 0.868178 0.215475 0.359099 0.70558 
0.248363 0.00864667 0.42005 0.190739 0.589738 
0.0869574 0.31183 0.0294307 0.885713 0.920994 
0.0721736 0.240478 0.61476 0.506102 0.1246 
0.813963 0.913658 0.459073 0.0664749 0.815697 
0.905957 0.294968 0.29711 0.0650542 0.149457 
0.857683 0.558504 0.100838 0.326058 0.885661 
0.685628 0.340484 0.523938 0.0326714 0.712991 
0.865616 0.864321 0.0969112 0.220856 0.171785 
0.597148 0.345533 0.38914 0.693252 0.696774 
0.610015 0.489026 0.0137898 0.589205 0.542887 
0.926021 0.442152 0.00893798 0.789214 0.236167 
0.994223 0.566892 0.646574 0.0917287 0.760014 
0.560694 0.350634 0.653372 0.804479 0.466503 
0.142984 0.548064 0.743451 0.832032 0.147059 
0.985871 0.492085 0.652604 0.0866328 0.862134 
0.0588958 0.93008 0.984928 0.619961 0.135508 
0.390231 0.151773 0.048519 0.485927 0.693901 
0.742479 0.401921 0.874868 0.317453 0.250072 
0.168927 0.406955 0.0722115 0.328693 0.785831 
0.0624874 0.0276901 0.25989 0.490955 0.814608 
0.975891 0.667925 0.623634 0.736182 0.63751 
0.0516779 0.709366 0.72716 0.557614 0.90014 
0.126426 0.641745 0.739031 0.846323 0.0492606 
0.25622 0.927963 0.882131 0.810579 0.558841 
0.779371 0.726786 0.558996 0.703294 0.155672 
0.97641 0.4438 0.211946 0.477126 0.46648 
0.88693 0.724814 0.582293 0.231714 0.392109 
0.253461 0.603246 0.787706 0.562386 0.861177 
0.787497 0.426351 0.46553 0.674134 0.840401 
0.653447 0.0634896 0.962879 0.91219 0.49428 
0.0478095 0.959085 0.832036 0.325134 0.654419 
0.415788 0.124237 0.0831925 0.156339 0.804864 
0.582288 0.973248 0.888604 0.845025 0.893424 
0.722822 0.951875 0.554313 0.624236 0.866428 
0.0923938 0.445416 0.341639 0.158414 0.0246133 
0.509756 0.814195 0.881325 0.017728 0.0143072 
0.611063 0.92553 0.960585 0.0181801 0.669327 
0.131728 0.728056 0.870672 0.0322852 0.284955 
0.350169 0.36765 0.457837 0.522197 0.222927 
0.992829 0.807245 0.479658 0.927497 0.196729 
0.919657 0.297081 0.413559 0.0707871 0.927556 
0.256561 0.469469 0.839778 0.21157 0.981267 
0.347826 0.0371937 0.773207 0.166345 0.866838 
0.164764 0.106963 0.3782 0.100192 0.843018 
0.297854 0.288946 0.0714845 0.104109 0.289161 
0.559102 0.0681695 0.0701735 0.230451 0.282364 
0.319772 0.486656 0.703536 0.65562 0.945488 
0.535738 0.672159 0.407914 0.960882 0.896215 
0.363811 0.966439 0.183822 0.235684 0.60298 
0.908732 0.157859 0.463108 0.530713 0.826839 
0.781414 0.293566 0.843638 0.149649 0.618892 
0.356944 0.179628 0.963488 0.239782 0.80543 
0.885503 0.1826 0.4648 0.226966 0.0506638 
0.964779 0.698142 0.471119 0.709378 0.829144 
0.17695 0.61094 0.981925 0.935429 0.868169 
0.685932 0.0673825 0.751321 0.022376 0.323972 
0.12789 0.574332 0.0631222 0.596617 0.877862 
0.60711 0.197632 0.444078 0.0974153 0.337116 
0.29879 0.307531 0.810368 0.552105 0.843926 
0.630329 0.433739 0.427792 0.506359 0.00385043 
0.532183 0.0236442 0.448888 0.589234 0.365169 
0.709517 0.90353 0.218259 0.61 0.0770659 
0.928215 0.779613 0.642695 0.0622609 0.88259 
0.181865 0.131672 0.0851054 0.0330751 0.172311 
0.221931 0.644895 0.407644 0.897644 0.952864 
0.12344 0.656183 0.0280853 0.949042 0.357423 
0.713643 0.373867 0.9318 0.539449 0.599085 
0.660091 0.204267 0.74541 0.949639 0.998559 
0.880107 0.884663 0.617011 0.604348 0.253473 
0.635052 0.798258 0.0866602 0.147766 0.188136 
0.282333 0.90729 0.993634 0.964029 0.656703 
0.551017 0.684257 0.789198 0.937422 0.237757 
0.873826 0.477181 0.0965253 0.24632 0.636849 
0.740786 0.497932 0.589034 0.821459 0.540747 
0.597953 0.0993991 0.00606748 0.503027 0.143153 
0.965617 0.627019 0.50468 0.255059 0.457623 
0.512093 0.823196 0.80912 0.133177 0.823643 
0.656406 0.615538 0.283199 0.812445 0.507698 
0.343136 0.979222 0.236226 0.797458 0.0973762 
0.241151 0.241078 0.880198 0.766611 0.63992 
0.428136 0.729486 0.711673 0.433546 0.307244 
0.825006 0.519594 0.671778 0.786637 0.415161 
0.747252 0.00793331 0.0329571 0.250994 0.918007 
0.621663 0.189343 0.144062 0.454444 0.371093 
0.951892 0.307179 0.490933 0.295243 0.710673 
0.154191 0.438232 0.906018 0.725126 0.864468 
0.11659 0.119771 0.965021 0.799456 0.0632414 
0.0226476 0.10477 0.892892 0.845376 0.485609 
0.156815 0.168065 0.466433 0.511287 0.825979 
0.189876 0.00503933 0.388583 0.222985 0.248541 
0.217431 0.416516 0.967859 0.70085 0.786984 
0.768351 0.917644 0.301936 0.239374 0.965213 
0.594924 0.867405 0.0218925 0.209185 0.83752 
0.915652 0.568401 0.487683 0.271177 0.971078 
0.185655 0.414055 0.378942 0.789381 0.140921 
0.736876 0.852223 0.685159 0.129638 0.762757 
0.0819939 0.148151 0.0285724 0.999376 0.989409 
0.653446 0.514194 0.0517718 0.619087 0.869068 
0.728191 0.936344 0.0664152 0.913068 0.0815714 
0.139196 0.0668525 0.751698 0.347746 0.304252 
0.161863 0.464434 0.973892 0.962896 0.373556 
0.588796 0.956968 0.444897 0.0214902 0.102373 
0.175821 0.025564 0.803774 0.682334 0.14182 
0.44846 0.107537 0.125903 0.104178 0.0671556 
0.720614 0.96484 0.45266 0.747174 0.749541 
0.657334 0.125124 0.576458 0.792615 0.0600207 
0.625382 0.00702388 0.588783 0.512241 0.572082 
0.235038 0.198587 0.0794032 0.910699 0.883874 
0.48 0.95769 0.482514 0.386538 0.113466 
0.0146225 0.550152 0.893877 0.846846 0.311109 
0.0794035 0.47553 0.34933 0.888639 0.842109 
0.371867 0.628032 0.3369 0.379495 0.0212107 
0.115763 0.891063 0.436158 0.212643 0.132973 
0.959599 0.098745 0.320861 0.309106 0.0836813 
0.492284 0.0278358 0.405629 0.373987 0.675777 
0.0545999 0.601498 0.774887 0.941705 0.681522 
0.797516 0.63536 0.291762 0.374714 0.608759 
0.999422 0.0561174 0.0253192 0.138242 0.779931 
0.482514 0.388947 0.828385 0.648773 0.944243 
0.268625 0.646418 0.536396 0.568546 0.842588 
0.476298 0.172673 0.622201 0.846258 0.737934 
0.222976 0.996569 0.244809 0.775371 0.339942 
0.0858325 0.759041 0.51509 0.930644 0.687482 
0.154559 0.532182 0.227743 0.755627 0.73241 
0.668764 0.184758 0.973706 0.282875 0.215808 
0.67392 0.179531 0.199865 0.510745 0.124074 
0.876171 0.837108 0.855351 0.839596 0.0912129 
0.605533 0.198619 0.776124 0.0641481 0.361655 
0.669964 0.272924 0.0754557 0.858235 0.888907 
0.765427 0.659913 0.776715 0.118821 0.103223 
0.372855 0.556046 0.428557 0.389514 0.24527 
0.89208 0.512037 0.913201 0.254692 0.0836007 
0.690395 0.750068 0.584734 0.233393 0.0400518 
0.00980561 0.592095 0.810327 0.298 0.196588 
0.650984 0.744283 0.953567 0.911626 0.916423 
0.0768965 0.626861 0.910666 0.558055 0.508365 
0.524755 0.217915 0.185753 0.748719 0.273817 
0.531503 0.455815 0.328291 0.30312 0.018312 
0.437841 0.985308 0.206672 0.980123 0.898318 
0.252797 0.0604478 0.548867 0.812719 0.0071976 
0.944629 0.31864 0.297293 0.499779 0.704696 
0.538909 0.832823 0.698312 0.9007 0.33215 
0.444506 0.819223 0.860837 0.868272 0.974942 
0.39073 0.8389 0.429751 0.821964 0.0944972 
0.919324 0.449521 0.920856 0.440495 0.217257 
0.954378 0.41774 0.377536 0.870043 0.0556875 
0.803827 0.491934 0.889679 0.856884 0.905101 
0.107005 0.46387 0.375973 0.286929 0.97632 
0.529971 0.319448 0.283993 0.855145 0.263779 
0.455046 0.0433772 0.229578 0.53996 0.12868 
0.763764 0.136898 0.338069 0.467623 0.0452385 
0.245617 0.000827098 0.18872 0.525991 0.544498 
0.70476 0.950006 0.207816 0.0667729 0.41438 
0.946811 0.903654 0.88373 0.967246 0.35319 
0.793417 0.154809 0.737559 0.215481 0.233178 
0.954899 0.946225 0.229372 0.607073 0.876462 
0.842172 0.0854595 0.446004 0.0525924 0.654438 
0.872311 0.48674 0.857786 0.243075 0.649047 
0.140195 0.0334546 0.675702 0.872104 0.201592 
0.582921 0.490286 0.319646 0.438719 0.720363 
0.194623 0.402384 0.530838 0.352391 0.917363 
0.471516 0.364587 0.0917986 0.694153 0.616443 
0.65635 0.171378 0.61223 0.725955 0.689264 
0.460376 0.947894 0.271491 0.272961 0.0682072 
0.913926 0.80118 0.338262 0.467025 0.285618 
0.387452 0.50318 0.125685 0.726503 0.292837 
0.81775 0.922145 0.673874 0.739535 0.698194 
0.121665 0.969733 0.324633 0.242989 0.724665 
0.32065 0.52416 0.188415 0.477331 0.152326 
0.443726 0.908144 0.577155 0.131108 0.15833 
0.12639 0.29472 0.391427 0.393174 0.809119 
0.122203 0.28609 0.266426 0.74995 0.789671 
0.733905 0.711613 0.878081 0.3256 0.533142 
0.999203 0.044073 0.84963 0.557 0.869956 
0.980561 0.198378 0.0741087 0.398526 0.0988378 
0.472229 0.645621 0.158684 0.495988 0.226577 
0.942581 0.260927 0.53823 0.469584 0.336164 
0.977509 0.457276 0.718032 0.878388 0.428217 
0.0678647 0.308845 0.450794 0.689039 0.282029 
0.649113 0.812472 0.358268 0.0850355 0.446232 
0.343828 0.661601 0.258474 0.13881 0.733963 
0.101535 0.55954 0.738537 0.137744 0.549283 
0.99794 0.409755 0.271708 0.52777 0.498522 
0.908073 0.859491 0.0735014 0.539732 0.177834 
0.0874989 0.509755 0.900177 0.609175 0.794971 
0.112375 0.671505 0.0154293 0.582196 0.0716797 
0.339662 0.641305 0.646489 0.579343 0.0546468 
0.828369 0.304685 0.0697696 0.757564 0.104141 
0.828118 0.431619 0.474276 0.00323201 0.74345 
0.922972 0.478723 0.149674 0.924989 0.142462 
0.278376 0.965344 0.322573 0.911772 0.355253 
0.482137 0.997741 0.163117 0.38529 0.513116 
0.222389 0.99402 0.803527 0.567241 0.670882 
0.365681 0.0890469 0.912003 0.296389 0.423712 
0.972665 0.909748 0.935474 0.80842 0.0182808 
0.0647015 0.6043 0.781143 0.606705 0.385555 
0.557229 0.281105 0.58697 0.717184 0.901125 
0.879084 0.501642 0.158881 0.0898583 0.819886 
0.101147 0.946494 0.321409 0.281909 0.436202 
0.21886 0.481624 0.673021 0.0278162 0.327036 
0.432549 0.306105 0.903982 0.191174 0.431049 
0.507229 0.00112957 0.687863 0.367759 0.476821 
0.947829 0.206782 0.626304 0.717818 0.781475 
0.208792 0.458635 0.58014 0.845307 0.146457 
0.0665805 0.864773 0.342793 0.634394 0.758862 
0.805707 0.408125 0.149203 0.647113 0.624978 
0.806664 0.636774 0.899826 0.0513325 0.740087 
0.242864 0.613779 0.825358 0.687368 0.799331 
0.358109 0.542338 0.781887 0.285156 0.139258 
0.254184 0.537142 0.71862 0.141022 0.626993 
0.537696 0.314703 0.587243 0.752401 0.273097 
0.532775 0.64362 0.795653 0.453812 0.870274 
0.72186 0.124555 0.610633 0.367993 0.952667 
0.474355 0.815909 0.317859 0.0741119 0.742364 
0.945744 0.587418 0.227411 0.537278 0.851628 
0.213382 0.360195 0.968156 0.412032 0.970623 
0.887772 0.0752102 0.0875685 0.470128 0.539719 
0.688183 0.278032 0.00430601 0.491729 0.995538 
0.353858 0.00588512 0.366486 0.873468 0.185824 
0.156768 0.591379 0.777494 0.583781 0.65921 
0.919541 0.522086 0.0936887 0.997883 0.461804 
0.45911 0.111602 0.704353 0.276731 0.380185 
0.982795 0.729835 0.625105 0.888191 0.0590491 
0.963207 0.359045 0.382288 0.192836 0.0448515 
0.683398 0.961113 0.717381 0.232432 0.516534 
0.577477 0.961941 0.0439607 0.511305 0.83148 
0.440796 0.016068 0.241505 0.745208 0.949775 
0.160972 0.10063 0.233938 0.734239 0.631388 
0.422834 0.491051 0.823757 0.1053 0.975058 
0.801237 0.782564 0.494823 0.398943 0.834532 
0.530817 0.65363 0.170908 0.673149 0.68324 
0.183035 0.288217 0.602055 0.926892 0.201448 
0.602965 0.10158 0.139952 0.842685 0.0641169 
0.633097 0.0423567 0.766549 0.210484 0.295063 
0.0308764 0.887387 0.610376 0.690285 0.143769 
0.221292 0.189587 0.527452 0.89559 0.724586 
0.126255 0.536726 0.111416 0.282401 0.71745 
0.512459 0.258965 0.800086 0.967121 0.13678 
0.442798 0.214962 0.844632 0.615775 0.0723109 
0.607408 0.16192 0.288007 0.73154 0.439033 
0.676032 0.26348 0.380047 0.427698 0.529375 
0.687656 0.179209 0.198559 0.607261 0.702738 
0.875965 0.416331 0.0427319 0.528267 0.18629 
0.945344 0.219365 0.0535128 0.567548 0.341304 
0.0287279 0.112444 0.264062 0.730362 0.138735 
0.654072 0.237813 0.357656 0.882797 0.431194 
0.33058 0.138269 0.422419 0.908458 0.350159 
0.779291 0.874545 0.297885 0.27042 0.859096 
0.534256 0.379175 0.312563 0.478094 0.0121421 
0.100957 0.976678 0.215816 0.651609 0.493219 
0.191327 0.892617 0.42493 0.980079 0.699985 
0.437485 0.308525 0.570281 0.450294 0.805955 
0.625806 0.580147 0.628807 0.792397 0.549648 
0.616586 0.0972216 0.627006 0.458712 0.474004 
0.821739 0.0383594 0.722824 0.914584 0.234437 
0.681931 0.98443 0.460148 0.225381 0.949112 
0.373008 0.0556333 0.982636 0.665729 0.518454 
0.870872 0.7008 0.227689 0.104224 0.569856 
0.476398 0.933534 0.120071 0.248435 0.081722 
0.0359448 0.309879 0.613765 0.975091 0.662805 
0.0370159 0.499748 0.278956 0.26182 0.680043 
0.157834 0.525766 0.631976 0.179582 0.357558 
0.719144 0.242747 0.272036 0.025827 0.140155 
0.184398 0.0096205 0.0353797 0.15586 0.662465 
0.0700297 0.32136 0.891093 0.158325 0.585503 
0.416742 0.865978 0.0570647 0.100445 0.706473 
0.604621 0.771076 0.05208 0.522728 0.801759 
0.881159 0.569243 0.139049 0.507288 0.0994936 
0.536771 0.889667 0.607525 0.0225714 0.508311 
0.955803 0.426368 0.700992 0.395442 0.718851 
0.810475 0.61496 0.0242736 0.816478 0.913493 
0.984898 0.290658 0.240708 0.735986 0.775864 
0.572964 0.951263 0.379363 0.642395 0.542672 
0.566024 0.332248 0.0221255 0.85699 0.205173 
0.579375 0.08948 0.0663099 0.345168 0.184857 
0.261438 0.098153 0.574309 0.972449 0.160159 
0.75957 0.636545 0.713071 0.176058 0.271104 
0.221518 0.420987 0.695149 0.41683 0.501105 
0.843268 0.874196 0.531949 0.242461 0.700309 
0.829975 0.452734 0.992775 0.827909 0.502624 
0.161471 0.270121 0.4794 0.616163 0.334003 
0.183252 0.939636 0.969209 0.624701 0.16923 
0.355573 0.397903 0.765318 0.404284 0.737719 
0.547297 0.359185 0.938648 0.153891 0.254821 
0.106522 0.42386 0.581396 0.291683 0.538693 
0.304219 0.322879 0.972271 0.298182 0.290907 
0.662009 0.627271 0.845154 0.49551 0.6117 
0.619959 0.446253 0.48533 0.226698 0.0306418 
0.456504 0.655924 0.335177 0.719145 0.424097 
0.446314 0.512283 0.593847 0.269186 0.446713 
0.537651 0.937095 0.709907 0.239011 0.180519 
0.283655 0.128154 0.65029 0.303525 0.977384 
0.205732 0.624288 0.921792 0.748233 0.90273 
0.980361 0.439184 0.441969 0.261922 0.805879 
0.935549 0.480803 0.138657 0.364723 0.492711 
0.915106 0.658163 0.226679 0.754511 0.188747 
0.194585 0.926518 0.881067 0.132603 0.648555 
0.221376 0.258003 0.237798 0.919673 0.890529 
0.2918 0.0603331 0.499335 0.398629 0.107646 
0.940575 0.348839 0.126915 0.295065 0.0885857 
0.324725 0.00264165 0.969398 0.354353 0.98136 
0.283628 0.334563 0.446504 0.171587 0.16384 
0.818456 0.790964 0.742314 0.639676 0.839775 
0.880986 0.336202 0.299179 0.807274 0.124816 
0.942422 0.235284 0.359606 0.319904 0.94722 
0.547738 0.788057 0.474676 0.475626 0.947305 
0.270879 0.605012 0.230972 0.548814 0.687806 
0.378631 0.818354 0.966248 0.319033 0.393308 
0.748602 0.262257 0.36982 0.815824 0.310092 
0.842124 0.909961 0.271696 0.298134 0.616532 
0.732499 0.497509 0.639572 0.791992 0.85254 
0.318309 0.76553 0.116776 0.438529 0.406512 
0.339165 0.7127 0.0552767 0.123771 0.0651262 
0.605833 0.824386 0.369439 0.102206 0.495996 
0.896856 0.0548445 0.198977 0.724681 0.548253 
0.0101263 0.237631 0.278069 0.86015 0.431556 
0.834746 0.0615288 0.656955 0.861804 0.973347 
0.379834 0.792232 0.228097 0.631556 0.263558 
0.96304 0.341307 0.996109 0.702488 0.609127 
0.971042 0.523071 0.878673 0.397498 0.687962 
0.369115 0.783465 0.385508 0.9544 0.750662 
0.960011 0.920206 0.070329 0.227308 0.175092 
0.644477 0.591497 0.586079 0.582807 0.878102 
0.618968 0.616679 0.231529 0.806497 0.76438 
0.802247 0.272567 0.159368 0.212175 0.418073 
0.561987 0.856122 0.550405 0.098049 0.596951 
0.864378 0.691649 0.52656 0.810679 0.661662 
0.413411 0.570128 0.535825 0.987294 0.221275 
0.643327 0.256952 0.26885 0.0196431 0.0477276 
0.000162437 0.669367 0.201595 0.422854 0.505112 
0.357233 0.356714 0.224689 0.0433632 0.389709 
0.00709955 0.721661 0.166191 0.0466496 0.699366 
0.987771 0.438255 0.363211 0.945631 0.723505 
0.612491 0.941728 0.829798 0.389768 0.926111 
0.492768 0.694201 0.434625 0.772536 0.579007 
0.780414 0.567328 0.704997 0.172037 0.0961663 
0.329036 0.598248 0.916884 0.448171 0.175049 
0.55366 0.935988 0.698613 0.913736 0.54773 
0.865397 0.791226 0.622274 0.0795565 0.979345 
0.313743 0.24435 0.631309 0.619641 0.442371 
0.124752 0.348982 0.991121 0.952069 0.912306 
0.993603 0.668252 0.622733 0.131134 0.373806 
0.460329 0.156757 0.0336636 0.619899 0.852758 
0.232477 0.957876 0.16365 0.408815 0.14356 
0.461047 0.222783 0.587688 0.101965 0.656118 
0.266096 0.478268 0.452611 0.920015 0.73198 
0.247265 0.449763 0.477751 0.527177 0.696552 
0.439175 0.0552453 0.610816 0.252707 0.183662 
0.71186 0.854954 0.535115 0.120999 0.378851 
0.770661 0.891893 0.250206 0.163039 0.924746 
0.875176 0.446645 0.853866 0.202634 0.0363474 
0.516326 0.286763 0.10093 0.5551 0.234014 
0.835847 0.2406 0.314766 0.231333 0.957665 
0.75117 0.618603 0.21115 0.839448 0.719818 
0.961169 0.325323 0.0392447 0.928696 0.384242 
0.53285 0.366913 0.295408 0.48216 0.149338 
0.726412 0.762775 0.394599 0.171471 0.216634 
0.891018 0.938143 0.372227 0.137305 0.94325 
0.286236 0.483486 0.980878 0.518575 0.523427 
0.777797 0.811711 0.225424 0.231353 0.880457 
0.0726096 0.816743 0.452738 0.0864096 0.334144 
0.514716 0.664907 0.829278 0.571766 0.929914 
0.347439 0.168866 0.606231 0.460007 0.527059 
0.38394 0.895365 0.541366 0.0372236 0.341532 
0.340122 0.0478175 0.72377 0.159902 0.94852 
0.465803 0.763828 0.396226 0.436196 0.847938 
0.932028 0.539036 0.537645 0.0291127 0.672575 
0.10524 0.0453599 0.0283734 0.498274 0.233119 
0.373072 0.746534 0.458091 0.649476 0.945787 
0.558486 0.419631 0.940579 0.838768 0.882427 
0.867747 0.893159 0.518066 0.637988 0.652923 
0.769424 0.754646 0.495713 0.988103 0.419856 
0.770847 0.707785 0.99648 0.0110152 0.501513 
0.227478 0.447818 0.962772 0.365599 0.943376 
0.757271 0.901141 0.804728 0.21624 0.764246 
0.49707 0.880638 0.87827 0.35562 0.0912934 
0.320034 0.606968 0.712813 0.213723 0.486991 
0.0553929 0.958583 0.479322 0.390129 0.718494 
0.894067 0.802904 0.446397 0.0784282 0.403485 
0.268401 0.921922 0.121407 0.0712897 0.898007 
0.86446 0.864746 0.751817 0.760731 0.3876 
0.66108 0.961418 0.858526 0.0466253 0.887577 
0.166975 0.936127 0.228798 0.157822 0.990681 
0.496179 0.704988 0.0503423 0.892051 0.933594 
0.948999 0.900847 0.576668 0.364842 0.664517 
0.902157 0.0810366 0.712987 0.10814 0.0826814 
0.112753 0.600343 0.442963 0.718161 0.719693 
0.369161 0.60057 0.13244 0.22751 0.10934 
0.877476 0.913895 0.521229 0.448124 0.246609 
0.198894 0.93282 0.931587 0.828164 0.0765522 
0.299218 0.462872 0.746885 0.532821 0.143396 
0.790061 0.754795 0.394846 0.403764 0.263441 
0.56032 0.646763 0.117467 0.746335 0.207413 
0.669947 0.746716 0.602701 0.566882 0.424965 
0.413667 0.779865 0.574661 0.268827 0.495011 
0.417775 0.560449 0.61676 0.192026 0.433483 
0.220623 0.140738 0.371915 0.371676 0.468993 
0.854087 0.673666 0.191793 0.159158 0.364003 
0.532627 0.11702 0.267873 0.165788 0.497393 
0.150975 0.361037 0.176363 0.761326 0.318308 
0.527018 0.964384 0.630563 0.768977 0.902726 
0.955712 0.859733 0.385778 0.679382 0.781786 
0.192087 0.912894 0.253254 0.379043 0.936157 
0.438038 0.598132 0.745543 0.76839 0.743803 
0.574978 0.140547 0.384727 0.116207 0.944 
0.631792 0.626176 0.192166 0.401421 0.757695 
0.132079 0.125628 0.0401877 0.953227 0.672095 
0.576168 0.183372 0.889038 0.0645169 0.482265 
0.198213 0.435687 0.173588 0.100309 0.950651 
0.568161 0.480459 0.568802 0.40485 0.44619 
0.853474 0.437854 0.47711 0.631289 0.921529 
0.787159 0.83428 0.686329 0.823288 0.208198 
0.214863 0.284123 0.971561 0.321624 0.711322 
0.379344 0.711609 0.4912 0.518327 0.435864 
0.773637 0.608128 0.697071 0.404683 0.857968 
0.253443 0.924378 0.501021 0.871989 0.500726 
0.643091 0.823269 0.886834 0.0058627 0.664679 
0.291132 0.541673 0.844695 0.93208 0.479086 
0.882354 0.175225 0.762329 0.463137 0.963105 
0.702971 0.303187 0.0134107 0.632887 0.240662 
0.406644 0.170778 0.0247615 0.543831 0.103987 
0.416367 0.316559 0.245808 0.150009 0.649823 
0.663004 0.360772 0.455118 0.428029 0.551572 
0.870419 0.803304 0.861743 0.815928 0.835615 
0.477905 0.137422 0.170906 0.0906134 0.552996 
0.545108 0.795868 0.9625 0.58796 0.302259 
0.590999 0.752609 0.668023 0.475282 0.110379 
0.980832 0.92512 0.492038 0.461135 0.60284 
0.869359 0.82091 0.758168 0.495363 0.135754 
0.126874 0.908341 0.0284599 0.951473 0.708602 
0.897987 0.0291647 0.591904 0.934221 0.454311 
0.21154 0.74021 0.941403 0.872124 0.541845 
0.273186 0.615636 0.17562 0.281427 0.764739 
0.394134 0.382912 0.231737 0.204287 0.898856 
0.817356 0.659677 0.96095 0.944924 0.646951 
0.452575 0.193836 0.794268 0.265426 0.35771 
0.623255 0.490009 0.768688 0.522365 0.617551 
0.833775 0.672388 0.820525 0.946621 0.242579 
0.131136 0.431166 0.384886 0.278465 0.0222651 
0.288502 0.887363 0.281156 0.61562 0.632964 
0.896923 0.384516 0.281236 0.247388 0.264645 
0.0396353 0.644276 0.918178 0.173454 0.58949 
0.230302 0.0244454 0.803231 0.218673 0.655118 
0.306781 0.303682 0.0846985 0.0402467 0.728269 
0.0779408 0.528234 0.468217 0.755151 0.605074 
0.205561 0.359768 0.654502 0.844736 0.733566 
0.988299 0.198804 0.299554 0.73249 0.131887 
0.565222 0.522854 0.499586 0.4004 0.131232 
0.0942517 0.612051 0.765239 0.260884 0.253017 
0.617113 0.58402 0.47541 0.335294 0.141087 
0.816083 0.0855543 0.048442 0.997996 0.457613 
0.562482 0.267503 0.541564 0.221809 0.0115601 
0.950876 0.284139 0.769235 0.28535 0.129816 
0.489059 0.413076 0.715612 0.582442 0.54688 
0.427161 0.379502 0.351665 0.853857 0.881337 
0.525836 0.484051 0.135545 0.384636 0.0879483 
0.118499 0.276233 0.201784 0.136839 0.869367 
0.208242 0.158434 0.417533 0.644092 0.809188 
0.0750899 0.0284487 0.879416 0.461706 0.836898 
0.807476 0.580213 0.608272 0.889123 0.477183 
0.575365 0.948836 0.837586 0.852646 0.62505 
0.446719 0.205966 0.476272 0.577781 0.373204 
0.353069 0.564678 0.269842 0.391092 0.100467 
0.425211 0.484456 0.172891 0.81417 0.717661 
0.203216 0.0304917 0.657161 0.0196814 0.236218 
0.115933 0.809197 0.855566 0.286134 0.0743357 
0.574307 0.207797 0.834153 0.0474131 0.780864 
0.169723 0.375394 0.552166 0.0509058 0.138452 
0.284251 0.937912 0.925493 0.679512 0.330541 
0.207621 0.403843 0.64189 0.773141 0.777399 
0.787472 0.292669 0.180467 0.204452 0.533822 
0.940383 0.85472 0.697105 0.398847 0.882712 
0.0543649 0.554739 0.161266 0.327538 0.353796 
0.190593 0.151565 0.926027 0.84449 0.744931 
0.816927 0.802289 0.463933 0.681415 0.233424 
0.0556653 0.457309 0.801177 0.607449 0.277849 
0.63955 0.20613 0.281399 0.82297 0.126592 
0.307208 0.75426 0.172961 0.746898 0.143576 
0.671749 0.864146 0.382238 0.276193 0.739506 
0.182443 0.527073 0.576723 0.581394 0.560535 
0.897693 0.304475 0.9358 0.413472 0.686023 
0.758962 0.807275 0.942008 0.603169 0.339296 
0.0901346 0.13423 0.504042 0.137183 0.0810121 
0.0423341 0.804986 0.393388 0.328868 0.826257 
0.358595 0.664492 0.312807 0.583737 0.239884 
0.259535 0.0561055 0.966066 0.0884658 0.570831 
0.392817 0.415674 0.75604 0.73437 0.863594 
0.691857 0.196254 0.193502 0.317279 0.141168 
0.174836 0.0465614 0.154642 0.126198 0.788022 
0.988164 0.161449 0.219194 0.744953 0.847312 
0.772465 0.911528 0.134555 0.459881 0.365075 
0.440239 0.397803 0.000983488 0.972587 0.951025 
0.347238 0.127379 0.844533 0.518408 0.164001 
0.754742 0.473488 0.922688 0.499729 0.867742 
0.735588 0.127511 0.680353 0.390347 0.765539 
0.217627 0.217915 0.542633 0.212641 0.538262 
0.2193 0.00270296 0.973769 0.0252956 0.19341 
0.270134 0.0687279 0.347556 0.669114 0.592722 
0.859818 0.160722 0.89781 0.834975 0.196949 
0.536862 0.773984 0.938639 0.988797 0.0569843 
0.0081594 0.635177 0.445652 0.894394 0.756298 
0.256433 0.869312 0.585859 0.971315 0.922531 
0.860865 0.823246 0.969784 0.883309 0.218661 
0.513561 0.760137 0.997334 0.110299 0.476167 
0.894792 0.372625 0.959406 0.174789 0.0399542 
0.821541 0.111984 0.462378 0.453483 0.722879 
0.509684 0.288556 0.943097 0.39031 0.915517 
0.71674 0.744102 0.892103 0.988372 0.646019 
0.742335 0.854672 0.469318 0.745602 0.72693 
0.16491 0.690761 0.486493 0.427821 0.990202 
0.430749 0.724997 0.612 0.620682 0.815744 
0.148095 0.565416 0.170652 0.934296 0.548239 
0.452803 0.0106663 0.492505 0.531661 0.775748 
0.0745262 0.381547 0.10632 0.0369538 0.850838 
0.0372082 0.4093 0.745418 0.607362 0.378935 
0.840262 0.262907 0.703021 0.411348 0.508517 
0.787089 0.108852 0.788305 0.705431 0.145025 
0.0952697 0.758012 0.804945 0.474081 0.153475 
0.722874 0.293322 0.681333 0.565874 0.859663 
0.0468481 0.626651 0.448626 0.793439 0.824845 
0.164809 0.248502 0.268736 0.635841 0.764013 
0.279713 0.273109 0.94836 0.696434 0.941953 
0.665267 0.420539 0.886593 0.574981 0.587849 
0.871017 0.0101474 0.62592 0.76152 0.00861959 
0.528979 0.563103 0.584077 0.574413 0.173006 
0.143676 0.0851953 0.18607 0.675961 0.46654 
0.265455 0.447143 0.799206 0.153527 0.336809 
0.134139 0.375015 0.574453 0.836045 0.585587 
0.512801 0.630662 0.256829 0.636745 0.6722 
0.855863 0.436346 0.0768056 0.995235 0.0792182 
0.891392 0.233371 0.46979 0.658774 0.88041 
0.95085 0.516012 0.149878 0.924932 0.387996 
0.0912 0.342001 0.979471 0.657705 0.336896 
0.895673 0.771154 0.0078805 0.0859335 0.976425 
0.385313 0.0962401 0.867323 0.407156 0.824139 
0.134707 0.372876 0.920076 0.952671 0.332969 
0.540288 0.0143886 0.369986 0.527463 0.272574 
0.38707 0.44674 0.287942 0.37618 0.67935 
0.837126 0.486816 0.11323 0.922166 0.143115 
0.0176789 0.715505 0.0756233 0.456745 0.919889 
0.477934 0.878195 0.448712 0.0632816 0.582483 
0.533269 0.231582 0.739691 0.494267 0.433132 
0.595384 0.74827 0.65225 0.28787 0.873755 
0.734998 0.150886 0.373138 0.739576 0.0552409 
0.606778 0.437063 0.266787 0.478154 0.338307 
0.18271 0.903867 0.755752 0.484804 0.565699 
0.170811 0.769589 0.0911473 0.569441 0.951935 
0.0522391 0.958699 0.781871 0.0379691 0.704449 
0.552698 0.808276 0.646867 0.641648 0.825513 
0.152312 0.0952465 0.366764 0.319756 0.634601 
0.76605 0.371419 0.995254 0.128811 0.921972 
0.398644 0.508469 0.409728 0.479041 0.296483 
0.285794 0.871119 0.117246 0.308934 0.797124 
0.57595 0.123552 0.920205 0.564491 0.940537 
0.360343 0.236443 0.86783 0.1993 0.281365 
0.171424 0.755642 0.480914 0.294178 0.429599 
0.297284 0.184649 0.418851 0.215595 0.588661 
0.0151665 0.581613 0.278875 0.773103 0.971783 
0.783866 0.482354 0.975888 0.134432 0.381622 
0.655118 0.637995 0.974407 0.180097 0.766581 
0.387922 0.850004 0.415182 0.0617771 0.76189 
0.332867 0.84596 0.611113 0.704317 0.974594 
0.553861 0.0396446 0.889306 0.625882 0.637196 
0.0295456 0.777941 0.1187 0.655487 0.77884 
0.889968 0.854955 0.83203 0.0683015 0.446038 
0.0316082 0.98297 0.038537 0.986196 0.181174 
0.457399 0.947336 0.0943603 0.334945 0.0934077 
0.744528 0.687774 0.999402 0.782743 0.513124 
0.731004 0.255132 0.661862 0.831441 0.990911 
0.633337 0.820236 0.539831 0.149872 0.120024 
0.740934 0.867334 0.359944 0.18783 0.917901 
0.392071 0.440418 0.903521 0.420608 0.135408 
0.360045 0.669365 0.0152084 0.0660022 0.627447 
0.771057 0.354863 0.394744 0.914243 0.327469 
0.0361841 0.89361 0.169551 0.650068 0.0147542 
0.953966 0.037838 0.787384 0.701308 0.631104 
0.433597 0.398841 0.179119 0.226811 0.393516 
0.737948 0.314382 0.388361 0.746669 0.862521 
0.390899 0.796483 0.922768 0.793527 0.946175 
0.000379547 0.73576 0.785878 0.409811 0.0904797 
0.822526 0.66773 0.976238 0.186392 0.728635 
0.0892581 0.48816 0.264359 0.658918 0.200068 
0.208286 0.511624 0.755738 0.342667 0.411061 
0.644966 0.231747 0.758962 0.574267 0.526936 
0.901053 0.0283183 0.15127 0.600038 0.638802 
0.0200446 0.941469 0.277324 0.739558 0.243928 
0.793411 0.971243 0.265048 0.29516 0.133018 
0.64154 0.0614465 0.504231 0.638911 0.283637 
0.339346 0.134091 0.584502 0.150685 0.554795 
0.581923 0.0499519 0.479611 0.566357 0.366975 
0.584812 0.821234 0.462718 0.738185 0.503158 
0.774439 0.447679 0.90595 0.151794 0.934024 
0.928221 0.287267 0.138569 0.768192 0.410451 
0.0926369 0.729265 0.48572 0.127532 0.228777 
0.880675 0.97959 0.686576 0.727604 0.0823587 
0.871943 0.973473 0.397805 0.688885 0.979543 
0.815985 0.794412 0.652816 0.789492 0.585729 
0.0845431 0.125384 0.386968 0.42821 0.0166113 
0.741287 0.507031 0.812551 0.49033 0.709155 
0.896345 0.971819 0.0512713 0.00920633 0.812284 
0.812397 0.502438 0.559206 0.321381 0.339212 
0.287627 0.637331 0.921004 0.645319 0.794726 
0.620887 0.650938 0.254835 0.103593 0.872903 
0.543533 0.249067 0.438629 0.848847 0.524616 
0.706058 0.867764 0.650685 0.805586 0.546691 
0.0605503 0.0758075 0.546998 0.563091 0.312218 
0.983602 0.329782 0.791039 0.234817 0.615294 
0.213406 0.876872 0.891016 0.638104 0.762763 
0.719177 0.631167 0.679394 0.667813 0.438502 
0.932455 0.0304683 0.646212 0.0699516 0.698008 
0.357402 0.536523 0.893764 0.422732 0.951967 
0.264401 0.614661 0.305723 0.846786 0.0984972 
0.96351 0.044747 0.392551 0.615004 0.401455 
0.405918 0.150968 0.625418 0.338124 0.0841763 
0.304674 0.167879 0.437565 0.876807 0.294997 
0.0739219 0.156207 0.370611 0.714546 0.774123 
0.344388 0.584943 0.675684 0.0712015 0.699571 
0.534401 0.208138 0.376077 0.0718816 0.00424423 
0.901244 0.162773 0.282117 0.388453 0.0857134 
0.780016 0.839444 0.949573 0.492918 0.233799 
0.120591 0.965751 0.944788 0.445444 0.644133 
0.247657 0.391034 0.9852 0.670036 0.682595 
0.594508 0.00802046 0.300035 0.465211 0.357559 
0.504983 0.600792 0.887825 0.967585 0.189 
0.530809 0.187333 0.71074 0.274443 0.154314 
0.344688 0.128895 0.545142 0.526469 0.69372 
0.614656 0.438651 0.759963 0.266796 0.867103 
0.628615 0.217465 0.205683 0.825633 0.87084 
0.184518 0.0871152 0.967959 0.483002 0.886263 
0.515058 0.027612 0.46211 0.894517 0.667018 
0.403717 0.876878 0.978252 0.985769 0.201531 
0.887666 0.528201 0.0872844 0.428657 0.311867 
