3500 5
0.292576 0.541788 0.739013 0.470628 0.286248 
0.657596 0.0520873 0.678246 0.759324 0.634492 
0.258391 0.17435 0.391412 0.552235 0.329082 
0.0898599 0.170194 0.0758468 0.407775 0.291474 
0.175306 0.071692 0.155934 0.284055 0.522316 
0.69392 0.130981 0.994421 0.0296914 0.0513674 
0.364757 0.997649 0.457294 0.0217982 0.363536 
0.535996 0.550554 0.52857 0.360689 0.996657 
0.101964 0.0778096 0.478627 0.644904 0.0884137 
0.401398 0.598533 0.448255 0.685543 0.462924 
0.723797 0.456212 0.71461 0.855207 0.162221 
0.673635 0.382633 0.865547 0.818564 0.234751 
0.202977 0.214096 0.783888 0.583824 0.00224509 
0.662019 0.489979 0.0613101 0.695217 0.682696 
0.308068 0.498831 0.562816 0.459334 0.545408 
0.351104 0.406964 0.372549 0.755505 0.663426 
0.785037 0.975284 0.188701 0.525323 0.835687 
0.615436 0.456901 0.377835 0.87652 0.945431 
0.0633989 0.43743 0.891415 0.0077282 0.348241 
0.379644 0.999876 0.72614 0.79211 0.652278 
0.242677 0.137683 0.508184 0.953705 0.116852 
0.0270746 0.190859 0.546219 0.773759 0.553599 
0.418514 0.538926 0.519271 0.455865 0.388724 
0.127171 0.440795 0.836992 0.600478 0.597708 
0.87694 0.433388 0.264129 0.177562 0.544679 
0.584947 0.848747 0.383106 0.73082 0.658055 
0.429349 0.401513 0.689959 0.515414 0.357115 
0.552781 0.661071 0.313163 0.820939 0.832345 
0.696529 0.714118 0.325666 0.336826 0.0176364 
0.632117 0.72985 0.686851 0.558109 0.823665 
0.0361494 0.0612861 0.236668 0.263986 0.157715 
0.644908 0.364106 0.142941 0.687759 0.110791 
0.809183 0.501849 0.731433 0.20262 0.154322 
0.0553572 0.217697 0.867233 0.860231 0.0362643 
0.00731018 0.357087 0.238035 0.459699 0.623199 
0.631483 0.964781 0.527539 0.15391 0.494031 
0.533986 0.282276 0.465716 0.966163 0.683428 
0.665994 0.866983 0.793943 0.941806 0.0593261 
0.937099 0.0993453 0.649066 0.247998 0.224058 
0.860649 0.16083 0.0785384 0.543558 0.255892 
0.178925 0.929859 0.0805297 0.479722 0.495682 
0.111741 0.664471 0.176675 0.990557 0.374222 
0.911379 0.178104 0.441379 0.348209 0.65926 
0.489648 0.354901 0.781159 0.110186 0.449768 
0.665832 0.00423751 0.00274975 0.218465 0.811476 
0.413815 0.316922 0.667217 0.681457 0.190128 
0.235337 0.745519 0.88828 0.565298 0.441123 
0.408945 0.427528 0.505366 0.0751937 0.194798 
0.384215 0.509333 0.737471 0.256958 0.66755 
0.504703 0.553438 0.530046 0.652473 0.631646 
0.726458 0.75186 0.319947 0.698805 0.931104 
0.605577 0.217615 0.616287 0.569006 0.441274 
0.740897 0.997498 0.326359 0.478536 0.342542 
0.458804 0.834589 0.176813 0.275006 0.929435 
0.0641284 0.886697 0.880507 0.865449 0.912551 
0.400441 0.359013 0.902053 0.325306 0.458685 
0.369957 0.454272 0.722054 0.345952 0.932292 
0.203665 0.125715 0.616486 0.0983133 0.761902 
0.988475 0.653295 0.529132 0.989467 0.756861 
0.00947292 0.736092 0.452099 0.957402 0.255973 
0.385538 0.69531 0.316711 0.0449676 0.605026 
0.23669 0.352643 0.267671 0.0735113 0.855234 
0.612189 0.395611 0.38912 0.0300098 0.251738 
0.104609 0.05032 0.506369 0.781912 0.63351 
0.342083 0.461382 0.35676 0.324472 0.761463 
0.570176 0.859125 0.262321 0.775368 0.430287 
0.25644 0.567255 0.847945 0.0237239 0.468249 
0.396572 0.685495 0.938358 0.0405247 0.300991 
0.82062 0.864763 0.313444 0.797741 0.0673941 
0.0159639 0.205689 0.230252 0.813348 0.202683 
0.186906 0.359622 0.92535 0.73562 0.450725 
0.683534 0.665798 0.342693 0.936339 0.564608 
0.672791 0.334226 0.702231 0.244089 0.0563604 
0.693536 0.0514892 0.933551 0.86199 0.108176 
0.329145 0.525797 0.308073 0.264199 0.224414 
0.293905 0.314328 0.946507 0.196433 0.922863 
0.151285 0.146332 0.855539 0.520663 0.206617 
0.83259 0.539525 0.15861 0.546237 0.0993988 
0.494819 0.272538 0.206838 0.194555 0.49997 
0.542591 0.649994 0.758791 0.158373 0.556323 
0.943417 0.326225 0.137359 0.459283 0.383884 
0.124733 0.898698 0.785024 0.660869 0.717651 
0.0609984 0.758057 0.145756 0.0423231 0.739673 
0.559218 0.916822 0.475148 0.681605 0.499633 
0.314397 0.739813 0.905025 0.468315 0.113332 
0.135657 0.181146 0.818548 0.858176 0.0888651 
0.500962 0.0392062 0.960358 0.816646 0.845344 
0.56383 0.550457 0.525642 0.174744 0.992349 
0.662785 0.563888 0.658605 0.511253 0.707328 
0.611293 0.0287769 0.842918 0.258087 0.878528 
0.836525 0.945767 0.832789 0.502702 0.379677 
0.798608 0.251876 0.603015 0.763492 0.193815 
0.90977 0.0693012 0.3233 0.468925 0.291369 
0.981118 0.190053 0.91083 0.566472 0.462855 
0.277247 0.693668 0.0807659 0.399805 0.0540677 
0.406862 0.299181 0.72347 0.318712 0.701944 
0.711929 0.120691 0.269232 0.453668 0.097124 
0.442969 0.272386 0.965219 0.630955 0.319985 
0.921609 0.167262 0.206368 0.787074 0.667662 
0.977027 0.15553 0.903032 0.0406323 0.090658 
0.91834 0.611486 0.217051 0.94965 0.0980253 
0.370598 0.46297 0.614519 0.877601 0.171491 
0.0427343 0.150134 0.692726 0.692951 0.889834 
0.805634 0.25156 0.054303 0.207286 0.871278 
0.44966 0.195266 0.851198 0.881528 0.161149 
0.15658 0.905816 0.0679665 0.690942 0.72639 
0.846166 0.346943 0.739411 0.0904406 0.486157 
0.800689 0.590805 0.720085 0.84887 0.06965 
0.895593 0.453991 0.607685 0.061482 0.0968841 
0.872152 0.612151 0.998729 0.492243 0.620929 
0.356094 0.473308 0.285715 0.863203 0.16338 
0.639648 0.624396 0.521586 0.424527 0.165829 
0.290829 0.300755 0.941862 0.159098 0.750403 
0.288092 0.612593 0.794456 0.849206 0.800013 
0.484046 0.971424 0.167011 0.407543 0.286083 
0.516568 0.0187966 0.178864 0.560266 0.168598 
0.595991 0.934757 0.239239 0.705928 0.909547 
0.0191649 0.165374 0.615829 0.800335 0.331326 
0.5584 0.387772 0.721515 0.143671 0.377717 
0.731285 0.9783 0.641614 0.976053 0.952695 
0.804415 0.335335 0.127708 0.816731 0.938767 
0.686496 0.844215 0.93334 0.896302 0.977438 
0.644493 0.647785 0.364245 0.834463 0.959354 
0.703879 0.405795 0.309256 0.832861 0.964096 
0.181341 0.417373 0.176545 0.602807 0.228273 
0.436396 0.271024 0.889663 0.437892 0.558921 
0.953301 0.53515 0.158091 0.977252 0.366226 
0.799577 0.321095 0.32474 0.019651 0.964572 
0.540039 0.617883 0.899894 0.223866 0.0954454 
0.96924 0.621295 0.882664 0.823808 0.840624 
0.982639 0.583947 0.0563611 0.140227 0.291148 
0.625762 0.322224 0.550856 0.30479 0.451121 
0.111302 0.450074 0.295676 0.675846 0.899722 
0.928389 0.776963 0.374183 0.795272 0.602392 
0.06473 0.0132898 0.727198 0.147493 0.125265 
0.424757 0.695458 0.3983 0.647622 0.396043 
0.854576 0.553244 0.565917 0.62433 0.265965 
0.389061 0.962858 0.144951 0.741987 0.998568 
0.490873 0.00927126 0.24052 0.566423 0.395584 
0.734328 0.247842 0.223359 0.969275 0.989915 
0.74865 0.982257 0.0536443 0.554681 0.262943 
0.223999 0.730129 0.864557 0.618739 0.362454 
0.251846 0.2438 0.0282031 0.670049 0.424114 
0.097355 0.825354 0.0415565 0.820195 0.401961 
0.730018 0.941864 0.924969 0.709495 0.919659 
0.994305 0.846171 0.528051 0.0987689 0.747323 
0.197025 0.476902 0.685379 0.376358 0.152076 
0.233878 0.354972 0.619154 0.184742 0.686434 
0.385398 0.846986 0.464988 0.53063 0.127048 
0.636536 0.0251331 0.729699 0.452441 0.688384 
0.304915 0.504 0.277154 0.17008 0.32267 
0.996148 0.260896 0.121019 0.625061 0.0713553 
0.931091 0.754428 0.565144 0.457248 0.326069 
0.715148 0.128206 0.324734 0.400036 0.918141 
0.943343 0.270403 0.963642 0.0104259 0.438935 
0.595108 0.991498 0.818861 0.773486 0.0952838 
0.630773 0.18825 0.800301 0.268568 0.709067 
0.3864 0.0973553 0.73597 0.125613 0.874337 
0.492534 0.697146 0.442334 0.652843 0.259221 
0.746573 0.368911 0.720767 0.850549 0.153817 
0.74754 0.262566 0.830699 0.0989345 0.456475 
0.26369 0.808901 0.76794 0.862174 0.131492 
0.983014 0.808782 0.520751 0.828414 0.354521 
0.228442 0.226553 0.0852214 0.490974 0.686729 
0.702741 0.862894 0.948861 0.177943 0.718834 
0.287993 0.370242 0.982832 0.531897 0.469197 
0.92216 0.0205335 0.913931 0.6584 0.302175 
0.762311 0.166462 0.955576 0.0836278 0.270517 
0.330849 0.963301 0.756887 0.403719 0.977641 
0.908794 0.903741 0.0844717 0.11963 0.747045 
0.189268 0.520387 0.393377 0.467278 0.70682 
0.423186 0.744055 0.0352889 0.993687 0.379883 
0.728566 0.102075 0.80531 0.646023 0.981436 
0.224841 0.430104 0.408859 0.191807 0.231 
0.103253 0.886267 0.716992 0.178014 0.0647637 
0.977841 0.168783 0.10189 0.914166 0.228311 
0.163503 0.0862911 0.308521 0.627137 0.333986 
0.992311 0.912938 0.919278 0.0522203 0.0255205 
0.703206 0.406928 0.734843 0.865 0.0683986 
0.907293 0.886842 0.331196 0.32645 0.427755 
0.49811 0.666113 0.688959 0.341375 0.696336 
0.844783 0.112763 0.411569 0.0349241 0.984152 
0.958196 0.895404 0.0800287 0.0904737 0.38159 
0.322367 0.290907 0.113983 0.634606 0.805765 
0.720858 0.236028 0.667803 0.175445 0.866499 
0.698087 0.381205 0.646293 0.26787 0.459615 
0.149981 0.799026 0.893657 0.318121 0.624161 
0.798603 0.833422 0.254712 0.624102 0.220378 
0.809739 0.510885 0.534531 0.426195 0.497993 
0.609454 0.2324 0.12872 0.11233 0.19362 
0.116066 0.429253 0.0651394 0.55593 0.33373 
0.981147 0.50793 0.78306 0.98265 0.6846 
0.40106 0.115074 0.477522 0.607338 0.310668 
0.483037 0.0270225 0.612742 0.18434 0.835301 
0.145189 0.139379 0.386819 0.280652 0.852203 
0.280774 0.725003 0.304616 0.285645 0.379573 
0.554708 0.452671 0.667515 0.843803 0.149946 
0.977542 0.253795 0.01681 0.660275 0.288343 
0.251368 0.123657 0.0688255 0.988779 0.157554 
0.409442 0.907378 0.595039 0.205886 0.923409 
0.814287 0.57082 0.769799 0.846747 0.221818 
0.951737 0.949218 0.719222 0.138528 0.961739 
0.0770387 0.251634 0.73176 0.171667 0.835377 
0.335376 0.448642 0.355194 0.161637 0.976015 
0.95952 0.773105 0.546635 0.149663 0.153169 
0.756258 0.701646 0.860524 0.931822 0.908283 
0.933929 0.775444 0.707468 0.824856 0.629326 
0.359868 0.477457 0.999307 0.912745 0.534787 
0.704306 0.962939 0.483583 0.25157 0.823973 
0.481079 0.92613 0.295218 0.362193 0.340607 
0.69658 0.54556 0.0521522 0.404594 0.574422 
0.614172 0.178705 0.843298 0.647 0.120394 
0.861518 0.121251 0.785228 0.686721 0.0971161 
0.729557 0.425778 0.20471 0.90175 0.719569 
0.866869 0.897794 0.925616 0.59211 0.0786799 
0.669442 0.323906 0.214435 0.611003 0.935173 
0.701088 0.0573277 0.997776 0.765008 0.370846 
0.26987 0.281609 0.203502 0.431033 0.352325 
0.0759912 0.323399 0.550066 0.276447 0.387844 
0.892419 0.837563 0.0148934 0.516067 0.736219 
0.961185 0.502249 0.391881 0.435175 0.98094 
0.275185 0.9244 0.616626 0.253616 0.465543 
0.565765 0.174927 0.206357 0.170899 0.734081 
0.837236 0.424266 0.989356 0.589387 0.33044 
0.256299 0.584082 0.928261 0.534329 0.517647 
0.681411 0.309861 0.138098 0.547539 0.992048 
0.827834 0.793114 0.8298 0.12192 0.879385 
0.450488 0.874627 0.419089 0.910728 0.71173 
0.88775 0.990961 0.368021 0.769367 0.596029 
0.760682 0.609304 0.977004 0.801201 0.754343 
0.434101 0.172075 0.648002 0.248646 0.0401859 
0.681893 0.367479 0.929366 0.282839 0.592374 
0.00560152 0.906365 0.661595 0.976817 0.694001 
0.808116 0.00874565 0.586732 0.888233 0.660488 
0.704432 0.0213512 0.788218 0.32878 0.701902 
0.00773324 0.375311 0.737837 0.226908 0.866121 
0.814996 0.889554 0.80172 0.981844 0.521111 
0.861618 0.968365 0.630901 0.787058 0.208598 
0.754948 0.00566931 0.0382525 0.197112 0.700556 
0.87674 0.609176 0.0201563 0.0196456 0.207065 
0.267754 0.99528 0.101705 0.657473 0.97465 
0.696908 0.112466 0.972112 0.527983 0.0817795 
0.906479 0.105332 0.592259 0.188868 0.679765 
0.703362 0.975222 0.284625 0.419349 0.779317 
0.573405 0.495335 0.304269 0.781222 0.642723 
0.197402 0.344833 0.12491 0.0882188 0.157325 
0.608333 0.184419 0.815888 0.184034 0.96038 
0.32169 0.0755036 0.8017 0.584953 0.226223 
0.798747 0.603054 0.295783 0.642324 0.0738462 
0.267594 0.657209 0.513495 0.969903 0.760904 
0.654785 0.526104 0.45393 0.301649 0.940783 
0.691128 0.0965811 0.29135 0.3264 0.971816 
0.0811532 0.408421 0.286058 0.283667 0.117532 
0.479382 0.386898 0.869067 0.385603 0.522872 
0.990315 0.594237 0.80918 0.732442 0.29968 
0.557067 0.794378 0.0311523 0.588896 0.49495 
0.195194 0.184395 0.639615 0.683454 0.779193 
0.341025 0.36427 0.917735 0.932103 0.927913 
0.219746 0.273623 0.62365 0.590034 0.369603 
0.237688 0.775196 0.925169 0.209611 0.188941 
0.824742 0.449587 0.807458 0.394634 0.377449 
0.854222 0.270499 0.180332 0.824271 0.777001 
0.91246 0.0644746 0.241667 0.367226 0.0222479 
0.601595 0.0316767 0.307056 0.548464 0.554268 
0.966232 0.456814 0.192054 0.574572 0.914904 
0.964677 0.971927 0.595733 0.0463712 0.508477 
0.747577 0.486643 0.706943 0.0323424 0.878202 
0.729818 0.3658 0.801533 0.337769 0.301416 
0.607597 0.959852 0.986712 0.538766 0.112687 
0.167158 0.308989 0.407103 0.976692 0.402203 
0.389499 0.158953 0.0322682 0.623583 0.619897 
0.645147 0.918154 0.201077 0.091369 0.729921 
0.628168 0.538967 0.978978 0.438499 0.886125 
0.29678 0.190789 0.866349 0.476387 0.338512 
0.375537 0.277225 0.0742266 0.980469 0.625075 
0.195524 0.155379 0.543088 0.668267 0.0229997 
0.391033 0.0899576 0.345153 0.434177 0.230962 
0.972261 0.915261 0.0468528 0.557487 0.0185469 
0.342925 0.451084 0.542445 0.356732 0.892339 
0.521904 0.95021 0.553539 0.466079 0.0609952 
0.400041 0.533525 0.788594 0.152507 0.290402 
0.0635112 0.897505 0.0843078 0.0442416 0.846086 
0.973685 0.16561 0.443523 0.478689 0.00722679 
0.539742 0.287164 0.847588 0.39964 0.0862808 
0.455589 0.419604 0.943975 0.693745 0.0226496 
0.576182 0.609842 0.169654 0.291257 0.775195 
0.368614 0.836764 0.400255 0.198401 0.799188 
0.467454 0.436839 0.221726 0.744257 0.889775 
0.0553855 0.539314 0.915582 0.229404 0.757533 
0.873687 0.251791 0.312945 0.240763 0.25821 
0.317539 0.415008 0.17092 0.37188 0.728993 
0.714862 0.57183 0.0369316 0.486262 0.387737 
0.229696 0.593908 0.569612 0.647226 0.628668 
0.724325 0.135388 0.718133 0.722609 0.51358 
0.555137 0.20181 0.219758 0.538603 0.989467 
0.491054 0.936134 0.156196 0.548046 0.372964 
0.184886 0.936983 0.0657786 0.12267 0.500532 
0.548694 0.305152 0.725331 0.422791 0.0927394 
0.38062 0.129273 0.97712 0.930122 0.199162 
0.753101 0.703842 0.848309 0.295969 0.0951617 
0.955396 0.968725 0.998269 0.355688 0.720705 
0.440587 0.479096 0.00516651 0.511107 0.664525 
0.774317 0.359948 0.808494 0.671225 0.932636 
0.195118 0.422552 0.215784 0.343208 0.59705 
0.164918 0.870452 0.215272 0.0486732 0.663184 
0.903173 0.497793 0.752907 0.818175 0.724497 
0.558786 0.109152 0.765188 0.523534 0.514273 
0.898507 0.688642 0.95731 0.62287 0.505493 
0.0306743 0.175707 0.803456 0.392345 0.262695 
0.775574 0.00546767 0.445207 0.877146 0.0967181 
0.304066 0.89313 0.795396 0.730143 0.861333 
0.473218 0.218008 0.0332675 0.179114 0.396337 
0.214164 0.7823 0.763918 0.840313 0.357875 
0.271855 0.828616 0.0660672 0.789718 0.834881 
0.49606 0.978333 0.180468 0.533686 0.940754 
0.331865 0.406063 0.454937 0.0213613 0.21119 
0.784242 0.722197 0.355042 0.535099 0.377768 
0.845808 0.30953 0.884881 0.711725 0.911414 
0.521987 0.677127 0.391637 0.0619898 0.0437608 
0.955006 0.977507 0.700387 0.386212 0.860463 
0.00703202 0.466332 0.988523 0.897698 0.475989 
0.213626 0.967917 0.597001 0.851143 0.469021 
0.202446 0.428005 0.726619 0.746196 0.671717 
0.729977 0.373869 0.89541 0.969184 0.27532 
0.956256 0.527968 0.976482 0.213422 0.185026 
0.33772 0.39859 0.979594 0.746323 0.654983 
0.486561 0.424885 0.115848 0.180476 0.00764409 
0.322679 0.0896558 0.169031 0.0500297 0.285218 
0.128703 0.882045 0.87816 0.304177 0.829732 
0.838469 0.728301 0.676332 0.793022 0.782344 
0.829023 0.848825 0.915171 0.268532 0.141931 
0.196963 0.172855 0.14681 0.391853 0.2082 
0.624537 0.335697 0.18899 0.871248 0.528469 
0.636417 0.846057 0.0939651 0.941189 0.0748979 
0.438669 0.0684541 0.482121 0.657215 0.897887 
0.158878 0.059343 0.37963 0.755887 0.300096 
0.175218 0.297002 0.495058 0.701224 0.117997 
0.657126 0.0991675 0.786783 0.614674 0.879572 
0.346478 0.476394 0.537545 0.242002 0.848971 
0.969257 0.360966 0.777972 0.423831 0.0988505 
0.762217 0.955911 0.384668 0.805091 0.633623 
0.0304452 0.0970942 0.228349 0.87099 0.214268 
0.0709107 0.11535 0.48236 0.738583 0.171527 
0.0888872 0.99042 0.432097 0.947957 0.600611 
0.366658 0.0828686 0.502742 0.554439 0.258238 
0.186802 0.293152 0.242074 0.457422 0.0177094 
0.278719 0.69079 0.417056 0.531881 0.931575 
0.0230657 0.285842 0.0143071 0.195687 0.840204 
0.951487 0.344366 0.27275 0.0988543 0.579855 
0.298715 0.675105 0.890288 0.0344159 0.179299 
0.890403 0.668546 0.0983889 0.817363 0.707381 
0.459795 0.723478 0.393267 0.11245 0.0241525 
0.448233 0.870253 0.305886 0.73358 0.401585 
0.369567 0.106866 0.483418 0.220154 0.0368255 
0.0893711 0.242326 0.116979 0.197079 0.0764093 
0.850688 0.763731 0.774445 0.569588 0.285082 
0.630888 0.34965 0.295966 0.723913 0.969069 
0.633629 0.162395 0.260306 0.751728 0.20501 
0.34079 0.149268 0.136409 0.307795 0.1816 
0.530721 0.684748 0.294635 0.31189 0.62212 
0.0676873 0.803205 0.792177 0.196577 0.703814 
0.17537 0.624766 0.0524535 0.925444 0.941434 
0.562198 0.77825 0.000125669 0.360276 0.589544 
0.427474 0.57705 0.00528176 0.0847527 0.103369 
0.777521 0.775915 0.204252 0.109806 0.541163 
0.138661 0.0471292 0.725781 0.609875 0.309633 
0.0681417 0.23765 0.52864 0.739809 0.879945 
0.724255 0.814854 0.719668 0.139425 0.930434 
0.23541 0.155053 0.791288 0.71557 0.236702 
0.439128 0.726662 0.625425 0.695291 0.594098 
0.145195 0.309989 0.125523 0.439168 0.595515 
0.00969635 0.742741 0.116616 0.390384 0.0518451 
0.115073 0.14287 0.0294521 0.955928 0.966768 
0.216105 0.371849 0.0190217 0.644146 0.193287 
0.475918 0.497274 0.471606 0.479108 0.971877 
0.313554 0.0677858 0.000990414 0.502001 0.839154 
0.252369 0.766954 0.710375 0.492878 0.645213 
0.852676 0.333046 0.0425673 0.911596 0.538227 
0.123175 0.500905 0.00218821 0.107445 0.546513 
0.193126 0.783393 0.51681 0.953829 0.0621877 
0.933015 0.0144913 0.853786 0.0702375 0.435659 
0.115793 0.796919 0.316994 0.0637822 0.624447 
0.131682 0.768356 0.305774 0.472425 0.674474 
0.875045 0.0612874 0.0437018 0.0178595 0.873455 
0.271811 0.0711904 0.810439 0.990302 0.932627 
0.632274 0.635339 0.0583355 0.72862 0.600291 
0.369805 0.0815114 0.466483 0.620246 0.542808 
0.745847 0.368788 0.692601 0.687945 0.944041 
0.27988 0.42633 0.352835 0.126157 0.983516 
0.767934 0.783222 0.435254 0.762276 0.372964 
0.970746 0.227638 0.705727 0.808064 0.334399 
0.750158 0.0423505 0.74007 0.57538 0.24758 
0.247248 0.911982 0.344682 0.634622 0.911346 
0.92564 0.500949 0.492227 0.588429 0.663672 
0.453726 0.540867 0.812065 0.328557 0.703611 
0.88993 0.836287 0.548489 0.494605 0.580325 
0.96246 0.91171 0.0122358 0.0416612 0.0881093 
0.806956 0.0697752 0.0415035 0.187751 0.323798 
0.681349 0.544 0.811367 0.743693 0.960894 
0.381433 0.496507 0.0291625 0.535946 0.294104 
0.0823006 0.751405 0.319302 0.805692 0.589384 
0.703052 0.502317 0.656232 0.96251 0.454591 
0.138685 0.468393 0.446277 0.0802957 0.877256 
0.482157 0.180904 0.0128801 0.416738 0.130776 
0.313793 0.143515 0.303435 0.998813 0.404269 
0.176179 0.878587 0.289289 0.00363388 0.192949 
0.726766 0.555132 0.411275 0.946716 0.588061 
0.748413 0.0397782 0.570157 0.671601 0.183896 
0.127586 0.294548 0.137604 0.434523 0.74886 
0.833046 0.241375 0.272555 0.0830973 0.353814 
0.671892 0.263031 0.404096 0.384772 0.181209 
0.992948 0.414456 0.102093 0.184731 0.15914 
0.947341 0.524292 0.930967 0.790234 0.835671 
0.126098 0.00680663 0.0829425 0.354048 0.22068 
0.791902 0.373639 0.339892 0.548932 0.0201387 
0.909059 0.404793 0.964233 0.163643 0.0330437 
0.189084 0.134068 0.870998 0.180929 0.283081 
0.0701583 0.112715 0.161189 0.72791 0.520446 
0.108882 0.258871 0.83541 0.850937 0.885934 
0.311765 0.465248 0.606199 0.396709 0.307369 
0.418909 0.596265 0.162467 0.68637 0.93932 
0.652348 0.679906 0.97321 0.595293 0.353517 
0.499461 0.180365 0.739354 0.311185 0.747388 
0.486864 0.573761 0.267749 0.149291 0.163266 
0.991249 0.602709 0.525352 0.28546 0.202608 
0.997685 0.580993 0.811208 0.255909 0.690276 
0.676941 0.68723 0.48919 0.607986 0.983719 
0.924918 0.628823 0.530903 0.0998652 0.388273 
0.659693 0.543068 0.135873 0.139944 0.567872 
0.580663 0.233316 0.0448222 0.201211 0.913242 
0.556723 0.150775 0.45724 0.820005 0.73539 
0.449096 0.392002 0.90832 0.767116 0.870733 
0.712932 0.87445 0.301969 0.0332746 0.452407 
0.639643 0.842111 0.00409794 0.864949 0.092369 
0.628188 0.909612 0.347822 0.354718 0.638319 
0.679967 0.512658 0.709813 0.92333 0.210863 
0.539404 0.0960796 0.797474 0.659288 0.160137 
0.338541 0.0916449 0.545947 0.0408798 0.666865 
0.435673 0.389933 0.767595 0.124007 0.407617 
0.0406134 0.119174 0.528202 0.614072 0.380436 
0.4286 0.817285 0.947329 0.264038 0.308054 
0.172798 0.422399 0.0912243 0.134195 0.692384 
0.851899 0.400738 0.113472 0.164786 0.818693 
0.572979 0.39554 0.836897 0.133856 0.853757 
0.763897 0.213039 0.483259 0.709508 0.971931 
0.77539 0.587599 0.959492 0.170745 0.892222 
0.902124 0.0293016 0.896974 0.755405 0.0526202 
0.0126038 0.979069 0.632081 0.927339 0.46607 
0.852106 0.39656 0.920453 0.96632 0.736104 
0.671377 0.86556 0.293337 0.436269 0.360642 
0.0130635 0.467326 0.555859 0.209278 0.590938 
0.0605265 0.0853484 0.334313 0.16063 0.23547 
0.644559 0.805613 0.170325 0.938125 0.463459 
0.803563 0.247401 0.0206446 0.0348593 0.362769 
0.227289 0.14274 0.514802 0.145986 0.981888 
0.160185 0.563002 0.798301 0.301737 0.335977 
0.648346 0.164376 0.919505 0.220687 0.782302 
0.823376 0.540513 0.330184 0.365065 0.759304 
0.713252 0.717579 0.782069 0.393099 0.89055 
0.71145 0.430786 0.743403 0.628935 0.9054 
0.0570784 0.958642 0.907137 0.137627 0.969363 
0.20182 0.707885 0.720981 0.415035 0.0574347 
0.725086 0.0970893 0.635306 0.746885 0.541323 
0.671748 0.291973 0.874483 0.833942 0.127858 
0.0866298 0.30192 0.248199 0.937858 0.158974 
0.0561566 0.955389 0.160856 0.889153 0.0268882 
0.712221 0.853658 0.0628418 0.0406602 0.43514 
0.664333 0.995053 0.366382 0.506163 0.579591 
0.246928 0.446548 0.105526 0.34842 0.726359 
0.7055 0.314449 0.560222 0.50556 0.348875 
0.737002 0.32822 0.473284 0.392568 0.108349 
0.664205 0.904192 0.166368 0.792599 0.144076 
0.567304 0.568241 0.0435811 0.850557 0.312622 
0.683378 0.543311 0.189318 0.73558 0.617753 
0.821953 0.806938 0.810771 0.935091 0.83337 
0.529048 0.208895 0.194447 0.782688 0.837364 
0.546012 0.349829 0.0651983 0.582237 0.257628 
0.538426 0.871034 0.104631 0.27656 0.48302 
0.330215 0.620559 0.988331 0.0529044 0.999683 
0.446211 0.727172 0.202983 0.351029 0.723375 
0.912836 0.50651 0.292906 0.646045 0.476132 
0.23384 0.190929 0.881712 0.586758 0.00449402 
0.313742 0.364569 0.140607 0.264943 0.124875 
0.239818 0.951738 0.240178 0.476244 0.00967511 
0.935307 0.0845118 0.319255 0.135499 0.938327 
0.78457 0.647789 0.793656 0.39218 0.366972 
0.0596158 0.588266 0.728752 0.92726 0.623716 
0.150387 0.0855774 0.103812 0.417287 0.523319 
0.318198 0.260078 0.62903 0.0588791 0.847779 
0.82701 0.343523 0.433515 0.0395812 0.680909 
0.961699 0.922261 0.602237 0.999489 0.240849 
0.504969 0.729575 0.612125 0.670533 0.39896 
0.540675 0.772838 0.412035 0.179532 0.307424 
0.270487 0.397003 0.877171 0.577094 0.650973 
0.909271 0.036745 0.188974 0.958485 0.714975 
0.972495 0.197514 0.152162 0.949743 0.507871 
0.51562 0.699557 0.917323 0.0698226 0.0442371 
0.478483 0.499353 0.660886 0.188794 0.644225 
0.221949 0.156982 0.214224 0.689914 0.603742 
0.795389 0.160767 0.443388 0.238038 0.686906 
0.385093 0.708229 0.484407 0.902568 0.568377 
0.568688 0.98506 0.839496 0.0408422 0.834432 
0.239716 0.0566348 0.577665 0.545769 0.808351 
0.840377 0.413529 0.333859 0.561837 0.0614293 
0.487066 0.549271 0.217865 0.297239 0.255236 
0.202724 0.385416 0.749542 0.698843 0.933983 
0.411674 0.693797 0.601348 0.654347 0.645711 
0.928124 0.902681 0.76705 0.694802 0.0772927 
0.269617 0.730319 0.218478 0.0787875 0.685332 
0.301272 0.883792 0.196677 0.757018 0.516637 
0.833911 0.03958 0.95929 0.0571345 0.854677 
0.345175 0.183932 0.909865 0.820521 0.125833 
0.124381 0.186867 0.488312 0.576233 0.951666 
0.183209 0.824066 0.441748 0.222365 0.531304 
0.104247 0.300696 0.134696 0.42674 0.973557 
0.439332 0.136676 0.401345 0.851988 0.784301 
0.598948 0.335129 0.995481 0.0729772 0.612003 
0.406152 0.641074 0.0654459 0.0153302 0.0456377 
0.660306 0.409118 0.0421598 0.70502 0.16819 
0.397224 0.351166 0.431172 0.703461 0.211413 
0.348762 0.941623 0.185997 0.935951 0.864857 
0.27604 0.885044 0.633769 0.0643697 0.64444 
0.204115 0.779912 0.826737 0.0974009 0.0741182 
0.0889446 0.823463 0.622262 0.525738 0.340336 
0.690819 0.360877 0.800488 0.958459 0.155677 
0.90091 0.069737 0.123049 0.403099 0.259927 
0.593854 0.338559 0.259165 0.616932 0.353983 
0.705244 0.0535062 0.597453 0.249188 0.328281 
0.423418 0.545104 0.365044 0.825244 0.503402 
0.939215 0.770728 0.229494 0.917545 0.153502 
0.162162 0.535204 0.982018 0.797341 0.556642 
0.820097 0.358989 0.715257 0.910035 0.285834 
0.959279 0.443442 0.256521 0.00566856 0.0394765 
0.343644 0.599857 0.266646 0.632199 0.628291 
0.165404 0.474725 0.154075 0.764856 0.662053 
0.18649 0.203895 0.806531 0.0963452 0.335959 
0.476377 0.904936 0.882655 0.170364 0.316537 
0.743156 0.00411015 0.797365 0.856796 0.507554 
0.171634 0.738217 0.279927 0.19257 0.628505 
0.188761 0.0984871 0.829899 0.0270922 0.247237 
0.502507 0.966572 0.334106 0.791322 0.207741 
0.530989 0.780579 0.207837 0.337886 0.45864 
0.75072 0.291573 0.167918 0.743501 0.461794 
0.872591 0.385768 0.797371 0.596702 0.286033 
0.89576 0.110704 0.463565 0.464413 0.617994 
0.397417 0.42304 0.497458 0.390432 0.195007 
0.495747 0.139303 0.795102 0.391764 0.724308 
0.591134 0.611992 0.578603 0.203542 0.438633 
0.434867 0.436188 0.608934 0.746175 0.680861 
0.520745 0.225883 0.755762 0.300952 0.171703 
0.247858 0.984407 0.484014 0.17597 0.359703 
0.90614 0.919432 0.214915 0.105893 0.571047 
0.367081 0.496485 0.99612 0.785618 0.460822 
0.196843 0.757699 0.773141 0.696464 0.404729 
0.341323 0.0749762 0.25255 0.89162 0.13935 
0.0759887 0.38437 0.301259 0.858653 0.724913 
0.663495 0.677368 0.186336 0.340764 0.519018 
0.778058 0.538114 0.0678686 0.578045 0.414281 
0.226072 0.856734 0.440389 0.915487 0.342415 
0.0362987 0.0987169 0.960559 0.315815 0.349839 
0.487473 0.928395 0.138876 0.435711 0.815854 
0.480347 0.793892 0.886674 0.0575027 0.841519 
0.632531 0.870773 0.891785 0.47786 0.289737 
0.062407 0.669474 0.525096 0.581783 0.0474765 
0.35943 0.304242 0.597505 0.0263947 0.424472 
0.172125 0.983544 0.554266 0.539577 0.648806 
0.131929 0.00496755 0.192754 0.053307 0.878976 
0.41085 0.200752 0.213407 0.982355 0.371734 
0.436652 0.809568 0.66483 0.20664 0.357251 
0.152894 0.329858 0.570932 0.374193 0.225099 
0.339973 0.818058 0.206898 0.415474 0.29949 
0.711992 0.727343 0.981001 0.0695613 0.129428 
0.59408 0.805893 0.368722 0.0196105 0.0513293 
0.695924 0.628864 0.487783 0.404969 0.470677 
0.164922 0.32773 0.833853 0.804633 0.216367 
0.906429 0.433197 0.649882 0.967088 0.329977 
0.713912 0.572995 0.936438 0.265808 0.000924662 
0.564805 0.134866 0.542817 0.256451 0.878395 
0.665121 0.636898 0.526286 0.318214 0.430868 
0.440334 0.111188 0.202545 0.60545 0.217572 
0.354915 0.77846 0.894673 0.250021 0.511532 
0.694974 0.429906 0.225524 0.507929 0.580416 
0.604487 0.285557 0.428554 0.179904 0.924774 
0.00796224 0.298869 0.197146 0.0373084 0.372214 
0.118821 0.023379 0.0990459 0.320351 0.275507 
0.673888 0.469719 0.901804 0.738098 0.112935 
0.865445 0.0311267 0.695532 0.140746 0.838643 
0.778897 0.0939494 0.289839 0.453322 0.832652 
0.00151435 0.0436769 0.578276 0.57525 0.803331 
0.880917 0.413733 0.0655337 0.3326 0.647942 
0.983623 0.437791 0.33346 0.986731 0.744924 
0.470297 0.236217 0.255014 0.481658 0.456174 
0.912001 0.543596 0.156477 0.915384 0.533119 
0.656877 0.00782518 0.870681 0.928964 0.513443 
0.417157 0.860991 0.0924952 0.745808 0.359472 
0.212607 0.887521 0.61708 0.0919712 0.536922 
0.781494 0.587569 0.263213 0.776382 0.0132963 
0.659172 0.60022 0.412389 0.827005 0.389588 
0.848383 0.0944868 0.289892 0.704527 0.063111 
0.7903 0.075315 0.918861 0.250257 0.809171 
0.821193 0.00553091 0.316391 0.945964 0.0905396 
0.362743 0.398585 0.636432 0.963248 0.0996094 
0.929301 0.316858 0.550831 0.613452 0.683153 
0.454306 0.515135 0.515993 0.761586 0.283026 
0.293209 0.952849 0.480306 0.464899 0.112158 
0.119756 0.817435 0.980789 0.878936 0.94177 
0.499424 0.410275 0.379018 0.0732439 0.389072 
0.876426 0.813496 0.158113 0.753554 0.210751 
0.288273 0.170326 0.237559 0.441549 0.760788 
0.0782537 0.529455 0.278368 0.543115 0.81277 
0.236176 0.599422 0.394077 0.911688 0.170073 
0.954165 0.796181 0.0811798 0.0460776 0.0499514 
0.142846 0.295536 0.501825 0.137222 0.270155 
0.524799 0.0416765 0.581506 0.391281 0.686498 
0.0799919 0.429594 0.620265 0.424301 0.447596 
0.417214 0.335162 0.230628 0.85621 0.379533 
0.219627 0.723039 0.518544 0.17955 0.154165 
0.44378 0.316781 0.930544 0.143808 0.346031 
0.214179 0.592089 0.251914 0.611696 0.323956 
0.134125 0.274372 0.348193 0.277334 0.446354 
0.547579 0.205862 0.852705 0.0876743 0.0709087 
0.639396 0.320268 0.99346 0.608604 0.273696 
0.929822 0.146995 0.305139 0.0232373 0.701621 
0.449538 0.458581 0.343104 0.250026 0.397024 
0.514187 0.71918 0.000991473 0.734419 0.202237 
0.311046 0.80172 0.86405 0.539529 0.0464417 
0.310878 0.193755 0.641751 0.120474 0.506423 
0.630448 0.515954 0.0153239 0.260286 0.252337 
0.781032 0.712138 0.240996 0.433054 0.562901 
0.153833 0.735484 0.0248305 0.241044 0.384063 
0.135526 0.979198 0.760836 0.128285 0.676619 
0.166832 0.398619 0.0375541 0.869624 0.336278 
0.355876 0.458512 0.158557 0.747082 0.861331 
0.516405 0.0309226 0.0391633 0.104086 0.696747 
0.392485 0.801761 0.0604333 0.492297 0.0670736 
0.335931 0.330501 0.228601 0.781837 0.938136 
0.818222 0.173646 0.834158 0.683885 0.312927 
0.595111 0.771541 0.417538 0.719595 0.671573 
0.953454 0.808259 0.0135129 0.884285 0.34668 
0.648382 0.662385 0.724104 0.122507 0.668186 
0.355234 0.714773 0.788901 0.841105 0.110692 
0.423422 0.144615 0.958669 0.951529 0.911691 
0.15542 0.395571 0.424228 0.316094 0.890996 
0.716213 0.834006 0.102903 0.229042 0.497015 
0.210146 0.31577 0.62576 0.944919 0.578863 
0.530767 0.571908 0.411252 0.38294 0.0704717 
0.143045 0.315982 0.687905 0.181276 0.209114 
0.297879 0.751069 0.33576 0.585883 0.417639 
0.386008 0.651187 0.63241 0.0370899 0.764106 
0.0862324 0.762011 0.495453 0.268999 0.336632 
0.667726 0.744195 0.167582 0.574776 0.794307 
0.0688538 0.854643 0.95118 0.67513 0.22308 
0.484683 0.724387 0.407869 0.763565 0.878041 
0.0084142 0.382571 0.183127 0.431293 0.637815 
0.824604 0.832804 0.505847 0.0277289 0.259385 
0.316513 0.0499146 0.00121705 0.206294 0.47451 
0.312009 0.178215 0.0782867 0.414767 0.374118 
0.441748 0.957298 0.687022 0.117392 0.746739 
0.872363 0.447234 0.794854 0.584013 0.422303 
0.447027 0.202286 0.936354 0.467211 0.000187548 
0.798709 0.237445 0.649745 0.00975055 0.353017 
0.761478 0.264594 0.00057667 0.511525 0.0524655 
0.159473 0.128181 0.372269 0.242613 0.422558 
0.20794 0.871628 0.102323 0.464853 0.188766 
0.606916 0.050543 0.325357 0.586367 0.3175 
0.0144566 0.224393 0.888845 0.924463 0.954081 
0.922621 0.725038 0.0789503 0.644508 0.255889 
0.0598177 0.970045 0.52461 0.244884 0.51653 
0.68528 0.274663 0.0222926 0.874639 0.673436 
0.408447 0.650163 0.00989732 0.707325 0.364368 
0.489016 0.483473 0.526411 0.0494145 0.383231 
0.876491 0.615189 0.380768 0.534232 0.283626 
0.0670893 0.209366 0.766462 0.107363 0.259161 
0.762725 0.598467 0.0510894 0.315536 0.602078 
0.902488 0.0672638 0.939324 0.473128 0.568388 
0.333429 0.70461 0.57991 0.798119 0.0352776 
0.516844 0.896203 0.832591 0.9475 0.770446 
0.975748 0.75074 0.983526 0.890945 0.483708 
0.331028 0.0654382 0.376585 0.239142 0.426814 
0.435301 0.663382 0.565491 0.673437 0.957484 
0.172046 0.052137 0.984372 0.936477 0.109184 
0.582192 0.443932 0.138664 0.728814 0.0603345 
0.609847 0.452965 0.113451 0.506592 0.963725 
0.640406 0.455617 0.127855 0.0711785 0.781412 
0.00631982 0.0878035 0.261226 0.874124 0.432618 
0.60654 0.185332 0.695981 0.402902 0.773024 
0.383855 0.516154 0.96119 0.177823 0.826902 
0.199896 0.875215 0.606906 0.634297 0.213147 
0.186877 0.946194 0.458462 0.680074 0.733202 
0.452545 0.159086 0.548938 0.308007 0.729824 
0.41287 0.774884 0.973835 0.425911 0.213656 
0.51121 0.66146 0.138235 0.490764 0.163906 
0.300644 0.835396 0.537827 0.801466 0.317356 
0.901897 0.41162 0.0692217 0.38965 0.214506 
0.555525 0.923514 0.820426 0.484955 0.750056 
0.00609293 0.862472 0.3194 0.621869 0.83812 
0.838222 0.790502 0.878724 0.0397645 0.994996 
0.614246 0.3884 0.245884 0.480503 0.177576 
0.788 0.222319 0.454882 0.548651 0.164282 
0.362513 0.0889195 0.482832 0.142609 0.158973 
0.85203 0.663691 0.916446 0.920386 0.183883 
0.76058 0.607743 0.785588 0.960527 0.458454 
0.0935657 0.194615 0.806546 0.104421 0.939503 
0.761978 0.402733 0.28384 0.838499 0.51829 
0.906185 0.786527 0.436289 0.401432 0.654884 
0.659019 0.116105 0.654901 0.994132 0.347609 
0.0137045 0.0560208 0.950014 0.840152 0.457123 
0.918769 0.761929 0.702138 0.513102 0.0193096 
0.40843 0.438366 0.187253 0.0774303 0.100438 
0.545673 0.371729 0.380867 0.670115 0.0785632 
0.39315 0.308772 0.16912 0.656637 0.1746 
0.385275 0.510811 0.147566 0.552053 0.386517 
0.867818 0.462735 0.71249 0.152465 0.335955 
0.232771 0.415189 0.187132 0.986748 0.63184 
0.124531 0.288752 0.711127 0.687351 0.343806 
0.462303 0.994417 0.510172 0.311849 0.214304 
0.245267 0.967445 0.523874 0.658698 0.506169 
0.211978 0.0795341 0.560392 0.841956 0.441285 
0.35336 0.356807 0.71547 0.61281 0.314041 
0.428174 0.930162 0.519564 0.864166 0.402997 
0.595154 0.527446 0.101657 0.00539363 0.0988565 
0.528048 0.587767 0.873354 0.927364 0.94733 
0.929772 0.242296 0.355834 0.472796 0.143482 
0.658243 0.910776 0.665229 0.64799 0.242056 
0.583253 0.927405 0.354147 0.976495 0.447902 
0.757751 0.807886 0.462171 0.767777 0.66899 
0.545547 0.0125615 0.832584 0.662164 0.713206 
0.0265999 0.285028 0.984424 0.592922 0.745744 
0.0499038 0.912303 0.502426 0.616105 0.48225 
0.389356 0.311426 0.961739 0.723639 0.649828 
0.177684 0.675236 0.832218 0.187136 0.523909 
0.643535 0.444895 0.243841 0.609534 0.395418 
0.0349582 0.36453 0.831958 0.444899 0.564339 
0.350225 0.925601 0.396087 0.977248 0.0444454 
0.185534 0.0317207 0.83397 0.313382 0.534352 
0.435147 0.259058 0.84622 0.625055 0.463192 
0.876778 0.561068 0.932816 0.515935 0.425733 
0.145462 0.776699 0.863658 0.383059 0.490264 
0.718635 0.584691 0.889552 0.283964 0.407604 
0.70274 0.0882293 0.61936 0.473025 0.216431 
0.886855 0.785089 0.374539 0.460001 0.088211 
0.650037 0.895301 0.132929 0.44323 0.704978 
0.268682 0.332449 0.703361 0.708805 0.366559 
0.664307 0.762779 0.823336 0.421747 0.0789365 
0.402007 0.388664 0.0398818 0.938478 0.838261 
0.643575 0.388718 0.680946 0.441132 0.340986 
0.834758 0.920789 0.0633854 0.849783 0.141448 
0.0713732 0.649371 0.745386 0.600583 0.703387 
0.243155 0.89698 0.120966 0.387631 0.803645 
0.418727 0.994245 0.37291 0.462976 0.69799 
0.53808 0.0742515 0.0821873 0.162101 0.704875 
0.233122 0.487694 0.515829 0.358532 0.334749 
0.00187347 0.0874035 0.29767 0.879989 0.88721 
0.253585 0.848506 0.646934 0.311306 0.346565 
0.163088 0.204976 0.956326 0.882004 0.0617101 
0.093064 0.839525 0.693195 0.616664 0.9252 
0.97637 0.85088 0.563191 0.150071 0.815827 
0.333467 0.0152699 0.130278 0.574569 0.0886068 
0.211151 0.799763 0.100745 0.250128 0.849801 
0.044191 0.857984 0.222292 0.840118 0.112247 
0.186145 0.565775 0.0604567 0.700845 0.0398192 
0.243493 0.803164 0.365451 0.254484 0.0145165 
0.162086 0.75441 0.0717077 0.0433037 0.62149 
0.573834 0.735166 0.174122 0.691765 0.0986475 
0.271717 0.0250583 0.0129784 0.781677 0.29796 
0.509366 0.376708 0.646159 0.900172 0.910013 
0.865724 0.4892 0.326652 0.476969 0.0219635 
0.680944 0.307056 0.892213 0.903422 0.104903 
0.517055 0.0795911 0.193001 0.728502 0.419094 
0.912183 0.452488 0.227725 0.845722 0.477057 
0.33004 0.213679 0.0959033 0.332399 0.564383 
0.2824 0.782218 0.704687 0.642578 0.353936 
0.332869 0.902285 0.199218 0.758734 0.660568 
0.452456 0.755313 0.606652 0.749194 0.226171 
0.00238287 0.973885 0.170787 0.345934 0.0375454 
0.504124 0.298569 0.964431 0.314674 0.334073 
0.694996 0.237726 0.729439 0.599673 0.554038 
0.617468 0.747727 0.332792 0.989051 0.555072 
0.478534 0.59992 0.969521 0.560981 0.719154 
0.891531 0.00534507 0.856832 0.717779 0.0562166 
0.00773892 0.172147 0.649557 0.96874 0.612092 
0.91637 0.640208 0.339252 0.0742536 0.639714 
0.125153 0.324239 0.989246 0.558775 0.194128 
0.430898 0.774799 0.0117764 0.271755 0.941573 
0.196119 0.237411 0.632542 0.847894 0.700872 
0.190725 0.233175 0.96112 0.834562 0.824572 
0.798277 0.768334 0.00396338 0.198395 0.923419 
0.40783 0.447289 0.650663 0.871485 0.827777 
0.1288 0.318614 0.719709 0.623998 0.333554 
0.739743 0.739842 0.286572 0.775826 0.935782 
0.452425 0.843268 0.474626 0.0688167 0.285745 
0.780784 0.956355 0.461788 0.709007 0.758866 
0.907331 0.143257 0.243443 0.694844 0.980241 
0.0817111 0.606033 0.298983 0.0243704 0.141454 
0.162738 0.450662 0.792898 0.859327 0.442249 
0.853846 0.938144 0.853571 0.779651 0.1244 
0.345776 0.729204 0.0257964 0.553693 0.464132 
0.816809 0.183643 0.161134 0.925676 0.831775 
0.103765 0.238582 0.288534 0.16473 0.208416 
0.363473 0.0312469 0.779289 0.899221 0.81896 
0.109745 0.200594 0.125816 0.277936 0.91496 
0.617116 0.640032 0.551678 0.966751 0.122448 
0.752219 0.210137 0.401505 0.419714 0.572722 
0.81899 0.224715 0.495356 0.605982 0.552544 
0.19253 0.562363 0.40575 0.558483 0.194325 
0.64317 0.759577 0.198115 0.506663 0.365752 
0.699064 0.039183 0.405442 0.895516 0.0561413 
0.181885 0.342103 0.175424 0.900695 0.301746 
0.973866 0.311358 0.117001 0.107204 0.882377 
0.946258 0.286356 0.730473 0.616483 0.833524 
0.42937 0.252956 0.992553 0.768361 0.255579 
0.49153 0.653229 0.596793 0.291048 0.450316 
0.202266 0.168349 0.536658 0.212237 0.519329 
0.322639 0.840303 0.272481 0.42825 0.412142 
0.590516 0.738011 0.352868 0.393772 0.575168 
0.0355531 0.582529 0.610286 0.568245 0.800114 
0.56092 0.984235 0.0604928 0.74011 0.0240368 
0.596397 0.497962 0.0302009 0.632444 0.269143 
0.77731 0.889476 0.28362 0.93018 0.658063 
0.940284 0.0762003 0.420963 0.672253 0.205239 
0.15374 0.947397 0.153552 0.323677 0.892624 
0.26655 0.943038 0.327043 0.506362 0.836762 
0.454251 0.603598 0.457876 0.593164 0.115035 
0.581382 0.922697 0.622442 0.296717 0.198909 
0.413252 0.614821 0.843283 0.450633 0.178436 
0.859546 0.844002 0.995456 0.216416 0.174614 
0.511636 0.973709 0.465654 0.122462 0.509371 
0.260273 0.617016 0.00282745 0.489253 0.135735 
0.940351 0.150677 0.758706 0.15089 0.230934 
0.952201 0.576591 0.923282 0.104426 0.882898 
0.45416 0.702084 0.898777 0.77592 0.69892 
0.376238 0.27485 0.916571 0.465823 0.179029 
0.304741 0.782246 0.920001 0.447704 0.0117385 
0.864287 0.480783 0.551291 0.513974 0.0192165 
0.871715 0.519525 0.81151 0.339552 0.136779 
0.627127 0.285469 0.796332 0.348721 0.900861 
0.714373 0.683215 0.211783 0.567781 0.466486 
0.79251 0.336721 0.591554 0.979012 0.74774 
0.0847298 0.0517704 0.807297 0.158772 0.421406 
0.828255 0.306993 0.688319 0.148069 0.873574 
0.536094 0.492724 0.502895 0.688471 0.784097 
0.894422 0.620275 0.0494653 0.394681 0.965231 
0.465482 0.978538 0.566481 0.891062 0.614983 
0.714741 0.24405 0.682514 0.805416 0.676417 
0.307625 0.0553945 0.198753 0.0237908 0.607488 
0.35306 0.0259435 0.499019 0.886062 0.811705 
0.480946 0.357938 0.0907783 0.71438 0.900287 
0.212847 0.443644 0.576205 0.0813976 0.691278 
0.173054 0.942118 0.454429 0.375391 0.952661 
0.302446 0.188829 0.621698 0.396219 0.371625 
0.126871 0.49709 0.324212 0.233897 0.840204 
0.426427 0.441059 0.946352 0.320721 0.0754161 
0.720863 0.122908 0.109105 0.651137 0.111595 
0.336902 0.409098 0.273187 0.161828 0.436823 
0.805819 0.992285 0.917903 0.370028 0.908537 
0.438141 0.598717 0.903781 0.751792 0.637177 
0.517788 0.630509 0.825142 0.885203 0.375968 
0.904614 0.370686 0.653398 0.972088 0.25786 
0.390759 0.281565 0.886657 0.687673 0.318598 
0.817275 0.0314004 0.605752 0.230374 0.902921 
0.0404703 0.705168 0.19527 0.139082 0.649912 
0.519087 0.414015 0.970818 0.888947 0.865631 
0.723002 0.231087 0.0923761 0.683603 0.558121 
0.443214 0.436504 0.158959 0.568901 0.527896 
0.28628 0.391063 0.564074 0.590241 0.883603 
0.112072 0.0445164 0.994194 0.718509 0.897805 
0.784923 0.827554 0.657662 0.32523 0.889106 
0.877409 0.854391 0.962563 0.288843 0.0715789 
0.278635 0.406762 0.431848 0.709832 0.759706 
0.638255 0.228239 0.73998 0.806479 0.876728 
0.766324 0.608347 0.745328 0.205609 0.466671 
0.207578 0.158113 0.488576 0.57843 0.815962 
0.92631 0.446942 0.0333886 0.404552 0.966323 
0.567935 0.971486 0.543182 0.189045 0.835548 
0.540428 0.0808193 0.726225 0.732614 0.897131 
0.235289 0.829422 0.0189536 0.178589 0.476822 
0.838408 0.72504 0.918656 0.00729308 0.687161 
0.365 0.67436 0.642638 0.731598 0.111347 
0.901121 0.789015 0.169148 0.223839 0.557886 
0.953837 0.624214 0.983951 0.919068 0.834208 
0.524175 0.16501 0.679286 0.998779 0.0133759 
0.4278 0.932386 0.9135 0.530539 0.568172 
0.900097 0.515146 0.454097 0.875229 0.738404 
0.273799 0.159278 0.553945 0.260087 0.499209 
0.579271 0.824041 0.0747892 0.922481 0.610864 
0.347954 0.243093 0.286941 0.0924396 0.686259 
0.45447 0.965392 0.277693 0.818039 0.348206 
0.366014 0.422599 0.0933361 0.999128 0.890924 
0.273931 0.184553 0.950115 0.530395 0.455682 
0.0657457 0.580941 0.81531 0.148211 0.537741 
0.983722 0.716468 0.619577 0.348945 0.523733 
0.864383 0.523637 0.720522 0.398537 0.257117 
0.582939 0.887799 0.638926 0.634556 0.250665 
0.97779 0.519628 0.0403382 0.839321 0.314665 
0.271209 0.612096 0.509021 0.0248447 0.346003 
0.517246 0.990955 0.0562534 0.0217869 0.832839 
0.281997 0.0645115 0.438403 0.824724 0.741767 
0.0884289 0.791982 0.841433 0.835298 0.981539 
0.512006 0.42488 0.994416 0.735654 0.255192 
0.665291 0.550747 0.127849 0.271729 0.382333 
0.454381 0.609311 0.464449 0.0758921 0.631459 
0.638779 0.757615 0.653886 0.940954 0.725358 
0.966782 0.628149 0.378691 0.705164 0.445026 
0.994215 0.400601 0.667109 0.361083 0.758121 
0.423698 0.262095 0.775665 0.304754 0.34536 
0.23016 0.468544 0.386838 0.49129 0.514369 
0.428312 0.0627185 0.508231 0.00436573 0.476681 
0.793805 0.315136 0.06429 0.887705 0.732251 
0.10228 0.506629 0.799569 0.793602 0.2359 
0.108123 0.648011 0.812374 0.586481 0.102682 
0.799235 0.608096 0.1825 0.66022 0.478552 
0.761595 0.415424 0.608051 0.967387 0.809739 
0.608927 0.7724 0.348286 0.35018 0.242147 
0.813933 0.919668 0.850191 0.658499 0.700304 
0.834784 0.643062 0.0140704 0.392588 0.983586 
0.0862515 0.80187 0.851978 0.690604 0.028024 
0.0883589 0.533495 0.535491 0.622682 0.225131 
0.457665 0.553313 0.0743458 0.631945 0.56208 
0.785653 0.323812 0.798523 0.0344228 0.384494 
0.699361 0.47988 0.0229059 0.516432 0.838027 
0.688412 0.4106 0.850951 0.0416187 0.120056 
0.588536 0.811906 0.0953264 0.963604 0.740628 
0.757333 0.234177 0.527069 0.983606 0.873777 
0.701613 0.632529 0.591204 0.608196 0.0357117 
0.259556 0.920528 0.00114198 0.366407 0.766207 
0.0275188 0.842897 0.794402 0.575731 0.338902 
0.820725 0.305816 0.43278 0.428054 0.168117 
0.62705 0.798266 0.871547 0.595948 0.433526 
0.418685 0.608951 0.84012 0.334173 0.188253 
0.644588 0.431848 0.223371 0.312638 0.0930067 
0.463058 0.0828409 0.717893 0.879384 0.846038 
0.0391482 0.289496 0.544599 0.358522 0.160697 
0.272279 0.931073 0.963615 0.724103 0.325415 
0.22033 0.117261 0.916529 0.481596 0.890461 
0.468911 0.586576 0.849281 0.055132 0.415195 
0.56594 0.051003 0.136766 0.308344 0.395327 
0.509507 0.500738 0.184833 0.832846 0.688886 
0.504939 0.352831 0.03666 0.0980099 0.557158 
0.388039 0.484873 0.0395747 0.357403 0.211423 
0.212676 0.38858 0.614076 0.424083 0.990995 
0.0329366 0.0990167 0.588957 0.185624 0.171668 
0.816805 0.384947 0.250132 0.140645 0.576294 
0.366615 0.636757 0.104809 0.534111 0.00864639 
0.850335 0.352453 0.31902 0.91335 0.710037 
0.769463 0.879561 0.757679 0.532881 0.857253 
0.850863 0.257493 0.165355 0.479771 0.912133 
0.165343 0.356221 0.442626 0.0776806 0.29824 
0.98549 0.0570493 0.229192 0.552609 0.622958 
0.0360121 0.070416 0.792816 0.939359 0.0092 
0.576155 0.149443 0.806828 0.419617 0.518975 
0.37904 0.561961 0.853821 0.564895 0.233101 
0.438091 0.67669 0.636519 0.47118 0.205432 
0.618342 0.0452887 0.960711 0.364846 0.0839873 
0.929635 0.36575 0.26191 0.0360833 0.614503 
0.40138 0.181263 0.18919 0.839629 0.44069 
0.759167 0.641409 0.406094 0.750064 0.702866 
0.287533 0.0624097 0.0279962 0.307042 0.752296 
0.438371 0.683074 0.743306 0.897391 0.916947 
0.828554 0.96343 0.662677 0.419515 0.361876 
0.024054 0.755952 0.682916 0.0505565 0.306216 
0.643116 0.915229 0.890862 0.941041 0.341068 
0.351667 0.58853 0.925555 0.8569 0.820891 
0.469397 0.303704 0.925465 0.874098 0.553063 
0.614141 0.0645687 0.294825 0.922719 0.169637 
0.272103 0.326906 0.905882 0.713029 0.263369 
0.801819 0.856942 0.733421 0.380164 0.89503 
0.127379 0.297418 0.0697042 0.606963 0.223409 
0.67522 0.438405 0.559352 0.0090866 0.0721011 
0.228798 0.94332 0.78592 0.615666 0.237398 
0.400708 0.883241 0.734993 0.9771 0.309079 
0.807058 0.600106 0.475923 0.246116 0.0142385 
0.718432 0.147224 0.770749 0.26034 0.507953 
0.854919 0.188383 0.21667 0.743168 0.28332 
0.494834 0.905221 0.545187 0.931804 0.87746 
0.240081 0.151052 0.49786 0.637272 0.00061964 
0.120482 0.628808 0.0613801 0.606322 0.577553 
0.301211 0.0641006 0.613387 0.619365 0.945312 
0.396791 0.348988 0.554256 0.601541 0.106532 
0.0960046 0.0475321 0.882874 0.188893 0.0505839 
0.967501 0.557684 0.111289 0.309651 0.316736 
0.265116 0.431643 0.906337 0.988823 0.533437 
0.382707 0.162377 0.543477 0.30554 0.935494 
0.749283 0.435503 0.933398 0.137475 0.106002 
0.118203 0.979399 0.588788 0.821699 0.328506 
0.200883 0.134887 0.967346 0.301508 0.999668 
0.584802 0.0179528 0.143238 0.647105 0.846379 
0.276603 0.491286 0.36249 0.628791 0.536154 
0.737671 0.367711 0.865555 0.35906 0.693248 
0.245715 0.835437 0.421054 0.637842 0.629392 
0.213385 0.348406 0.740038 0.624936 0.0838221 
0.813028 0.886687 0.650235 0.177619 0.397199 
0.914269 0.887567 0.362014 0.621637 0.398468 
0.117694 0.211056 0.331311 0.938161 0.554574 
0.836264 0.0263207 0.506873 0.433116 0.0213021 
0.437716 0.974832 0.563546 0.374871 0.465753 
0.16436 0.806003 0.378836 0.282863 0.936563 
0.662879 0.942146 0.59402 0.156105 0.816133 
0.810936 0.101042 0.69359 0.301686 0.97494 
0.890046 0.240405 0.270728 0.55916 0.859692 
0.727192 0.37721 0.863344 0.957582 0.0448586 
0.470224 0.19499 0.245048 0.755858 0.873378 
0.833266 0.870852 0.447726 0.688528 0.517 
0.0314127 0.1364 0.0401743 0.164692 0.971899 
0.308507 0.281854 0.459356 0.404153 0.71886 
0.967403 0.261244 0.454735 0.61261 0.737793 
0.0110281 0.79568 0.0851797 0.295284 0.497185 
0.329909 0.764961 0.920148 0.726681 0.83901 
0.593616 0.489329 0.655842 0.326412 0.0914036 
0.578077 0.248885 0.2514 0.626133 0.836465 
0.741131 0.641294 0.254954 0.785696 0.996142 
0.929503 0.117114 0.510297 0.959218 0.411027 
0.265511 0.270669 0.884732 0.593951 0.245856 
0.7208 0.795433 0.109118 0.843573 0.294051 
0.0739303 0.182778 0.0784534 0.101791 0.00690112 
0.0689795 0.861794 0.697178 0.595685 0.341379 
0.186539 0.893557 0.0241541 0.8901 0.74309 
0.82153 0.97999 0.741561 0.0174501 0.904265 
0.888099 0.508251 0.415303 0.0443674 0.162726 
0.0306005 0.0251521 0.796492 0.373188 0.637443 
0.890383 0.821532 0.762779 0.86072 0.448108 
0.21602 0.456744 0.229344 0.755752 0.111114 
0.660888 0.528783 0.929849 0.382064 0.212369 
0.281961 0.0367203 0.107689 0.913926 0.892137 
0.63414 0.468015 0.452874 0.455128 0.197861 
0.616632 0.298329 0.704046 0.615701 0.671725 
0.53083 0.101575 0.424766 0.24364 0.20924 
0.230758 0.263339 0.785464 0.345792 0.31039 
0.493378 0.915659 0.147314 0.719429 0.530053 
0.0453066 0.0634738 0.14631 0.921588 0.565822 
0.865804 0.508111 0.0501119 0.906126 0.441666 
0.0950412 0.476377 0.907745 0.896692 0.265677 
0.542731 0.200103 0.926886 0.78963 0.48789 
0.0318198 0.147688 0.0150008 0.970936 0.268675 
0.529565 0.751448 0.155393 0.581533 0.823865 
0.129907 0.266076 0.459174 0.831215 0.631404 
0.47819 0.587957 0.12215 0.841787 0.254104 
0.566629 0.027148 0.93834 0.662268 0.472312 
0.514942 0.7469 0.287436 0.0212121 0.109348 
0.94196 0.200976 0.717917 0.159724 0.381293 
0.925805 0.515833 0.749086 0.668544 0.671861 
0.749919 0.492109 0.454243 0.300086 0.721341 
0.181794 0.070682 0.81473 0.4935 0.2643 
0.541106 0.260019 0.451661 0.375038 0.529919 
