900 5
0.0780289 0.73032 0.304063 0.602034 0.789621 
0.299288 0.885642 0.0833055 0.950899 0.708316 
0.357758 0.185776 0.402478 0.619643 0.532012 
0.487727 0.0187033 0.553948 0.46934 0.171391 
0.194043 0.730131 0.96685 0.120702 0.889832 
0.132577 0.442077 0.877383 0.720447 0.590246 
0.503528 0.87271 0.621929 0.378881 0.643533 
0.532811 0.820471 0.828552 0.39108 0.635048 
0.605252 0.908564 0.190023 0.52049 0.911706 
0.034472 0.987815 0.815948 0.464614 0.210761 
0.493167 0.686285 0.838285 0.878814 0.904384 
0.529687 0.562209 0.922107 0.756246 0.836054 
0.483789 0.0422265 0.481537 0.27419 0.434195 
0.286838 0.148484 0.950134 0.664029 0.474599 
0.414352 0.640425 0.988909 0.502238 0.748214 
0.297447 0.304155 0.244434 0.155712 0.907903 
0.274541 0.0559057 0.262782 0.845513 0.696972 
0.182984 0.806714 0.603056 0.578108 0.833571 
0.65305 0.872242 0.215273 0.191051 0.303088 
0.059595 0.589934 0.378084 0.846597 0.490958 
0.804862 0.151554 0.468438 0.91595 0.711848 
0.176392 0.509282 0.217574 0.178947 0.343907 
0.513157 0.217088 0.491939 0.738828 0.593542 
0.776623 0.483737 0.483607 0.385704 0.278488 
0.754405 0.285728 0.783709 0.56714 0.259501 
0.563981 0.093704 0.547243 0.327079 0.758928 
0.449686 0.335236 0.565428 0.330619 0.35018 
0.971649 0.542429 0.594104 0.0270744 0.445999 
0.255284 0.364031 0.484459 0.97633 0.137779 
0.855515 0.798656 0.450931 0.867169 0.244979 
0.408832 0.767915 0.0843894 0.479324 0.562394 
0.670101 0.238169 0.128159 0.0654658 0.541795 
0.807258 0.779316 0.321285 0.895647 0.708888 
0.361366 0.69107 0.329293 0.975074 0.719038 
0.49087 0.61714 0.398229 0.897391 0.626681 
0.244005 0.927603 0.330008 0.0229483 0.125767 
0.317795 0.859269 0.382583 0.187149 0.00349142 
0.980971 0.680677 0.853423 0.909277 0.16807 
0.16971 0.488043 0.456102 0.943007 0.299446 
0.676543 0.937894 0.239214 0.806988 0.498938 
0.444375 0.521539 0.498441 0.59936 0.960172 
0.403118 0.816005 0.528076 0.0817695 0.42276 
0.687327 0.358257 0.832667 0.307631 0.603643 
0.0409808 0.527774 0.850656 0.8473 0.746158 
0.746392 0.67006 0.154298 0.707041 0.048316 
0.858101 0.769399 0.621518 0.275433 0.389652 
0.994586 0.722228 0.650268 0.353901 0.0223083 
0.02516 0.327863 0.740084 0.398278 0.390596 
0.739649 0.936174 0.364613 0.0840351 0.0965554 
0.397752 0.0291748 0.350672 0.838273 0.848095 
0.257823 0.0649511 0.394579 0.966892 0.510725 
0.633352 0.609187 0.446258 0.840091 0.800095 
0.35653 0.745824 0.988057 0.816814 0.834974 
0.657034 0.698139 0.188296 0.245624 0.542907 
0.692753 0.53013 0.681824 0.36767 0.583412 
0.124771 0.273723 0.955734 0.195743 0.618276 
0.323542 0.172603 0.376168 0.565349 0.0118474 
0.884723 0.337919 0.814714 0.620514 0.279913 
0.106597 0.905231 0.926771 0.832169 0.00793182 
0.42709 0.232986 0.332762 0.311028 0.278382 
0.396289 0.39281 0.829636 0.448556 0.56084 
0.84873 0.301434 0.989024 0.936103 0.130317 
0.522416 0.429669 0.41338 0.400732 0.584147 
0.363244 0.818797 0.049304 0.0584756 0.20734 
0.138648 0.73986 0.901257 0.459007 0.654639 
0.716894 0.718995 0.73332 0.664222 0.959699 
0.786274 0.343313 0.793146 0.0163324 0.525055 
0.797399 0.757627 0.412386 0.545714 0.0209228 
0.918383 0.398102 0.342182 0.898494 0.148763 
0.352389 0.413141 0.156482 0.998252 0.719885 
0.198191 0.610904 0.936132 0.544738 0.0503755 
0.311407 0.249166 0.379815 0.790609 0.399298 
0.527999 0.611906 0.834926 0.955887 0.378008 
0.437196 0.270785 0.620365 0.701483 0.443693 
0.591712 0.498638 0.285862 0.380158 0.38133 
0.222523 0.468907 0.443133 0.632253 0.174195 
0.945846 0.557045 0.414259 0.393578 0.0689643 
0.262492 0.709351 0.291311 0.341425 0.636523 
0.627526 0.74933 0.0894988 0.839901 0.00347912 
0.283305 0.147437 0.298709 0.202292 0.51438 
0.356621 0.213741 0.0439343 0.424046 0.655522 
0.911996 0.846472 0.433007 0.35628 0.551993 
0.825281 0.288239 0.832367 0.608771 0.999623 
0.190267 0.106539 0.249706 0.420203 0.740072 
0.507706 0.877098 0.951892 0.308976 0.436784 
0.393962 0.242936 0.98644 0.366773 0.651886 
0.0613042 0.900981 0.000314177 0.404462 0.263922 
0.654552 0.964412 0.70024 0.957612 0.410797 
0.803477 0.914682 0.507955 0.455358 0.0506667 
0.0148224 0.572778 0.26017 0.740168 0.084016 
0.68722 0.354575 0.381919 0.923176 0.678363 
0.471533 0.278421 0.250211 0.844683 0.682872 
0.580622 0.161113 0.161975 0.790625 0.629132 
0.130406 0.650612 0.448841 0.525018 0.577595 
0.221005 0.187603 0.222962 0.238101 0.060076 
0.805345 0.851681 0.373195 0.90261 0.341609 
0.440854 0.892869 0.604785 0.134241 0.487157 
0.75166 0.348206 0.890106 0.648414 0.706738 
0.867008 0.353602 0.564352 0.856747 0.0242749 
0.823384 0.423229 0.489149 0.658384 0.15402 
0.188131 0.734293 0.846011 0.319789 0.91253 
0.362516 0.336932 0.0155225 0.941068 0.0390439 
0.704087 0.746274 0.202138 0.146613 0.898241 
0.939792 0.315655 0.898976 0.00367491 0.356649 
0.648837 0.523103 0.657491 0.767033 0.157967 
0.921485 0.397926 0.336349 0.33271 0.0656745 
0.0739262 0.500451 0.804685 0.648245 0.825333 
0.800211 0.582666 0.111703 0.847261 0.635151 
0.795136 0.0871297 0.759442 0.310075 0.227649 
0.145265 0.429369 0.52507 0.654179 0.0105212 
0.446047 0.39932 0.903395 0.286184 0.796933 
0.760001 0.260653 0.883343 0.995703 0.0815134 
0.813012 0.274158 0.879149 0.914947 0.482078 
0.695048 0.712211 0.753273 0.41464 0.707722 
0.0836693 0.142246 0.653057 0.355839 0.585155 
0.425778 0.789103 0.613994 0.680703 0.0644176 
0.238798 0.655039 0.230008 0.854736 0.764871 
0.654659 0.082803 0.270354 0.380959 0.0418167 
0.66894 0.815124 0.660362 0.462336 0.724523 
0.362289 0.0888741 0.982609 0.245624 0.887664 
0.987135 0.30296 0.302399 0.774532 0.995502 
0.79039 0.774105 0.666203 0.671709 0.422764 
0.546199 0.253842 0.943647 0.724529 0.520639 
0.282661 0.0729774 0.306732 0.826354 0.112004 
0.614401 0.102669 0.261157 0.351133 0.701618 
0.21015 0.510816 0.839275 0.735882 0.614974 
0.212665 0.145136 0.095862 0.636318 0.52478 
0.363286 0.777241 0.181467 0.652063 0.0012783 
0.964406 0.87944 0.250585 0.133909 0.762415 
0.0105372 0.907002 0.405346 0.44283 0.338362 
0.192251 0.0621457 0.603631 0.590003 0.403176 
0.0263239 0.401187 0.718948 0.692522 0.710405 
0.0112868 0.767236 0.953301 0.00934872 0.445563 
0.366222 0.281269 0.678899 0.521269 0.657907 
0.628305 0.593111 0.0794927 0.743706 0.206087 
0.347596 0.679814 0.483276 0.279767 0.960105 
0.941748 0.298491 0.197336 0.818834 0.865218 
0.325037 0.543406 0.831972 0.0288794 0.425493 
0.41297 0.544997 0.28185 0.424455 0.497778 
0.446579 0.851595 0.0853903 0.696875 0.0221179 
0.31632 0.440442 0.861214 0.926829 0.230596 
0.773922 0.773276 0.957723 0.545744 0.53613 
0.72178 0.161575 0.0600258 0.587974 0.628379 
0.128618 0.548396 0.588422 0.0942427 0.964193 
0.129327 0.205415 0.729634 0.134397 0.0553612 
0.796165 0.122604 0.325094 0.245127 0.166912 
0.346119 0.789144 0.32412 0.31152 0.478924 
0.920422 0.554254 0.717676 0.686716 0.640784 
0.784358 0.511917 0.864319 0.730447 0.871964 
0.466577 0.136643 0.737401 0.257037 0.928218 
0.346881 0.14573 0.0237404 0.450686 0.643852 
0.784476 0.0863055 0.790969 0.965987 0.80646 
0.53229 0.65861 0.496681 0.398626 0.747439 
0.352441 0.107225 0.490076 0.234363 0.269651 
0.309335 0.0628586 0.872808 0.982213 0.0370605 
0.60411 0.526478 0.775333 0.63788 0.922071 
0.442893 0.188728 0.996405 0.613942 0.980871 
0.09725 0.574275 0.00913802 0.247412 0.708771 
0.110652 0.450239 0.546468 0.258052 0.847797 
0.603816 0.367689 0.388543 0.000487754 0.255621 
0.0501234 0.686814 0.0125443 0.686242 0.0818301 
0.339966 0.834081 0.665722 0.772578 0.113098 
0.128599 0.358405 0.692944 0.617141 0.464877 
0.810763 0.887998 0.325861 0.614495 0.0729708 
0.76143 0.00391392 0.478556 0.496782 0.520325 
0.884337 0.736923 0.42483 0.221572 0.108051 
0.340495 0.955644 0.890544 0.501711 0.667075 
0.00504078 0.480885 0.588455 0.582783 0.158842 
0.195508 0.423207 0.652231 0.48604 0.821945 
0.127251 0.779393 0.167099 0.0106414 0.256343 
0.337261 0.529144 0.212832 0.282814 0.670832 
0.0728014 0.466752 0.34884 0.345467 0.673393 
0.395493 0.36077 0.283681 0.113737 0.318258 
0.325808 0.0258525 0.0354624 0.832854 0.123459 
0.353454 0.353867 0.66018 0.517193 0.883351 
0.767115 0.227481 0.50427 0.284159 0.531234 
0.524391 0.00415572 0.969762 0.162641 0.995055 
0.0682226 0.86004 0.851028 0.555772 0.979046 
0.495288 0.374412 0.034253 0.950749 0.162794 
0.183996 0.0252266 0.0711941 0.557738 0.0421231 
0.76038 0.788101 0.413907 0.549521 0.81771 
0.271578 0.893144 0.661807 0.353918 0.302683 
0.450182 0.569926 0.317331 0.0806499 0.990689 
0.231129 0.642545 0.449794 0.241022 0.00593837 
0.521829 0.57645 0.661817 0.770709 0.053039 
0.425687 0.861486 0.0217656 0.586104 0.84045 
0.732217 0.200848 0.946824 0.610058 0.435296 
0.8256 0.52775 0.634151 0.530963 0.888303 
0.54821 0.0741963 0.443135 0.610809 0.456341 
0.783654 0.0551304 0.559405 0.372876 0.255892 
0.994703 0.588448 0.174448 0.379328 0.285179 
0.202076 0.758811 0.0739664 0.0931014 0.0653792 
0.674344 0.237662 0.819218 0.24306 0.835562 
0.392537 0.0567582 0.967363 0.98464 0.0244383 
0.150195 0.763059 0.221452 0.0679839 0.654645 
0.00222348 0.22256 0.0160898 0.0583926 0.190548 
0.758601 0.148731 0.585337 0.819695 0.465346 
0.595566 0.649173 0.0619478 0.671397 0.380231 
0.344553 0.180215 0.785677 0.0234495 0.551845 
0.473605 0.337232 0.341254 0.0148904 0.743676 
0.375963 0.423414 0.000676843 0.750797 0.958843 
0.336717 0.141771 0.227819 0.0697184 0.608977 
0.349288 0.155996 0.140341 0.914121 0.590979 
0.953172 0.758571 0.864136 0.611667 0.52345 
0.790422 0.276053 0.96067 0.592279 0.369518 
0.609102 0.647487 0.435698 0.947184 0.707393 
0.818504 0.440289 0.37092 0.445419 0.583789 
0.119008 0.446436 0.479528 0.188511 0.726846 
0.569623 0.228602 0.868964 0.343976 0.0848356 
0.309375 0.47697 0.222282 0.509664 0.247948 
0.588919 0.361047 0.556856 0.653308 0.347905 
0.148191 0.212915 0.874867 0.266992 0.533006 
0.978819 0.270261 0.041601 0.526493 0.0843946 
0.811073 0.245082 0.578265 0.190549 0.564769 
0.0348503 0.966737 0.938887 0.240444 0.829586 
0.0708105 0.884858 0.82153 0.340531 0.81288 
0.891032 0.439486 0.790109 0.949689 0.801098 
0.941196 0.749667 0.9871 0.320311 0.865957 
0.872706 0.300375 0.646505 0.894707 0.473299 
0.904845 0.387126 0.0816534 0.498315 0.692671 
0.725888 0.733068 0.926564 0.966589 0.658059 
0.948883 0.985265 0.362098 0.244719 0.686657 
0.954641 0.866316 0.729825 0.42926 0.221049 
0.28966 0.875758 0.455987 0.486171 0.754491 
0.278681 0.281649 0.618196 0.809836 0.331169 
0.507773 0.889905 0.186183 0.983084 0.426718 
0.359055 0.737569 0.800238 0.12744 0.989164 
0.480535 0.640424 0.221492 0.765091 0.541235 
0.506765 0.142282 0.76559 0.166373 0.246966 
0.0107154 0.329302 0.403878 0.180575 0.85491 
0.0351398 0.911385 0.127545 0.717632 0.631744 
0.734723 0.387125 0.112263 0.6819 0.766807 
0.304889 0.0444651 0.852487 0.995255 0.600772 
0.782106 0.473083 0.743761 0.369446 0.921173 
0.980321 0.863245 0.905891 0.780151 0.691281 
0.687016 0.910966 0.0736366 0.816945 0.834248 
0.625622 0.269592 0.848224 0.9912 0.897176 
0.64893 0.801711 0.0525845 0.330399 0.444493 
0.33168 0.0593245 0.275629 0.420601 0.0281568 
0.350203 0.740639 0.442765 0.373368 0.81257 
0.613616 0.965349 0.886616 0.424409 0.896052 
0.760572 0.691024 0.831941 0.611102 0.543516 
0.796989 0.696757 0.789813 0.288482 0.588551 
0.688034 0.585057 0.73541 0.302337 0.613908 
0.730151 0.913502 0.151845 0.8574 0.488942 
0.201848 0.68074 0.411924 0.883146 0.377955 
0.596511 0.954105 0.0512676 0.132334 0.27106 
0.890375 0.336054 0.431658 0.700397 0.778998 
0.72611 0.125532 0.0788216 0.739482 0.0550432 
0.389677 0.62147 0.642933 0.711805 0.57625 
0.629867 0.314427 0.20342 0.129341 0.20461 
0.38654 0.0462748 0.176207 0.434686 0.859657 
0.331945 0.659654 0.268077 0.445193 0.188998 
0.58206 0.670527 0.716735 0.276246 0.562843 
0.514198 0.343392 0.0980585 0.793558 0.450586 
0.485937 0.919401 0.719815 0.683257 0.585108 
0.450198 0.375908 0.899273 0.337992 0.00644091 
0.515844 0.662475 0.848171 0.0905031 0.916563 
0.457279 0.67005 0.87913 0.836398 0.82292 
0.132068 0.813577 0.823415 0.247199 0.808089 
0.240051 0.697596 0.593137 0.202942 0.419865 
0.341094 0.386655 0.43606 0.822295 0.626875 
0.313305 0.955099 0.618159 0.857821 0.0994611 
0.755285 0.0644682 0.106901 0.479413 0.957146 
0.324257 0.502141 0.787992 0.0721879 0.289281 
0.88582 0.0270108 0.387599 0.607155 0.688627 
0.821879 0.268773 0.545313 0.492834 0.852722 
0.354688 0.205992 0.50564 0.705314 0.091962 
0.0947535 0.482753 0.546362 0.641652 0.132333 
0.295646 0.15469 0.57458 0.721646 0.35368 
0.889824 0.938346 0.282058 0.738981 0.239367 
0.0120785 0.642214 0.715462 0.674393 0.477297 
0.11765 0.760031 0.956134 0.211724 0.403397 
0.366715 0.979842 0.26023 0.369841 0.92177 
0.859986 0.811799 0.107302 0.468433 0.582014 
0.513404 0.87025 0.226563 0.811287 0.126061 
0.561212 0.570443 0.907103 0.0993082 0.368187 
0.902266 0.342729 0.570459 0.704385 0.661489 
0.629469 0.7106 0.562468 0.704294 0.785744 
0.233663 0.717585 0.480946 0.498964 0.0320631 
0.0145626 0.542322 0.188558 0.105536 0.209031 
0.544502 0.0573422 0.00384263 0.356691 0.234416 
0.275544 0.571714 0.369722 0.50992 0.808245 
0.127228 0.33126 0.197276 0.72726 0.351534 
0.823909 0.62023 0.208472 0.854817 0.349481 
0.764288 0.854037 0.288435 0.530964 0.0967148 
0.323833 0.274097 0.248075 0.254351 0.196124 
0.949686 0.311234 0.999431 0.50241 0.349742 
0.649035 0.208649 0.744029 0.895523 0.733413 
0.995875 0.746473 0.333859 0.5877 0.970584 
0.238909 0.828172 0.761908 0.287345 0.62743 
0.849028 0.404022 0.432293 0.526491 0.165548 
0.747408 0.783177 0.934745 0.946117 0.877981 
0.263488 0.779636 0.575091 0.618797 0.867047 
0.809915 0.0811129 0.138751 0.812555 0.745761 
0.945847 0.820504 0.959016 0.236874 0.316941 
0.298918 0.256484 0.393151 0.953992 0.174803 
0.272833 0.809326 0.439834 0.0622938 0.12551 
0.307849 0.791339 0.134865 0.125735 0.93124 
0.714547 0.444824 0.21986 0.391833 0.263566 
0.0474295 0.953946 0.219451 0.209539 0.304851 
0.421785 0.0347279 0.536376 0.942256 0.481596 
0.37346 0.0196968 0.843104 0.747287 0.00268979 
0.947402 0.0560079 0.0575379 0.295865 0.700289 
0.145403 0.510811 0.468263 0.0520741 0.844683 
0.997325 0.073243 0.759358 0.463135 0.244937 
0.961552 0.445875 0.104661 0.580212 0.255724 
0.0569869 0.115956 0.197503 0.0800251 0.759194 
0.480018 0.576429 0.12725 0.404378 0.22884 
0.200534 0.459986 0.441468 0.608104 0.145194 
0.69507 0.365275 0.0604633 0.278592 0.938075 
0.640249 0.763332 0.960298 0.332561 0.431955 
0.882347 0.966204 0.590912 0.906259 0.799358 
0.474732 0.277461 0.07722 0.622835 0.678655 
0.244899 0.354377 0.636566 0.490038 0.794118 
0.887159 0.31652 0.0837379 0.738529 0.92032 
0.592224 0.126742 0.282382 0.912325 0.57029 
0.586276 0.824681 0.641192 0.943992 0.813672 
0.231821 0.647822 0.109924 0.705955 0.924946 
0.622067 0.730235 0.393301 0.208664 0.690819 
0.760846 0.84219 0.642342 0.123668 0.618101 
0.869948 0.474059 0.666907 0.294715 0.910176 
0.986344 0.909465 0.514344 0.11098 0.971683 
0.97418 0.078331 0.399642 0.0348367 0.0787265 
0.557109 0.220704 0.0129994 0.686946 0.626721 
0.259458 0.490627 0.0412624 0.201858 0.215654 
0.096931 0.167256 0.00716085 0.648204 0.487226 
0.0563768 0.887779 0.201886 0.0388526 0.247184 
0.26181 0.0456367 0.0644366 0.858728 0.0820494 
0.723018 0.816969 0.114688 0.993746 0.748871 
0.206876 0.75428 0.410216 0.140615 0.170907 
0.467989 0.771601 0.70427 0.609658 0.7874 
0.0650743 0.267593 0.432958 0.226095 0.352217 
0.802249 0.755279 0.363105 0.267705 0.63315 
0.190855 0.0834733 0.392854 0.633447 0.644487 
0.824068 0.647273 0.0217721 0.920569 0.344913 
0.322235 0.78226 0.853816 0.994144 0.683689 
0.79771 0.846706 0.149062 0.346954 0.266795 
0.816176 0.148852 0.685774 0.862375 0.38889 
0.780439 0.108918 0.778553 0.253433 0.987473 
0.509475 0.323556 0.940639 0.602661 0.853092 
0.537736 0.486334 0.438744 0.297047 0.463242 
0.490578 0.0630164 0.142533 0.166296 0.605664 
0.450526 0.12986 0.133361 0.804758 0.28683 
0.00806699 0.925168 0.363813 0.609695 0.301074 
0.702626 0.603866 0.93911 0.665785 0.210151 
0.105425 0.225508 0.723161 0.499977 0.298401 
0.520185 0.896986 0.716683 0.328706 0.427688 
0.493968 0.116969 0.271154 0.977403 0.187593 
0.650592 0.315556 0.161663 0.74949 0.649284 
0.384156 0.547926 0.650352 0.403397 0.41556 
0.556274 0.871199 0.115434 0.191384 0.999426 
0.426853 0.738386 0.562539 0.571551 0.692327 
0.844254 0.727841 0.619904 0.860474 0.275691 
0.908421 0.853583 0.668145 0.33807 0.305862 
0.898615 0.308258 0.435823 0.970144 0.159244 
0.300916 0.723292 0.174118 0.549217 0.998738 
0.411474 0.145783 0.149905 0.210733 0.521957 
0.38433 0.0867471 0.246028 0.127871 0.714893 
0.0348528 0.218369 0.705532 0.713352 0.720097 
0.0122962 0.401764 0.0319383 0.0809023 0.91729 
0.990203 0.492431 0.302093 0.975507 0.681747 
0.750456 0.795968 0.343461 0.738846 0.939514 
0.320826 0.676949 0.712458 0.337375 0.423762 
0.126507 0.843203 0.0757799 0.741182 0.984999 
0.459917 0.646599 0.606678 0.906339 0.612128 
0.339248 0.275555 0.359729 0.608342 0.501232 
0.31132 0.0702715 0.110594 0.130202 0.85444 
0.00256409 0.913728 0.920556 0.959326 0.367416 
0.52169 0.373295 0.452035 0.263348 0.648512 
0.0395773 0.419813 0.709349 0.875074 0.833882 
0.293843 0.840912 0.807896 0.81883 0.892507 
0.184854 0.36144 0.705522 0.64733 0.0571593 
0.365087 0.0541195 0.793805 0.181936 0.526236 
0.908834 0.930907 0.820475 0.790662 0.94016 
0.233328 0.0517985 0.196306 0.81658 0.57743 
0.499496 0.898457 0.350859 0.65911 0.705853 
0.307516 0.438765 0.846788 0.335076 0.753674 
0.18915 0.0131362 0.701995 0.42779 0.787574 
0.494558 0.304795 0.979354 0.526038 0.27026 
0.498281 0.386373 0.796599 0.554027 0.130539 
0.920297 0.20641 0.0663285 0.942318 0.702 
0.998658 0.818352 0.858415 0.234147 0.990865 
0.450134 0.115192 0.0696367 0.840837 0.590752 
0.189387 0.983978 0.609172 0.526956 0.979565 
0.6235 0.693373 0.525351 0.605222 0.63707 
0.443465 0.273416 0.27797 0.955856 0.0885904 
0.758711 0.739761 0.959506 0.81597 0.924524 
0.224902 0.57346 0.196798 0.899817 0.829739 
0.320089 0.526758 0.424007 0.131645 0.224244 
0.23849 0.177138 0.724409 0.396056 0.0890717 
0.672791 0.781204 0.77744 0.83957 0.210195 
0.707693 0.438979 0.477353 0.875229 0.628097 
0.706275 0.407451 0.842281 0.0831547 0.397288 
0.908645 0.747777 0.368072 0.0508173 0.111167 
0.239053 0.753474 0.544757 0.389586 0.375204 
0.184813 0.496479 0.147477 0.868293 0.307828 
0.448964 0.766017 0.506077 0.29311 0.550792 
0.204882 0.328972 0.273673 0.0956674 0.901998 
0.78571 0.806528 0.663292 0.467553 0.416155 
0.337797 0.982982 0.807353 0.526193 0.819342 
0.362322 0.75625 0.502429 0.572366 0.565974 
0.469047 0.842402 0.89286 0.862725 0.496613 
0.195166 0.0890346 0.000554059 0.707587 0.967139 
0.442465 0.523769 0.691225 0.960631 0.347384 
0.966906 0.464911 0.245615 0.234094 0.228164 
0.781457 0.561445 0.113356 0.824052 0.293381 
0.3642 0.398888 0.445581 0.396717 0.190595 
0.234676 0.14237 0.143786 0.901633 0.908186 
0.863728 0.672304 0.324344 0.465183 0.486764 
0.0576069 0.256749 0.337183 0.81311 0.228754 
0.460683 0.777091 0.335006 0.0657145 0.566109 
0.26299 0.792971 0.00164523 0.992103 0.685376 
0.642253 0.62177 0.508157 0.575283 0.666389 
0.0246945 0.994784 0.0357108 0.177292 0.110017 
0.258435 0.601436 0.934964 0.00266111 0.829712 
0.142961 0.621098 0.489495 0.877329 0.491202 
0.568962 0.959552 0.508292 0.422507 0.494384 
0.238938 0.616734 0.732888 0.659101 0.249868 
0.82258 0.178375 0.655785 0.172819 0.776449 
0.298289 0.794662 0.66644 0.240259 0.260352 
0.855693 0.615594 0.901247 0.176589 0.111255 
0.585435 0.458861 0.586811 0.544182 0.600183 
0.553289 0.0256255 0.0784071 0.535116 0.280371 
0.0522239 0.334442 0.653021 0.463162 0.927247 
0.525875 0.907787 0.458845 0.582336 0.690834 
0.289459 0.997672 0.330414 0.917116 0.591776 
0.333366 0.142109 0.0944133 0.60979 0.524786 
0.63591 0.509627 0.14703 0.382712 0.932262 
0.99144 0.36825 0.196146 0.460952 0.378514 
0.867112 0.839497 0.227709 0.85847 0.853814 
0.325564 0.182206 0.118498 0.11096 0.199407 
0.318965 0.137409 0.502252 0.93598 0.108817 
0.468537 0.575836 0.918545 0.249208 0.110938 
0.2726 0.466004 0.649925 0.427053 0.209333 
0.471352 0.323653 0.989166 0.153308 0.0310002 
0.838681 0.0157564 0.10515 0.773048 0.518987 
0.871567 0.256122 0.125998 0.271946 0.0694189 
0.883861 0.137704 0.156312 0.863666 0.50466 
0.529684 0.939473 0.115978 0.285904 0.787533 
0.157932 0.723146 0.51847 0.769068 0.00425348 
0.552399 0.959445 0.145272 0.900122 0.943858 
0.746836 0.0782016 0.973905 0.321322 0.875339 
0.86685 0.913401 0.367974 0.856165 0.117798 
0.505167 0.858007 0.777006 0.908068 0.791523 
0.370575 0.340156 0.759595 0.788262 0.79331 
0.707035 0.155311 0.403452 0.497825 0.160602 
0.262786 0.520152 0.000743625 0.939713 0.534692 
0.478028 0.63114 0.875486 0.728766 0.161626 
0.469181 0.479457 0.866802 0.196551 0.464561 
0.809031 0.972922 0.871323 0.933949 0.272211 
0.444753 0.259016 0.887722 0.837989 0.985174 
0.809025 0.102967 0.276752 0.190216 0.0410452 
0.243966 0.391201 0.28456 0.0020472 0.568912 
0.807166 0.747756 0.286733 0.074514 0.10143 
0.0630743 0.217091 0.222742 0.373429 0.790224 
0.976749 0.911176 0.416864 0.142748 0.852958 
0.308429 0.326027 0.135611 0.398855 0.097953 
0.0495886 0.647603 0.815306 0.736758 0.967269 
0.347704 0.0986812 0.705105 0.710235 0.0240432 
0.7137 0.583247 0.0975358 0.362739 0.379428 
0.443899 0.319718 0.713419 0.532931 0.551912 
0.80107 0.560971 0.48761 0.564011 0.969485 
0.571383 0.689738 0.0335047 0.712271 0.988561 
0.482695 0.314566 0.508921 0.464245 0.306398 
0.124721 0.463383 0.696454 0.550407 0.682812 
0.119041 0.0909444 0.340364 0.734061 0.548883 
0.350315 0.210822 0.0096067 0.530322 0.71206 
0.931948 0.699192 0.704001 0.498502 0.591403 
0.977468 0.807081 0.520525 0.973044 0.777848 
0.518568 0.34646 0.85103 0.477263 0.0840082 
0.149576 0.489165 0.504532 0.256664 0.375075 
0.113666 0.816879 0.521548 0.175466 0.991904 
0.268105 0.537895 0.685201 0.161576 0.500069 
0.336427 0.570012 0.541824 0.722594 0.354626 
0.629663 0.217095 0.512067 0.688648 0.184202 
0.731066 0.728736 0.999371 0.613723 0.11937 
0.570612 0.224405 0.654141 0.668912 0.706672 
0.430482 0.329154 0.921094 0.992738 0.127849 
0.092903 0.573649 0.607842 0.698194 0.00990473 
0.268373 0.0945257 0.0791855 0.0277265 0.149855 
0.394122 0.276009 0.912416 0.139554 0.889651 
0.710211 0.664355 0.337442 0.395221 0.594117 
0.26563 0.500459 0.442636 0.535059 0.227448 
0.190783 0.235632 0.222083 0.485119 0.151755 
0.0462771 0.417365 0.462896 0.902839 0.879057 
0.949892 0.684004 0.384329 0.506345 0.327013 
0.408639 0.244804 0.976695 0.154796 0.144468 
0.657359 0.303822 0.179622 0.844858 0.056417 
0.682206 0.105905 0.267621 0.521634 0.934602 
0.77402 0.413568 0.461571 0.701991 0.620327 
0.607476 0.361748 0.772063 0.691527 0.443374 
0.31707 0.484468 0.596019 0.831058 0.668279 
0.479275 0.812321 0.757177 0.725604 0.92347 
0.137134 0.384615 0.139928 0.539863 0.648087 
0.11131 0.751781 0.174658 0.242036 0.00579316 
0.838999 0.999432 0.7205 0.0165771 0.464098 
0.526781 0.666993 0.312339 0.578352 0.241231 
0.761112 0.66142 0.992935 0.762109 0.704562 
0.0695011 0.612175 0.0141643 0.267301 0.844727 
0.073437 0.190004 0.868 0.8239 0.877587 
0.0447867 0.961068 0.117935 0.268405 0.344314 
0.385256 0.587045 0.525127 0.640675 0.272245 
0.961046 0.249085 0.102414 0.789144 0.793563 
0.535156 0.648356 0.28059 0.254408 0.814812 
0.529748 0.757407 0.00295397 0.0268197 0.873272 
0.515857 0.789165 0.873606 0.88869 0.319366 
0.673514 0.382338 0.752333 0.801379 0.353428 
0.191618 0.305517 0.992609 0.617166 0.828393 
0.913122 0.891673 0.955069 0.518077 0.636507 
0.592208 0.945989 0.796719 0.34357 0.502499 
0.108633 0.113697 0.250215 0.472581 0.25579 
0.949344 0.380252 0.365656 0.468374 0.467607 
0.196763 0.823704 0.37342 0.785392 0.273246 
0.80431 0.0598034 0.51783 0.88371 0.627748 
0.949497 0.942687 0.701673 0.45057 0.158991 
0.202417 0.540965 0.13572 0.692174 0.255236 
0.500518 0.587869 0.929396 0.157052 0.127834 
0.59306 0.223209 0.384699 0.984578 0.0366049 
0.388907 0.569493 0.432558 0.177786 0.32143 
0.36992 0.524624 0.349371 0.663342 0.687375 
0.277779 0.362029 0.608136 0.129979 0.559493 
0.551612 0.331377 0.176425 0.63703 0.831828 
0.333023 0.769586 0.632132 0.435358 0.173958 
0.905469 0.257387 0.282325 0.888463 0.587852 
0.496587 0.713586 0.495846 0.532153 0.417758 
0.207978 0.767878 0.414052 0.336826 0.981341 
0.0585406 0.177593 0.327848 0.553313 0.680452 
0.740079 0.74917 0.768359 0.263751 0.917035 
0.985087 0.521375 0.715695 0.240773 0.107528 
0.480677 0.306925 0.432714 0.880901 0.934411 
0.101065 0.612156 0.570459 0.352935 0.299449 
0.929503 0.826821 0.965103 0.501117 0.916949 
0.749655 0.113073 0.87291 0.581325 0.766904 
0.468684 0.265061 0.847068 0.0946054 0.406721 
0.978488 0.319623 0.4327 0.271741 0.819402 
0.774803 0.575189 0.790225 0.927579 0.270708 
0.84195 0.0237267 0.862379 0.40945 0.923709 
0.581174 0.208692 0.723873 0.537409 0.778473 
0.139526 0.11708 0.478542 0.118241 0.0405411 
0.131705 0.82248 0.533003 0.554007 0.162355 
0.461306 0.972144 0.424003 0.187307 0.260651 
0.246723 0.545047 0.313525 0.350363 0.27356 
0.23555 0.0161285 0.524474 0.588122 0.394797 
0.198392 0.41207 0.632976 0.712428 0.542829 
0.722871 0.935855 0.332212 0.133037 0.621409 
0.399268 0.501429 0.707753 0.791485 0.814222 
0.977188 0.707443 0.972538 0.225433 0.824408 
0.522183 0.860011 0.596605 0.0591618 0.836619 
0.0303833 0.117011 0.305064 0.578516 0.0380562 
0.227179 0.111488 0.665949 0.164008 0.297865 
0.791135 0.35299 0.222544 0.0121284 0.755897 
0.960464 0.109164 0.741759 0.954922 0.577917 
0.0251157 0.450474 0.330875 0.0513731 0.935042 
0.369248 0.600092 0.0627439 0.195452 0.987353 
0.604061 0.60127 0.951993 0.766157 0.622747 
0.96662 0.0315467 0.28219 0.677526 0.0720955 
0.405886 0.114047 0.339853 0.708241 0.756075 
0.979014 0.477963 0.507601 0.165267 0.152194 
0.0864642 0.382551 0.456651 0.27315 0.943714 
0.78793 0.0167081 0.58277 0.763089 0.245991 
0.626933 0.766614 0.342677 0.143734 0.761649 
0.302566 0.74143 0.663437 0.516609 0.238254 
0.151753 0.241938 0.96887 0.0627963 0.660915 
0.332909 0.806931 0.287553 0.537709 0.778716 
0.801822 0.521053 0.96045 0.158476 0.598187 
0.10371 0.951001 0.0270679 0.0439124 0.466677 
0.639616 0.967932 0.269471 0.701154 0.0908597 
0.250885 0.15618 0.125057 0.221189 0.660273 
0.622042 0.405987 0.288416 0.0394622 0.408931 
0.303864 0.62227 0.354574 0.941377 0.183846 
0.779633 0.647378 0.193074 0.529115 0.437537 
0.974617 0.335782 0.56793 0.674512 0.96231 
0.504567 0.27576 0.100813 0.484202 0.336512 
0.396119 0.52498 0.0670746 0.452135 0.956559 
0.938826 0.973959 0.45295 0.191685 0.894469 
0.186542 0.288059 0.906015 0.552586 0.405491 
0.619474 0.0374346 0.655957 0.12021 0.808468 
0.7314 0.477825 0.42193 0.316094 0.650783 
0.507807 0.161861 0.775361 0.624726 0.5479 
0.641573 0.445493 0.782099 0.914511 0.818377 
0.480437 0.103117 0.603643 0.464195 0.184198 
0.732652 0.233903 0.906697 0.109925 0.659445 
0.228283 0.0617045 0.712776 0.12282 0.673506 
0.490919 0.040544 0.195106 0.92201 0.16164 
0.31278 0.329426 0.983869 0.975133 0.314532 
0.821137 0.830227 0.125453 0.462054 0.683298 
0.139894 0.968257 0.827661 0.831302 0.875842 
0.0531201 0.272861 0.98824 0.90327 0.974448 
0.612722 0.992008 0.235147 0.259782 0.955077 
0.324203 0.217463 0.626697 0.158578 0.0147868 
0.272216 0.190865 0.436585 0.158392 0.620642 
0.244481 0.50923 0.963958 0.549724 0.744212 
0.0110813 0.843679 0.36084 0.216458 0.97459 
0.741926 0.774191 0.321502 0.667949 0.840945 
0.308684 0.112831 0.593232 0.412901 0.786863 
0.545376 0.674505 0.491124 0.137869 0.535078 
0.140073 0.617282 0.454507 0.142731 0.339181 
0.401419 0.342445 0.692878 0.764434 0.293173 
0.65123 0.53782 0.107169 0.15214 0.91896 
0.701859 0.484326 0.745428 0.163848 0.706102 
0.147222 0.275636 0.496159 0.0773591 0.768888 
0.0982453 0.901997 0.871792 0.016501 0.898955 
0.432206 0.65784 0.145743 0.269178 0.571236 
0.786175 0.208227 0.196412 0.241488 0.359633 
0.156735 0.637019 0.270484 0.316806 0.763434 
0.157169 0.406162 0.559966 0.485851 0.856736 
0.360819 0.428705 0.416851 0.629239 0.464849 
0.41897 0.981746 0.994053 0.0393714 0.284584 
0.522671 0.349633 0.254461 0.614189 0.674972 
0.211562 0.886386 0.478907 0.697261 0.0721796 
0.241217 0.886122 0.402197 0.307558 0.421436 
0.0402167 0.21555 0.513892 0.161182 0.0358508 
0.383539 0.311446 0.418204 0.636377 0.0520903 
0.150069 0.461863 0.879298 0.947974 0.738506 
0.88606 0.354463 0.175532 0.394483 0.585312 
0.466618 0.0908118 0.667869 0.43662 0.701476 
0.165131 0.463134 0.622031 0.618576 0.271187 
0.30572 0.243042 0.672054 0.54131 0.713987 
0.779137 0.37855 0.690794 0.854446 0.0727796 
0.742606 0.246275 0.624177 0.0283793 0.370566 
0.523995 0.555847 0.429072 0.194389 0.352958 
0.94067 0.338499 0.489986 0.417264 0.226788 
0.088466 0.377543 0.0677139 0.106399 0.0271229 
0.464456 0.810152 0.0642398 0.869735 0.601892 
0.188342 0.183163 0.21788 0.523947 0.569581 
0.762273 0.974032 0.210661 0.330196 0.616871 
0.437943 0.100072 0.513606 0.905505 0.673833 
0.557836 0.233366 0.611181 0.421415 0.47359 
0.102428 0.365875 0.974327 0.548848 0.127432 
0.556197 0.531282 0.427428 0.219886 0.390187 
0.460321 0.54561 0.62537 0.318127 0.253594 
0.0325526 0.669463 0.838866 0.304641 0.0908964 
0.652532 0.984402 0.194984 0.812539 0.970763 
0.804587 0.415877 0.708905 0.676572 0.895907 
0.344623 0.204511 0.531386 0.364531 0.234288 
0.736183 0.382612 0.357207 0.209196 0.329297 
0.575138 0.843473 0.458836 0.0354175 0.575293 
0.898937 0.535804 0.939717 0.462664 0.858709 
0.284076 0.793092 0.200221 0.537067 0.482067 
0.979981 0.905752 0.667961 0.680012 0.415666 
0.509645 0.74899 0.409539 0.699028 0.882356 
0.562104 0.906845 0.218406 0.810762 0.512343 
0.0730659 0.0471973 0.819072 0.483558 0.653414 
0.0240304 0.438652 0.995633 0.592197 0.428315 
0.22433 0.465439 0.325566 0.0695253 0.662367 
0.533542 0.171955 0.116854 0.329465 0.725646 
0.536339 0.47444 0.462771 0.0520033 0.227235 
0.197795 0.129664 0.294302 0.22003 0.947351 
0.618999 0.93205 0.919991 0.463261 0.676365 
0.999103 0.973894 0.738846 0.657035 0.92781 
0.197498 0.226563 0.969868 0.970709 0.741329 
0.478592 0.833018 0.26601 0.808319 0.612483 
0.692174 0.863528 0.106694 0.0051719 0.416957 
0.975277 0.0313091 0.132531 0.360228 0.852425 
0.59767 0.536976 0.368799 0.427629 0.245036 
0.295138 0.665742 0.136643 0.524087 0.680815 
0.108563 0.387962 0.92363 0.572574 0.591911 
0.701504 0.71531 0.498858 0.727557 0.656182 
0.905004 0.0299358 0.428322 0.45663 0.175857 
0.97172 0.72477 0.128352 0.358783 0.32464 
0.181825 0.275627 0.907718 0.842236 0.691526 
0.202498 0.977029 0.415036 0.214067 0.756322 
0.195568 0.70763 0.977094 0.0634581 0.763032 
0.4265 0.750505 0.358965 0.272433 0.654597 
0.883947 0.254089 0.168012 0.933373 0.503492 
0.995212 0.439304 0.927201 0.815185 0.541471 
0.23236 0.599564 0.0659261 0.199516 0.160677 
0.434558 0.652766 0.650647 0.662319 0.824388 
0.894934 0.385414 0.679154 0.686891 0.628955 
0.158935 0.0237398 0.52135 0.969657 0.452753 
0.18134 0.0912286 0.95383 0.747749 0.662187 
0.0789323 0.586118 0.604675 0.214003 0.890935 
0.81182 0.414683 0.096859 0.479793 0.171756 
0.126792 0.592302 0.40869 0.405428 0.717745 
0.580314 0.792738 0.846815 0.893954 0.936247 
0.682451 0.90384 0.763014 0.0359345 0.781294 
0.282604 0.658338 0.124855 0.686764 0.0585523 
0.866624 0.61415 0.324011 0.0549261 0.335168 
0.23872 0.390177 0.865394 0.671343 0.194624 
0.33473 0.399249 0.871545 0.114542 0.0328076 
0.220472 0.852191 0.870911 0.221478 0.300227 
0.505124 0.658797 0.429347 0.598227 0.894753 
0.700858 0.210303 0.211809 0.669481 0.868941 
0.384024 0.579611 0.567868 0.349344 0.749369 
0.0802695 0.518926 0.494052 0.0133024 0.227417 
0.338402 0.51434 0.0849122 0.334993 0.59877 
0.604311 0.727421 0.917334 0.490024 0.298379 
0.137388 0.426634 0.683582 0.127959 0.138795 
0.740854 0.384384 0.0835367 0.814556 0.261079 
0.808862 0.172767 0.298924 0.839473 0.758461 
0.851551 0.172172 0.92065 0.50346 0.233195 
0.0387884 0.272192 0.972748 0.505023 0.661416 
0.00131957 0.737088 0.76945 0.0896486 0.176466 
0.981235 0.728986 0.606466 0.285908 0.129707 
0.638433 0.569947 0.533979 0.996907 0.612241 
0.65359 0.573233 0.988446 0.903049 0.22471 
0.946562 0.850448 0.755577 0.254084 0.613491 
0.612453 0.534582 0.531222 0.123082 0.717978 
0.733536 0.564339 0.0274204 0.0994509 0.768355 
0.445084 0.379218 0.30123 0.764633 0.578482 
0.220374 0.238567 0.728352 0.157831 0.29905 
0.580382 0.374164 0.491289 0.167872 0.0189876 
0.898004 0.191496 0.662471 0.0086601 0.777731 
0.057675 0.615338 0.524983 0.453549 0.931466 
0.481392 0.375239 0.419061 0.459134 0.47091 
0.823754 0.271092 0.164813 0.853685 0.0270328 
0.410972 0.658166 0.457214 0.457917 0.228775 
0.113518 0.0927199 0.662519 0.0605761 0.117821 
0.683994 0.586646 0.473389 0.13938 0.797557 
0.993952 0.155813 0.502508 0.702199 0.648735 
0.266099 0.379215 0.0449012 0.977331 0.165184 
0.828279 0.406521 0.679806 0.311506 0.874819 
0.767769 0.908982 0.810755 0.993854 0.307951 
0.250179 0.943433 0.0345647 0.285935 0.267358 
0.668607 0.690282 0.0755522 0.258257 0.473044 
0.058137 0.498577 0.0798647 0.152883 0.594678 
0.744882 0.974364 0.755615 0.596646 0.926403 
0.712585 0.0251247 0.0402206 0.559837 0.872309 
0.177065 0.773208 0.0968892 0.963891 0.580658 
0.0546215 0.72065 0.713513 0.317082 0.462019 
0.694912 0.09192 0.935438 0.952475 0.554885 
0.347667 0.215399 0.0157437 0.722036 0.0700652 
0.625691 0.933568 0.62598 0.393316 0.529072 
0.0125076 0.0668753 0.0963239 0.00714884 0.371359 
0.927444 0.25053 0.882067 0.253962 0.65144 
0.426289 0.575944 0.177238 0.316893 0.553936 
0.412399 0.807557 0.11773 0.0269335 0.439525 
0.618636 0.723631 0.438106 0.236998 0.0478111 
0.976404 0.992248 0.039471 0.80128 0.33795 
0.461297 0.979297 0.396726 0.553186 0.88572 
0.0796763 0.446618 0.491679 0.675673 0.660558 
0.0373381 0.763696 0.125796 0.371096 0.998085 
0.608003 0.884265 0.217476 0.592809 0.170668 
0.860208 0.740215 0.843406 0.583917 0.156024 
0.470747 0.242954 0.241012 0.6685 0.452376 
0.619171 0.954617 0.498628 0.556071 0.626468 
0.204763 0.699475 0.230502 0.0454983 0.951545 
0.119359 0.780105 0.498165 0.270288 0.522213 
0.331644 0.735736 0.117423 0.781748 0.604032 
0.136999 0.387871 0.205401 0.406828 0.358311 
0.969883 0.25585 0.617067 0.204705 0.516787 
0.185502 0.778175 0.180805 0.592774 0.903707 
0.246638 0.996282 0.928636 0.80598 0.195003 
0.0522422 0.084003 0.4687 0.902448 0.834333 
0.255563 0.0572621 0.210394 0.510649 0.572817 
0.238617 0.349518 0.611828 0.989841 0.785121 
0.904396 0.541387 0.51907 0.762159 0.596678 
0.520527 0.12881 0.777019 0.443647 0.72314 
0.0677039 0.2621 0.288611 0.506997 0.210878 
0.792258 0.658097 0.888248 0.317095 0.35491 
0.110595 0.661824 0.505899 0.816371 0.129447 
0.409276 0.309785 0.980145 0.930624 0.742385 
0.175321 0.408372 0.636749 0.0407653 0.515253 
0.367993 0.677334 0.693758 0.41685 0.989207 
0.394844 0.64213 0.230984 0.855195 0.662553 
0.333472 0.764481 0.486883 0.121653 0.465685 
0.422795 0.949643 0.018227 0.732027 0.429036 
0.982564 0.169822 0.56959 0.04137 0.885295 
0.987154 0.90636 0.435656 0.256022 0.732982 
0.36903 0.943319 0.656595 0.311865 0.0245861 
0.0633751 0.487473 0.0882665 0.50715 0.770917 
0.742408 0.89169 0.658102 0.620413 0.927504 
0.373061 0.992995 0.245035 0.620047 0.281765 
0.628252 0.422093 0.867772 0.167764 0.462074 
0.28578 0.0425174 0.310614 0.966516 0.747645 
0.772809 0.695642 0.572265 0.34599 0.156284 
0.943935 0.00574641 0.859973 0.682399 0.535101 
0.31188 0.301468 0.679907 0.341374 0.268942 
0.548113 0.88752 0.454158 0.954138 0.865168 
0.613472 0.92964 0.911882 0.278819 0.609972 
0.197485 0.207662 0.143672 0.0620791 0.777285 
0.0641782 0.084362 0.565373 0.160699 0.0637206 
0.426068 0.99322 0.206795 0.546186 0.779727 
0.636726 0.411226 0.440807 0.201883 0.613963 
0.794427 0.0169651 0.469687 0.0808658 0.621654 
0.74238 0.484264 0.121178 0.527507 0.423146 
0.176659 0.587938 0.103063 0.0415602 0.970373 
0.662784 0.146472 0.577251 0.4822 0.382022 
0.877882 0.673279 0.384472 0.294394 0.215566 
0.121755 0.979328 0.0112762 0.410963 0.452552 
0.87343 0.135965 0.948922 0.0200389 0.297314 
0.138471 0.118505 0.199322 0.529815 0.844096 
0.591895 0.959143 0.263878 0.765335 0.711828 
0.262321 0.285288 0.155209 0.392466 0.559889 
0.173232 0.559235 0.0877789 0.0358236 0.712758 
0.705724 0.0304809 0.344651 0.314462 0.166246 
0.237518 0.647227 0.189667 0.560819 0.834573 
0.0371793 0.681213 0.201057 0.342986 0.876957 
0.875213 0.637833 0.197072 0.139048 0.511187 
0.603045 0.266695 0.162044 0.692136 0.786391 
0.882052 0.916295 0.984258 0.344288 0.0291006 
0.678728 0.2218 0.155134 0.0229296 0.599151 
0.561872 0.429354 0.766615 0.129447 0.459771 
0.643073 0.832404 0.10249 0.892588 0.863867 
0.197336 0.884986 0.130206 0.637987 0.759328 
0.10211 0.884539 0.237696 0.321149 0.292417 
0.0568457 0.147927 0.961978 0.461839 0.916854 
0.85826 0.295665 0.396494 0.0138283 0.386254 
0.332591 0.188794 0.153688 0.711789 0.00773548 
0.672302 0.739867 0.777079 0.992277 0.307038 
0.831908 0.674252 0.649349 0.411235 0.822852 
0.402189 0.715878 0.502628 0.819673 0.293834 
0.114413 0.267597 0.423397 0.868895 0.878557 
0.803571 0.210774 0.494271 0.262496 0.916287 
0.659095 0.18713 0.308509 0.0214967 0.097591 
0.793759 0.473362 0.908768 0.40427 0.611644 
0.115986 0.550892 0.508915 0.0324321 0.828056 
0.499755 0.0789806 0.671042 0.677768 0.707187 
0.653912 0.153275 0.240556 0.374687 0.0466067 
0.483143 0.325401 0.672739 0.822674 0.367719 
0.357853 0.282879 0.254822 0.329043 0.9369 
0.763483 0.714972 0.111793 0.556419 0.505402 
0.872683 0.90511 0.350693 0.105353 0.558858 
0.974079 0.0947468 0.463405 0.272843 0.208343 
0.0234918 0.272192 0.704496 0.56543 0.2224 
0.365961 0.698658 0.906894 0.0546049 0.397014 
0.658105 0.719451 0.5829 0.593022 0.00642454 
0.0145987 0.434981 0.584267 0.753913 0.728762 
0.566938 0.118806 0.681782 0.648932 0.933176 
0.264389 0.42804 0.796661 0.881426 0.452281 
0.687529 0.177018 0.577216 0.241266 0.974618 
0.29566 0.186912 0.132819 0.962981 0.127718 
0.575962 0.58185 0.680968 0.463456 0.653054 
0.595632 0.548126 0.252872 0.849299 0.751777 
0.825754 0.469022 0.483948 0.839754 0.834784 
0.429312 0.974433 0.867945 0.966809 0.185993 
0.679336 0.563725 0.99369 0.893032 0.268848 
0.37162 0.990167 0.470693 0.279513 0.332529 
0.087891 0.655414 0.12423 0.906637 0.984824 
0.60432 0.225317 0.327076 0.780559 0.49518 
0.694963 0.444739 0.612064 0.95589 0.17921 
0.863499 0.890166 0.930023 0.560701 0.61011 
0.908825 0.00599051 0.647869 0.694458 0.276137 
0.35406 0.789688 0.101546 0.653618 0.996844 
0.408725 0.0526593 0.236102 0.760389 0.705831 
0.0525183 0.547943 0.863972 0.372462 0.650799 
0.655365 0.390576 0.616235 0.998208 0.478001 
0.563269 0.492631 0.0782247 0.76982 0.0454634 
0.145057 0.769451 0.0713026 0.889649 0.45797 
0.0279427 0.217213 0.74819 0.85643 0.0457969 
0.380637 0.995237 0.0751915 0.385916 0.237389 
0.422587 0.0747255 0.97452 0.918924 0.241049 
0.277244 0.687484 0.128642 0.478129 0.583992 
0.230743 0.488795 0.455245 0.808145 0.42815 
0.945815 0.350234 0.368209 0.0651226 0.943924 
0.317877 0.919063 0.936547 0.631026 0.954669 
0.637665 0.546503 0.958963 0.121127 0.285371 
0.87959 0.861038 0.237846 0.827365 0.924535 
0.322596 0.086472 0.300566 0.042796 0.182281 
0.953168 0.17666 0.661171 0.910944 0.764756 
0.26893 0.496408 0.62393 0.246403 0.21268 
0.322217 0.573486 0.812885 0.274193 0.154623 
0.782072 0.920741 0.45505 0.989114 0.438988 
0.337348 0.358875 0.752624 0.624422 0.716757 
0.967445 0.999754 0.164809 0.588998 0.318233 
0.230928 0.360115 0.0159775 0.575024 0.132586 
0.135756 0.524132 0.033688 0.486693 0.605054 
0.0632369 0.301197 0.703243 0.310731 0.377989 
0.70089 0.797832 0.899171 0.177641 0.747213 
0.832051 0.440931 0.994188 0.863196 0.23269 
0.978516 0.699046 0.0360391 0.887909 0.860277 
0.785331 0.333119 0.60259 0.578909 0.965155 
0.938975 0.893732 0.391492 0.465032 0.266306 
0.835516 0.201288 0.69604 0.370867 0.287906 
0.875902 0.361573 0.422241 0.880175 0.882361 
0.426036 0.781295 0.201831 0.312856 0.225025 
0.685966 0.158312 0.651322 0.798351 0.287185 
0.952559 0.922094 0.175202 0.865908 0.0588814 
0.418185 0.527697 0.133516 0.534932 0.961295 
0.411999 0.735975 0.41102 0.462358 0.223355 
0.974742 0.765827 0.267457 0.54791 0.872928 
0.370915 0.400411 0.518438 0.0647042 0.921658 
0.382298 0.951758 0.49508 0.516251 0.71214 
0.457731 0.828752 0.203885 0.398573 0.716952 
0.424449 0.408627 0.110307 0.8787 0.942091 
0.824472 0.156381 0.326427 0.502554 0.60641 
0.7105 0.971069 0.229868 0.118839 0.279665 
0.66638 0.910532 0.378214 0.352344 0.965008 
0.427395 0.298303 0.46969 0.851478 0.370168 
0.0225356 0.732803 0.105265 0.515224 0.310469 
0.181672 0.309244 0.533209 0.363744 0.705574 
0.387345 0.679518 0.196721 0.20216 0.376121 
0.973766 0.172198 0.948808 0.294564 0.399724 
0.132909 0.975691 0.946212 0.857983 0.127822 
0.21325 0.930343 0.756469 0.476174 0.888264 
0.196834 0.834192 0.257146 0.928118 0.109622 
0.339164 0.959829 0.0975583 0.999353 0.547434 
0.192158 0.849542 0.718775 0.00533782 0.803868 
0.708784 0.0322268 0.589254 0.593811 0.318976 
0.402141 0.985431 0.538582 0.0927636 0.478798 
0.17278 0.878097 0.932667 0.476012 0.848686 
0.954768 0.674021 0.618292 0.363835 0.314254 
0.0288123 0.793079 0.477851 0.0267931 0.0191693 
0.996594 0.136279 0.962356 0.702345 0.814834 
0.236866 0.748755 0.609853 0.505225 0.966378 
0.24334 0.79627 0.364427 0.715947 0.453845 
0.130415 0.912421 0.409716 0.950593 0.336548 
0.524989 0.769315 0.428001 0.723312 0.796734 
0.998626 0.0371111 0.250294 0.0835269 0.280768 
