2400 5
0.199905 0.943972 0.818692 0.548125 0.216174 
0.520816 0.904003 0.417489 0.298274 0.42179 
0.606467 0.226025 0.246759 0.610235 0.407132 
0.0213435 0.0394942 0.244778 0.395413 0.16591 
0.113186 0.816452 0.963697 0.0279582 0.228387 
0.376471 0.875212 0.671582 0.428728 0.262278 
0.685265 0.907006 0.935159 0.977951 0.717932 
0.442041 0.209496 0.0927255 0.91966 0.437625 
0.599965 0.108667 0.277367 0.356452 0.864804 
0.189685 0.242708 0.477285 0.593554 0.562371 
0.0115161 0.411726 0.520839 0.864884 0.0936433 
0.693218 0.984868 0.92396 0.029768 0.272213 
0.936608 0.528411 0.444134 0.419968 0.230233 
0.364326 0.0632517 0.0592352 0.48931 0.182359 
0.0133976 0.153672 0.128889 0.938585 0.942776 
0.630353 0.948993 0.328198 0.672346 0.152429 
0.686255 0.650528 0.367147 0.0706166 0.750794 
0.896632 0.247534 0.881586 0.807694 0.88075 
0.685224 0.610211 0.159047 0.635377 0.119627 
0.48228 0.63241 0.781354 0.288018 0.514031 
0.252901 0.0761889 0.941487 0.721719 0.16932 
0.362699 0.317745 0.25699 0.172225 0.0734789 
0.595513 0.684873 0.19821 0.476865 0.618423 
0.0358789 0.0656421 0.120995 0.909867 0.0423741 
0.0146419 0.907662 0.560551 0.0168675 0.685601 
0.982645 0.838434 0.899475 0.128201 0.455714 
0.497676 0.818781 0.697968 0.222121 0.708142 
0.0966793 0.752357 0.597713 0.308061 0.679852 
0.944619 0.466193 0.161279 0.64658 0.961898 
0.834285 0.356319 0.136095 0.00992173 0.106571 
0.0506506 0.261166 0.63587 0.0727236 0.685678 
0.21413 0.364119 0.176519 0.350151 0.688976 
0.0953519 0.561722 0.921294 0.847733 0.817498 
0.996293 0.889389 0.771597 0.4012 0.0396657 
0.190018 0.0948879 0.263892 0.513782 0.0432924 
0.136168 0.955324 0.496384 0.727998 0.254015 
0.857189 0.186589 0.878192 0.0195037 0.657797 
0.466507 0.59819 0.0675432 0.410876 0.0614796 
0.4391 0.470186 0.0142564 0.0367769 0.196455 
0.780997 0.591536 0.918071 0.798833 0.222328 
0.845264 0.680174 0.817843 0.344311 0.730095 
0.581237 0.702725 0.0576863 0.787518 0.87196 
0.24848 0.136994 0.314031 0.66636 0.109065 
0.375701 0.610368 0.150414 0.663729 0.0753268 
0.436855 0.619918 0.458654 0.298239 0.493171 
0.98814 0.646846 0.671711 0.134388 0.546518 
0.732267 0.571375 0.14023 0.119396 0.417911 
0.372652 0.185118 0.422799 0.671026 0.476384 
0.53521 0.306702 0.641669 0.714415 0.133389 
0.233044 0.795687 0.773313 0.0213046 0.942098 
0.198379 0.423365 0.442479 0.716942 0.153594 
0.407769 0.739739 0.0962019 0.332482 0.645894 
0.496391 0.291961 0.771157 0.0185503 0.192329 
0.232656 0.861327 0.88044 0.00984356 0.142607 
0.0618264 0.752746 0.70307 0.516522 0.0196474 
0.986243 0.641929 0.158139 0.68723 0.980201 
0.133786 0.0336768 0.491961 0.232682 0.954856 
0.266479 0.952048 0.979559 0.707838 0.00680736 
0.394092 0.0500838 0.829401 0.298475 0.518626 
0.868181 0.420552 0.88929 0.728984 0.117523 
0.380626 0.281167 0.0976334 0.819423 0.642527 
0.458672 0.199957 0.650155 0.354149 0.219062 
0.869207 0.255864 0.755214 0.997115 0.192362 
0.234479 0.90902 0.331353 0.374871 0.920622 
0.0742544 0.326499 0.400096 0.229224 0.651529 
0.477532 0.556661 0.73264 0.230895 0.641924 
0.197061 0.24608 0.614251 0.0934958 0.0011311 
0.809312 0.336501 0.535217 0.421345 0.374835 
0.0883096 0.355891 0.609026 0.53538 0.805665 
0.249928 0.432278 0.580499 0.969788 0.807242 
0.500731 0.434284 0.93991 0.586267 0.642833 
0.643531 0.222268 0.640186 0.984671 0.827772 
0.871835 0.406327 0.67379 0.382528 0.0282126 
0.560786 0.939393 0.883964 0.56448 0.991746 
0.019562 0.156767 0.00819728 0.822428 0.551935 
0.434513 0.288076 0.45275 0.880898 0.164765 
0.0495528 0.0219416 0.67589 0.860812 0.988262 
0.989302 0.774493 0.788808 0.954264 0.140169 
0.822404 0.049701 0.0017929 0.331877 0.041711 
0.0715273 0.180629 0.275218 0.385821 0.381674 
0.622753 0.614614 0.67122 0.354387 0.320623 
0.121405 0.0787562 0.430467 0.906677 0.609235 
0.549276 0.314373 0.253914 0.0560896 0.681867 
0.741182 0.187759 0.821679 0.683591 0.524549 
0.640916 0.456825 0.430647 0.778112 0.205044 
0.432212 0.26313 0.380168 0.100652 0.415322 
0.242193 0.478351 0.0993874 0.695038 0.273059 
0.285172 0.335327 0.884884 0.676621 0.287306 
0.450037 0.242729 0.511311 0.970025 0.803407 
0.367232 0.548761 0.910008 0.90123 0.699725 
0.00631415 0.974361 0.540049 0.622194 0.672098 
0.454476 0.737154 0.967556 0.484245 0.497134 
0.509359 0.419202 0.0965206 0.486855 0.27884 
0.737385 0.543734 0.588177 0.13473 0.496995 
0.0896516 0.809524 0.476819 0.882239 0.518564 
0.979356 0.206267 0.147737 0.14399 0.740184 
0.611823 0.142755 0.844004 0.42026 0.359689 
0.553226 0.780476 0.216391 0.202742 0.540276 
0.739846 0.889366 0.527369 0.902882 0.758569 
0.918314 0.483187 0.844206 0.134221 0.987608 
0.312881 0.19574 0.0940318 0.941433 0.368402 
0.541057 0.60783 0.177704 0.577474 0.0492045 
0.732137 0.740222 0.266537 0.876099 0.685865 
0.884285 0.426248 0.400151 0.377415 0.0117389 
0.364927 0.445176 0.31202 0.152509 0.554891 
0.0125111 0.995862 0.981814 0.741377 0.464249 
0.551252 0.198789 0.334392 0.356136 0.249818 
0.623828 0.038625 0.0560093 0.558528 0.763509 
0.487404 0.573492 0.121093 0.749439 0.103834 
0.033586 0.41087 0.382227 0.572616 0.142156 
0.987181 0.115871 0.634804 0.0444993 0.0350991 
0.944006 0.870571 0.752428 0.121374 0.558533 
0.147474 0.741329 0.672858 0.634706 0.0045299 
0.501751 0.455721 0.0594363 0.686437 0.271326 
0.174448 0.213629 0.302819 0.311884 0.0794276 
0.68569 0.656717 0.433992 0.707008 0.435941 
0.0654746 0.357779 0.110985 0.176415 0.287666 
0.193247 0.44547 0.583743 0.449141 0.466573 
0.755419 0.596238 0.527669 0.227534 0.385161 
0.297865 0.257524 0.854505 0.175169 0.0744626 
0.792795 0.0711582 0.474697 0.00461118 0.456367 
0.26874 0.587907 0.864576 0.351027 0.734179 
0.69834 0.151989 0.353034 0.604765 0.326067 
0.419638 0.488892 0.0592295 0.364645 0.5727 
0.725668 0.623144 0.400821 0.0474074 0.420853 
0.203817 0.0017237 0.636413 0.764332 0.52143 
0.0242873 0.580018 0.671555 0.560867 0.418136 
0.318694 0.839426 0.560699 0.966758 0.471445 
0.773818 0.358663 0.385055 0.705519 0.447114 
0.0617266 0.073402 0.984152 0.311011 0.797426 
0.274114 0.614728 0.087694 0.111122 0.884944 
0.835039 0.733625 0.41254 0.911792 0.0281148 
0.55933 0.908218 0.239155 0.405205 0.525394 
0.361626 0.616444 0.353028 0.806512 0.697636 
0.491751 0.855058 0.805258 0.408627 0.123552 
0.987322 0.940135 0.478207 0.882337 0.605231 
0.632495 0.0328103 0.579365 0.602543 0.018051 
0.95304 0.88499 0.724794 0.12993 0.36067 
0.275384 0.605586 0.809035 0.33317 0.944488 
0.218449 0.813877 0.488157 0.735929 0.276215 
0.968763 0.939811 0.662269 0.493766 0.183561 
0.440362 0.235599 0.363995 0.605635 0.728648 
0.531272 0.0956851 0.623364 0.356164 0.618626 
0.0849557 0.7973 0.931853 0.243873 0.641519 
0.432877 0.0311052 0.557503 0.682975 0.0148028 
0.492479 0.596741 0.45023 0.663209 0.83417 
0.459677 0.585102 0.538124 0.136839 0.856487 
0.720603 0.482003 0.988791 0.790026 0.127791 
0.97681 0.644351 0.0393865 0.241205 0.690069 
0.340116 0.626171 0.324859 0.320834 0.865411 
0.242853 0.241181 0.953799 0.231155 0.313128 
0.642191 0.584553 0.91712 0.559419 0.515566 
0.0204187 0.149496 0.921113 0.139198 0.448079 
0.800462 0.668859 0.184875 0.0779178 0.0363896 
0.388131 0.658046 0.303071 0.153725 0.852673 
0.525137 0.534663 0.539582 0.99355 0.423325 
0.855464 0.909568 0.831506 0.0925133 0.0907249 
0.0915699 0.96643 0.306593 0.0492777 0.663419 
0.972202 0.409341 0.671625 0.518917 0.682956 
0.814488 0.947124 0.90229 0.430479 0.473593 
0.877426 0.0966117 0.149259 0.0960848 0.910243 
0.102354 0.58599 0.703611 0.672399 0.391458 
0.528284 0.912568 0.611382 0.743676 0.734831 
0.0013833 0.23497 0.255724 0.184298 0.158406 
0.738883 0.808598 0.767158 0.0133517 0.903895 
0.217932 0.959968 0.904737 0.586188 0.440597 
0.545828 0.731574 0.170223 0.573194 0.492797 
0.0326489 0.805295 0.124423 0.0927346 0.770458 
0.709837 0.278356 0.156489 0.636365 0.0688332 
0.145465 0.963701 0.408631 0.779801 0.591804 
0.564501 0.882637 0.0231586 0.278032 0.251604 
0.00863566 0.110572 0.170345 0.158915 0.471085 
0.685713 0.567926 0.163371 0.795855 0.192708 
0.0801739 0.449107 0.137354 0.8635 0.712655 
0.0149382 0.718588 0.844039 0.113511 0.827077 
0.502289 0.18596 0.888013 0.784187 0.341425 
0.82329 0.875051 0.71575 0.787508 0.182988 
0.793949 0.556328 0.693629 0.0330672 0.957658 
0.818422 0.665507 0.191272 0.0386343 0.433719 
0.755697 0.416578 0.662767 0.604742 0.635299 
0.711199 0.861194 0.487184 0.972871 0.274247 
0.443782 0.950187 0.852695 0.508648 0.617069 
0.73807 0.331574 0.0764428 0.484121 0.739852 
0.994454 0.903532 0.198547 0.0958038 0.527785 
0.264116 0.875798 0.0317306 0.286394 0.691545 
0.362362 0.112853 0.501491 0.329336 0.804077 
0.871498 0.090359 0.831577 0.790499 0.447656 
0.515922 0.518716 0.155966 0.378379 0.405098 
0.104159 0.838029 0.684874 0.583536 0.128218 
0.690638 0.7096 0.272269 0.283565 0.827253 
0.165548 0.156294 0.876936 0.457066 0.354107 
0.606121 0.726982 0.680064 0.260756 0.211346 
0.921741 0.960005 0.508056 0.897376 0.287836 
0.397507 0.0134518 0.387777 0.946337 0.0537657 
0.837543 0.033259 0.0317927 0.258528 0.676306 
0.686725 0.820276 0.671371 0.262132 0.0573031 
0.748473 0.0707808 0.486304 0.0625133 0.152077 
0.490414 0.514209 0.353525 0.174183 0.714368 
0.904759 0.646443 0.395202 0.721952 0.54809 
0.129862 0.899133 0.843255 0.599219 0.525992 
0.760463 0.832094 0.192304 0.245481 0.701514 
0.144526 0.479824 0.481132 0.858929 0.169562 
0.534432 0.105919 0.919339 0.943924 0.371495 
0.733263 0.238659 0.355103 0.439807 0.539465 
0.17405 0.377839 0.446662 0.0562084 0.158384 
0.160382 0.853279 0.359466 0.120023 0.188264 
0.701563 0.474941 0.713475 0.347138 0.104666 
0.673378 0.812023 0.532211 0.865445 0.491662 
0.452993 0.482158 0.967605 0.758864 0.522671 
0.853904 0.3261 0.471649 0.788056 0.890344 
0.343132 0.809844 0.796939 0.853651 0.378462 
0.963317 0.52564 0.714389 0.838314 0.713497 
0.75455 0.957761 0.816023 0.861309 0.00292828 
0.643907 0.898501 0.0781228 0.400035 0.700527 
0.816243 0.363255 0.514783 0.448048 0.456935 
0.193971 0.986598 0.497128 0.875594 0.219768 
0.284293 0.778676 0.734772 0.346263 0.626731 
0.507225 0.624094 0.782746 0.537687 0.153941 
0.32732 0.263186 0.00143607 0.332511 0.0403253 
0.178529 0.682496 0.44671 0.48856 0.939737 
0.737651 0.956664 0.213879 0.928671 0.876654 
0.362338 0.833351 0.24293 0.786492 0.528196 
0.237522 0.544611 0.439939 0.483156 0.824794 
0.570448 0.616883 0.00454101 0.574671 0.646607 
0.865756 0.0354675 0.557589 0.0262213 0.748461 
0.403555 0.569196 0.903152 0.485748 0.816907 
0.891654 0.404244 0.0911196 0.691936 0.938528 
0.47379 0.244788 0.399785 0.0725425 0.351916 
0.792902 0.699348 0.0753935 0.375009 0.603451 
0.140544 0.327193 0.484515 0.877429 0.448685 
0.470424 0.917487 0.863601 0.116429 0.249565 
0.825725 0.380867 0.066868 0.96902 0.615012 
0.214388 0.641361 0.339651 0.213658 0.63054 
0.610553 0.433975 0.191364 0.350985 0.343841 
0.345366 0.206423 0.602695 0.594291 0.393838 
0.257783 0.196396 0.0257204 0.919816 0.803948 
0.160142 0.700607 0.295982 0.832306 0.133285 
0.456013 0.659041 0.418873 0.0821026 0.260171 
0.763102 0.536527 0.507908 0.341544 0.873663 
0.702381 0.156783 0.602312 0.0990326 0.538549 
0.749551 0.0689078 0.524156 0.288818 0.323411 
0.0342995 0.264748 0.154813 0.0279508 0.407432 
0.35484 0.533421 0.273579 0.980845 0.435284 
0.207523 0.272271 0.521564 0.524878 0.220198 
0.0951089 0.881475 0.0469554 0.805022 0.154709 
0.441908 0.692504 0.0720462 0.91538 0.729068 
0.750035 0.93129 0.594064 0.549513 0.722598 
0.730557 0.941687 0.674623 0.667605 0.579931 
0.366488 0.364515 0.678579 0.454561 0.689735 
0.247863 0.875154 0.898115 0.950198 0.128343 
0.457547 0.292515 0.781963 0.425677 0.01742 
0.121666 0.989411 0.834627 0.976554 0.110178 
0.00739271 0.993538 0.42028 0.84371 0.430448 
0.326795 0.125335 0.525455 0.331898 0.284677 
0.869827 0.286567 0.740051 0.000398612 0.651542 
0.576784 0.102408 0.181985 0.502444 0.312522 
0.366943 0.448177 0.770841 0.127353 0.0395544 
0.761287 0.0109905 0.720687 0.262319 0.421754 
0.465535 0.159826 0.864168 0.715579 0.364404 
0.00753385 0.967938 0.457316 0.369682 0.0561607 
0.101953 0.377515 0.891692 0.574135 0.323179 
0.61405 0.781171 0.480599 0.808076 0.77721 
0.225864 0.543853 0.187129 0.564791 0.162228 
0.903632 0.68761 0.945299 0.753357 0.946612 
0.0994504 0.321162 0.999937 0.713663 0.172258 
0.18026 0.818899 0.19282 0.212261 0.535735 
0.422217 0.71146 0.579207 0.646889 0.05983 
0.475458 0.817297 0.31294 0.50616 0.65635 
0.812092 0.468259 0.481068 0.428676 0.571863 
0.387647 0.0866801 0.0368236 0.30823 0.783939 
0.814591 0.304265 0.446022 0.358783 0.734507 
0.86846 0.867747 0.269153 0.308977 0.984723 
0.606066 0.919311 0.610262 0.275901 0.503101 
0.688726 0.471693 0.682857 0.113226 0.366856 
0.697766 0.990067 0.506255 0.348808 0.473899 
0.784572 0.611114 0.5146 0.0124194 0.652904 
0.976028 0.0596466 0.973127 0.862606 0.142102 
0.536151 0.2068 0.406458 0.483627 0.518263 
0.577229 0.863581 0.0204654 0.760193 0.109308 
0.696293 0.00211797 0.111857 0.572514 0.108631 
0.00528141 0.104786 0.813693 0.500712 0.200338 
0.95756 0.820304 0.568537 0.871146 0.69406 
0.633239 0.985863 0.518635 0.131607 0.0868926 
0.154638 0.183226 0.716354 0.635793 0.0952842 
0.22628 0.842332 0.962671 0.739167 0.692997 
0.179837 0.0875233 0.1116 0.853991 0.598478 
0.245401 0.462872 0.169886 0.232871 0.711327 
0.546704 0.137236 0.444166 0.682288 0.418145 
0.96596 0.410455 0.0276213 0.135422 0.152993 
0.276135 0.95527 0.977662 0.156231 0.525442 
0.303454 0.219435 0.807647 0.506088 0.566089 
0.21925 0.21282 0.194687 0.453553 0.518085 
0.69367 0.889755 0.0504393 0.433036 0.940663 
0.548234 0.664003 0.852403 0.0323302 0.235588 
0.645157 0.531845 0.116527 0.418792 0.645346 
0.430641 0.210905 0.256082 0.665185 0.462744 
0.0549129 0.0969711 0.943004 0.516323 0.275124 
0.886693 0.651968 0.434657 0.723502 0.26246 
0.812005 0.61597 0.310176 0.0942667 0.995787 
0.856689 0.939284 0.17635 0.949731 0.213807 
0.0835369 0.701404 0.65771 0.937314 0.564868 
0.697211 0.371359 0.0532779 0.157286 0.00619138 
0.819533 0.247157 0.232077 0.432359 0.546464 
0.350328 0.0432889 0.529281 0.90367 0.792235 
0.197881 0.436617 0.713698 0.0785892 0.720357 
0.420316 0.904021 0.636953 0.945287 0.563781 
0.664206 0.20484 0.942965 0.87289 0.803383 
0.88331 0.0346187 0.883152 0.147869 0.195901 
0.943044 0.643053 0.847302 0.89519 0.716822 
0.559101 0.718516 0.664217 0.834727 0.133822 
0.503858 0.78947 0.990461 0.343414 0.18886 
0.60711 0.748192 0.970865 0.209536 0.910965 
0.123835 0.381677 0.984612 0.193243 0.569704 
0.969486 0.648879 0.0576035 0.602036 0.153921 
0.19015 0.871417 0.602254 0.742483 0.730813 
0.203641 0.0323504 0.450422 0.303901 0.846837 
0.0771311 0.792096 0.647889 0.866493 0.734011 
0.428008 0.105097 0.461281 0.663742 0.837993 
0.0185452 0.19363 0.7214 0.159722 0.256812 
0.666488 0.122189 0.271857 0.4599 0.63913 
0.642663 0.602838 0.24634 0.56913 0.0101027 
0.560196 0.436411 0.405115 0.0908586 0.832237 
0.283177 0.231619 0.233657 0.227411 0.800251 
0.528415 0.377319 0.906554 0.741839 0.470029 
0.112398 0.54228 0.730394 0.871858 0.652287 
0.596037 0.561912 0.91434 0.326152 0.412608 
0.0282761 0.29732 0.369741 0.715135 0.362233 
0.880609 0.0597754 0.323986 0.045841 0.0455762 
0.690818 0.255933 0.310116 0.0433274 0.809111 
0.912653 0.751862 0.15043 0.0789157 0.0194166 
0.141168 0.701709 0.915496 0.917217 0.599827 
0.197142 0.431589 0.800212 0.182061 0.505072 
0.353375 0.606174 0.628279 0.255643 0.175725 
0.308406 0.623651 0.858292 0.190073 0.113292 
0.0124536 0.342953 0.373325 0.872948 0.47122 
0.0305556 0.786465 0.0923094 0.229738 0.589618 
0.550899 0.0811405 0.443449 0.406769 0.970136 
0.590662 0.865498 0.198589 0.785326 0.921374 
0.632365 0.912353 0.00828628 0.375645 0.502103 
0.410823 0.873349 0.361018 0.426727 0.822673 
0.289606 0.490127 0.0819176 0.35173 0.205683 
0.267234 0.0947488 0.348049 0.886302 0.585995 
0.809065 0.937326 0.830732 0.536918 0.58249 
0.652049 0.500781 0.00505252 0.720717 0.238269 
0.372382 0.284048 0.743576 0.0422592 0.107726 
0.580077 0.311365 0.00275411 0.481771 0.886403 
0.661807 0.11822 0.532417 0.197257 0.920156 
0.627009 0.472481 0.679445 0.444673 0.517071 
0.226115 0.884269 0.64323 0.392704 0.290666 
0.937911 0.94609 0.432355 0.724556 0.836725 
0.132977 0.937636 0.228869 0.140928 0.563787 
0.443346 0.943399 0.145058 0.0560589 0.251809 
0.283832 0.832838 0.87958 0.514787 0.222451 
0.374113 0.681291 0.18287 0.0515765 0.813385 
0.247689 0.404203 0.77213 0.81593 0.221009 
0.7272 0.810518 0.0505937 0.808453 0.948354 
0.929016 0.543854 0.248168 0.21797 0.649478 
0.175773 0.431826 0.843804 0.359105 0.0879324 
0.387909 0.185289 0.560951 0.93219 0.904104 
0.16936 0.191151 0.915184 0.988211 0.0453195 
0.213098 0.54102 0.586568 0.449864 0.799554 
0.0165235 0.997171 0.203796 0.477877 0.0103351 
0.964316 0.267958 0.865638 0.32568 0.753322 
0.622168 0.542842 0.937196 0.750538 0.28345 
0.965178 0.103613 0.994575 0.521633 0.797904 
0.302452 0.290612 0.227484 0.711485 0.057925 
0.27654 0.758706 0.0385614 0.191003 0.113906 
0.896728 0.299404 0.209254 0.970645 0.990585 
0.602825 0.578204 0.983568 0.961382 0.604647 
0.430325 0.479972 0.62953 0.840144 0.966766 
0.437429 0.813069 0.60845 0.58842 0.419164 
0.0982021 0.314809 0.797134 0.0863166 0.603977 
0.24977 0.925975 0.797193 0.760122 0.378718 
0.766586 0.89993 0.692111 0.720861 0.0205089 
0.297485 0.354806 0.918283 0.237649 0.680519 
0.885098 0.429614 0.366142 0.828774 0.523917 
0.777275 0.154037 0.162761 0.736649 0.8619 
0.383244 0.850367 0.933609 0.651619 0.989179 
0.917117 0.57492 0.190549 0.802776 0.839056 
0.692307 0.13814 0.994513 0.111306 0.70612 
0.22432 0.919971 0.518944 0.212035 0.23167 
0.544281 0.480836 0.156301 0.422749 0.520039 
0.342286 0.372818 0.535534 0.0853181 0.889245 
0.581961 0.227075 0.00744494 0.808308 0.34798 
0.103652 0.826797 0.287232 0.54035 0.302117 
0.334938 0.878364 0.759243 0.401423 0.992902 
0.654359 0.0526637 0.4145 0.452857 0.308924 
0.393553 0.559827 0.732147 0.92143 0.556815 
0.619265 0.338229 0.775271 0.284201 0.746485 
0.0710143 0.495748 0.331466 0.169596 0.194877 
0.419145 0.660201 0.958463 0.377354 0.187644 
0.165976 0.880676 0.770316 0.359329 0.908768 
0.421122 0.0396021 0.503716 0.636764 0.3407 
0.687664 0.963461 0.479119 0.750092 0.252445 
0.485758 0.546016 0.140054 0.697058 0.948085 
0.576157 0.833879 0.584362 0.915905 0.29194 
0.000923254 0.629216 0.0792106 0.331118 0.239314 
0.696015 0.316744 0.408896 0.614742 0.604085 
0.474847 0.958113 0.879836 0.260911 0.813357 
0.724961 0.19905 0.193109 0.509102 0.713484 
0.948797 0.924309 0.239133 0.381223 0.424135 
0.387078 0.961558 0.456502 0.840965 0.727333 
0.880227 0.0715974 0.318054 0.130351 0.0667429 
0.593206 0.157069 0.383411 0.138792 0.547676 
0.951163 0.0258189 0.204665 0.0419631 0.0868654 
0.137227 0.155974 0.107175 0.677592 0.0350098 
0.024982 0.788091 0.472993 0.311937 0.981182 
0.230819 0.55492 0.218627 0.193091 0.958833 
0.314036 0.0574279 0.744801 0.0744793 0.935578 
0.372084 0.921003 0.643122 0.749854 0.442878 
0.88389 0.954037 0.689838 0.0803212 0.485361 
0.246208 0.821245 0.282949 0.169125 0.144025 
0.166194 0.425734 0.841287 0.879906 0.741999 
0.553958 0.0538637 0.354694 0.407222 0.114743 
0.723404 0.10477 0.243809 0.642102 0.179269 
0.749722 0.445282 0.681112 0.320252 0.586646 
0.916731 0.723975 0.0668719 0.0803122 0.0677625 
0.119772 0.170923 0.830956 0.217198 0.785161 
0.906079 0.718719 0.739507 0.247701 0.401111 
0.733409 0.208277 0.573759 0.764468 0.0592005 
0.202723 0.533738 0.29925 0.217526 0.735128 
0.594348 0.399718 0.582459 0.424984 0.854943 
0.661371 0.484738 0.358611 0.667298 0.00615225 
0.286376 0.977386 0.442027 0.992932 0.830838 
0.0806093 0.323621 0.768743 0.45738 0.905144 
0.435588 0.925833 0.678829 0.151434 0.807644 
0.881437 0.616622 0.413403 0.780492 0.0615027 
0.0120361 0.449562 0.828184 0.525563 0.490662 
0.760119 0.53104 0.428225 0.772522 0.743353 
0.0399491 0.981283 0.885938 0.476109 0.723413 
0.328393 0.0814029 0.0280916 0.930506 0.0851396 
0.835935 0.181753 0.296782 0.98393 0.263836 
0.522706 0.67694 0.331288 0.326976 0.970068 
0.5629 0.201836 0.753972 0.494865 0.161967 
0.465495 0.920801 0.970888 0.237475 0.870608 
0.996967 0.0142188 0.66601 0.0638311 0.320541 
0.873464 0.472667 0.410273 0.140945 0.555154 
0.277821 0.858208 0.984583 0.229386 0.855812 
0.424291 0.0750291 0.242791 0.631755 0.474668 
0.439525 0.781027 0.309114 0.753144 0.281407 
0.835164 0.671942 0.00194588 0.383119 0.808654 
0.357129 0.818603 0.0320672 0.175095 0.902571 
0.335891 0.178513 0.186422 0.354502 0.578663 
0.470897 0.371957 0.577617 0.64142 0.78858 
0.915976 0.426063 0.890107 0.76625 0.588575 
0.370398 0.586964 0.0959896 0.539892 0.619332 
0.980764 0.845494 0.497567 0.745383 0.596957 
0.144327 0.231978 0.521436 0.288794 0.754303 
0.0535478 0.181534 0.393797 0.460585 0.598017 
0.212727 0.840433 0.19307 0.357158 0.997525 
0.371601 0.53119 0.565304 0.231776 0.110902 
0.878982 0.253882 0.289518 0.96736 0.272637 
0.9848 0.507606 0.87846 0.57432 0.401658 
0.852808 0.681312 0.634403 0.978574 0.913113 
0.185469 0.444276 0.0523321 0.884516 0.128335 
0.610563 0.494775 0.364704 0.342899 0.403526 
0.75843 0.693032 0.245624 0.184594 0.0953564 
0.73369 0.897839 0.245975 0.292851 0.639015 
0.186484 0.469363 0.372325 0.0598112 0.232926 
0.72683 0.766603 0.549361 0.634327 0.772408 
0.65005 0.980849 0.163157 0.00321666 0.531682 
0.241005 0.026634 0.440051 0.386425 0.588363 
0.663286 0.880685 0.664391 0.828327 0.826727 
0.0421601 0.772991 0.558288 0.487273 0.605243 
0.249645 0.5052 0.804898 0.0267759 0.9131 
0.441193 0.579474 0.806862 0.929349 0.164805 
0.837412 0.482553 0.286692 0.971752 0.387334 
0.401213 0.2451 0.12015 0.589135 0.329047 
0.576222 0.207746 0.817503 0.0651824 0.101397 
0.0652072 0.179756 0.710034 0.534372 0.0665595 
0.654631 0.886316 0.705796 0.0127312 0.0726378 
0.406996 0.746946 0.443677 0.776181 0.772839 
0.414554 0.205847 0.391551 0.201203 0.506671 
0.361042 0.236359 0.756335 0.049803 0.882956 
0.501897 0.692137 0.900999 0.398213 0.979022 
0.411868 0.836421 0.403085 0.391235 0.219061 
0.385031 0.136231 0.220234 0.38278 0.40448 
0.770719 0.481237 0.814695 0.243761 0.222871 
0.626643 0.404029 0.0696905 0.516965 0.15563 
0.425789 0.888683 0.752702 0.375763 0.985936 
0.980688 0.679395 0.718688 0.435566 0.205246 
0.594172 0.374688 0.196063 0.85545 0.630924 
0.163694 0.967794 0.786823 0.757691 0.956256 
0.688487 0.53055 0.610095 0.356862 0.854922 
0.518703 0.120965 0.673273 0.0356348 0.433137 
0.369453 0.779033 0.186966 0.0653019 0.777933 
0.713384 0.633497 0.448511 0.581892 0.140845 
0.782573 0.310988 0.740264 0.748972 0.976975 
0.279375 0.785896 0.927868 0.963772 0.267418 
0.442882 0.115877 0.124952 0.907514 0.631649 
0.788699 0.722862 0.232696 0.767701 0.770596 
0.446993 0.23956 0.42416 0.0256783 0.296486 
0.845907 0.622192 0.755468 0.44677 0.10654 
0.978963 0.471008 0.338566 0.000484138 0.839203 
0.491886 0.916008 0.856735 0.719849 0.00944191 
0.601736 0.984217 0.331075 0.823673 0.958417 
0.418218 0.578969 0.664324 0.907061 0.759635 
0.322325 0.719589 0.791027 0.861835 0.00717154 
0.757713 0.60675 0.55754 0.38373 0.32326 
0.234753 0.818529 0.445106 0.560449 0.192108 
0.191126 0.590691 0.284355 0.228531 0.0346915 
0.495626 0.0847504 0.105722 0.727734 0.506148 
0.739706 0.427166 0.5372 0.161991 0.223629 
0.590783 0.0921505 0.855729 0.0123131 0.849632 
0.690093 0.989828 0.356482 0.783242 0.489221 
0.84513 0.615147 0.0116419 0.69876 0.233719 
0.278562 0.307236 0.727841 0.118723 0.594188 
0.299183 0.0121691 0.261839 0.598847 0.89973 
0.801238 0.193897 0.735583 0.599432 0.616224 
0.776533 0.182549 0.991756 0.822149 0.77544 
0.835737 0.178489 0.150002 0.755539 0.194666 
0.842026 0.180197 0.888758 0.627114 0.80278 
0.746902 0.368831 0.96575 0.946897 0.302819 
0.649705 0.966154 0.219937 0.684068 0.183749 
0.325431 0.918066 0.342982 0.297129 0.968864 
0.0869605 0.759272 0.912463 0.76735 0.656287 
0.550548 0.75966 0.961862 0.0390911 0.534678 
0.634578 0.376527 0.0606305 0.0379068 0.0321802 
0.00916228 0.68376 0.851111 0.731724 0.187014 
0.473802 0.479512 0.966872 0.0832261 0.0899032 
0.569115 0.967782 0.327664 0.612905 0.737762 
0.952304 0.556 0.0458574 0.172059 0.538181 
0.85836 0.349486 0.2638 0.671949 0.672578 
0.540915 0.058263 0.808906 0.782944 0.647133 
0.649643 0.46936 0.88722 0.301362 0.284635 
0.32681 0.307389 0.229901 0.639732 0.344143 
0.910925 0.00992102 0.748268 0.194953 0.450641 
0.288387 0.270467 0.719756 0.527906 0.207057 
0.778516 0.952515 0.277435 0.715976 0.145353 
0.158423 0.603832 0.237136 0.452021 0.179342 
0.245411 0.0690612 0.383003 0.520531 0.574341 
0.506535 0.0293764 0.881771 0.584959 0.490937 
0.420207 0.855084 0.474687 0.0584299 0.109126 
0.637984 0.816511 0.400746 0.428485 0.327309 
0.87648 0.553511 0.15134 0.121085 0.853741 
0.613507 0.528639 0.465964 0.147145 0.633321 
0.821436 0.477753 0.718912 0.234005 0.681809 
0.984422 0.394754 0.0781372 0.962654 0.826679 
0.550353 0.853293 0.591933 0.614343 0.0942313 
0.12849 0.177732 0.160456 0.841673 0.730094 
0.15258 0.865009 0.330004 0.0479071 0.464621 
0.597753 0.635536 0.660988 0.219916 0.231593 
0.104884 0.407712 0.549577 0.0248553 0.282062 
0.0700122 0.853799 0.813201 0.916127 0.583475 
0.491719 0.820417 0.164496 0.397349 0.816854 
0.604944 0.424317 0.868262 0.522756 0.553516 
0.109581 0.181442 0.540182 0.635451 0.79516 
0.162773 0.360676 0.825408 0.0369215 0.925221 
0.865909 0.0746176 0.701033 0.210327 0.0965582 
0.152418 0.559344 0.0981748 0.911036 0.393778 
0.525126 0.818224 0.0976556 0.451534 0.942359 
0.85256 0.352019 0.202212 0.923385 0.476077 
0.191365 0.230359 0.0189827 0.815905 0.108238 
0.774991 0.757668 0.230524 0.371533 0.886839 
0.0454623 0.0655924 0.926474 0.953729 0.549806 
0.05286 0.153755 0.0878264 0.701243 0.731033 
0.966936 0.221 0.800069 0.85613 0.545652 
0.776487 0.688905 0.657284 0.449085 0.0909753 
0.760896 0.677058 0.915492 0.248006 0.526375 
0.469241 0.844589 0.350506 0.279042 0.334656 
0.424482 0.0420648 0.526952 0.674522 0.0232955 
0.943571 0.774438 0.536873 0.610975 0.109083 
0.672696 0.765368 0.0716749 0.0246865 0.817289 
0.763966 0.578884 0.77689 0.992032 0.496294 
0.0665813 0.845845 0.724613 0.189439 0.271741 
0.306894 0.544492 0.515488 0.964076 0.158969 
0.730684 0.776226 0.582939 0.39948 0.797923 
0.841956 0.219322 0.80495 0.0931969 0.661468 
0.590807 0.738038 0.220192 0.657065 0.660804 
0.984169 0.310444 0.0340253 0.356082 0.389263 
0.785162 0.0800938 0.449728 0.0790914 0.793708 
0.464195 0.345248 0.677118 0.268484 0.0685265 
0.659427 0.971872 0.878488 0.649371 0.133901 
0.47812 0.664229 0.949458 0.159629 0.451692 
0.28479 0.124252 0.0127191 0.411385 0.255935 
0.222343 0.471474 0.00755625 0.418511 0.675164 
0.630452 0.0415674 0.122056 0.843826 0.974281 
0.602797 0.767861 0.875833 0.590583 0.892306 
0.0314228 0.368581 0.0390548 0.441686 0.909599 
0.917453 0.851307 0.904683 0.434898 0.470086 
0.56093 0.392954 0.00755222 0.434222 0.168583 
0.899714 0.956484 0.389175 0.207161 0.980233 
0.0841508 0.140029 0.723982 0.0562495 0.621242 
0.653649 0.757331 0.0378876 0.965299 0.15587 
0.751426 0.667525 0.577247 0.924408 0.208749 
0.560796 0.609582 0.585179 0.728682 0.660752 
0.706749 0.199417 0.725696 0.52454 0.496313 
0.430451 0.980654 0.519716 0.369436 0.678584 
0.672866 0.671439 0.0317315 0.684744 0.27106 
0.706844 0.0852525 0.725411 0.026322 0.696905 
0.788232 0.571444 0.00420589 0.830445 0.344104 
0.4097 0.00858216 0.175073 0.43876 0.532695 
0.848019 0.0218472 0.981525 0.985114 0.218818 
0.310792 0.20871 0.45485 0.35862 0.271596 
0.586485 0.989533 0.606744 0.923837 0.405302 
0.924963 0.428203 0.966899 0.344585 0.0209703 
0.501204 0.550512 0.845424 0.957802 0.914631 
0.900926 0.347605 0.512453 0.206598 0.898172 
0.0445991 0.0845407 0.875256 0.232021 0.415012 
0.611897 0.56681 0.899433 0.37738 0.449618 
0.577484 0.381919 0.405292 0.0491648 0.0889255 
0.630652 0.609224 0.875962 0.832076 0.244795 
0.650309 0.518682 0.968591 0.895664 0.00346836 
0.231604 0.802039 0.464327 0.706801 0.478698 
0.920336 0.977081 0.367144 0.103218 0.024175 
0.83201 0.64289 0.707104 0.830957 0.192053 
0.751982 0.361532 0.0130666 0.771968 0.670626 
0.279152 0.527808 0.471774 0.312217 0.356965 
0.528224 0.401724 0.526623 0.843743 0.765337 
0.454011 0.570205 0.757248 0.220347 0.108916 
0.421647 0.633614 0.864206 0.650457 0.154865 
0.292105 0.640731 0.39356 0.834916 0.999671 
0.985577 0.35189 0.618785 0.289218 0.599085 
0.820012 0.203048 0.479033 0.356164 0.281556 
0.022682 0.949837 0.0643478 0.560488 0.380638 
0.664531 0.472025 0.515013 0.0638361 0.982554 
0.726357 0.088497 0.446135 0.842217 0.853337 
0.608085 0.868777 0.349062 0.882489 0.296544 
0.861339 0.204184 0.050008 0.880111 0.961251 
0.976541 0.149198 0.54857 0.390053 0.448008 
0.722655 0.653871 0.570971 0.770002 0.958046 
0.905948 0.413116 0.0903882 0.206808 0.156933 
0.746224 0.20751 0.540842 0.229518 0.213373 
0.805871 0.012551 0.390489 0.593568 0.337471 
0.327272 0.641716 0.101249 0.599108 0.945655 
0.581758 0.0804536 0.220208 0.250175 0.269581 
0.772406 0.261325 0.197512 0.650588 0.0207567 
0.395045 0.813931 0.171545 0.854674 0.995099 
0.505729 0.64538 0.209787 0.754269 0.582984 
0.781312 0.634515 0.194053 0.784732 0.0476471 
0.609573 0.17417 0.637144 0.340635 0.937003 
0.8593 0.790191 0.178072 0.717808 0.186732 
0.46258 0.599216 0.704861 0.828009 0.306209 
0.601165 0.914855 0.287131 0.137099 0.549947 
0.917439 0.683988 0.544115 0.698529 0.794145 
0.243017 0.646019 0.642116 0.722139 0.896066 
0.814545 0.886557 0.481052 0.155981 0.297709 
0.594608 0.702534 0.543279 0.170662 0.961935 
0.938378 0.16822 0.759689 0.25592 0.994404 
0.827109 0.870378 0.18518 0.806993 0.863219 
0.416792 0.574321 0.111681 0.251699 0.745016 
0.848225 0.959275 0.810453 0.0940871 0.65708 
0.393352 0.0647759 0.899963 0.720642 0.686326 
0.978487 0.517032 0.318581 0.914609 0.992486 
0.986263 0.333083 0.708304 0.0262597 0.765609 
0.213372 0.483118 0.0483168 0.869764 0.708113 
0.160927 0.917502 0.127408 0.202225 0.265039 
0.683463 0.0539901 0.408451 0.485224 0.375261 
0.43443 0.995039 0.399054 0.326984 0.405423 
0.939984 0.424521 0.0841776 0.223758 0.82277 
0.373453 0.242184 0.861037 0.378514 0.259472 
0.27344 0.93835 0.492372 0.635071 0.679378 
0.0783604 0.815795 0.953749 0.908219 0.632066 
0.0421729 0.570517 0.833986 0.177631 0.931381 
0.036896 0.55374 0.908957 0.196873 0.789226 
0.845502 0.708367 0.483776 0.394867 0.714586 
0.357141 0.0231787 0.261401 0.80441 0.407184 
0.391284 0.179712 0.869166 0.313756 0.611866 
0.975057 0.602564 0.624271 0.237179 0.274263 
0.731284 0.469609 0.990527 0.484651 0.161323 
0.487357 0.642691 0.746199 0.197494 0.887729 
0.955286 0.785016 0.5141 0.608896 0.972536 
0.138111 0.509245 0.563899 0.864289 0.904051 
0.387918 0.717679 0.00176138 0.546904 0.0219955 
0.334395 0.359956 0.321189 0.509322 0.288665 
0.797554 0.871721 0.813739 0.0128054 0.0715506 
0.0928811 0.0866733 0.541726 0.844801 0.681742 
0.233484 0.671893 0.959264 0.810135 0.186483 
0.338857 0.685039 0.529112 0.95037 0.243385 
0.72062 0.383603 0.477323 0.787387 0.609671 
0.89701 0.607054 0.734697 0.651692 0.59314 
0.372058 0.328496 0.236034 0.159909 0.703504 
0.993939 0.907864 0.101188 0.384158 0.919467 
0.0250392 0.045009 0.056165 0.221948 0.932219 
0.0691186 0.265726 0.474587 0.447362 0.996945 
0.45341 0.518942 0.0881214 0.923757 0.216631 
0.471464 0.555303 0.671513 0.690643 0.796967 
0.125666 0.527718 0.736574 0.508774 0.324148 
0.461044 0.860392 0.721006 0.163858 0.209352 
0.463935 0.000242087 0.800236 0.401572 0.268085 
0.931743 0.865493 0.693347 0.746718 0.180806 
0.819353 0.847558 0.386768 0.857598 0.298278 
0.577061 0.319792 0.555076 0.181358 0.566401 
0.984884 0.781076 0.42602 0.566808 0.208787 
0.133337 0.256029 0.546557 0.0150532 0.568759 
0.634408 0.544581 0.216882 0.790201 0.631367 
0.395041 0.529932 0.560788 0.2982 0.907972 
0.774516 0.359191 0.728145 0.386706 0.146097 
0.346491 0.739329 0.880627 0.136201 0.70716 
0.854352 0.066291 0.3735 0.719047 0.612961 
0.917075 0.423145 0.170683 0.280796 0.8399 
0.304211 0.678735 0.904492 0.737922 0.660576 
0.346171 0.851139 0.115401 0.434346 0.725733 
0.0280928 0.215572 0.592616 0.617784 0.784636 
0.35071 0.347611 0.945281 0.873548 0.483744 
0.666437 0.262865 0.248857 0.562163 0.109052 
0.143501 0.574886 0.872809 0.429078 0.646176 
0.326692 0.457669 0.600655 0.822802 0.610914 
0.208997 0.893047 0.689009 0.215933 0.605385 
0.571433 0.932585 0.694547 0.751208 0.287313 
0.239099 0.758942 0.634635 0.204105 0.588127 
0.768419 0.685979 0.0340704 0.856232 0.275006 
0.139165 0.97347 0.614286 0.874644 0.939823 
0.369656 0.102893 0.898267 0.945881 0.991633 
0.47088 0.187001 0.00763236 0.182481 0.95688 
0.993119 0.190512 0.735689 0.949607 0.895213 
0.859619 0.792219 0.255739 0.791401 0.728992 
0.393144 0.740035 0.912111 0.980899 0.712173 
0.34013 0.065196 0.416559 0.423465 0.883036 
0.489891 0.0834676 0.0811046 0.292629 0.0548172 
0.461606 0.0898639 0.0580402 0.409457 0.0428798 
0.968873 0.153586 0.0317727 0.852296 0.270596 
0.095865 0.730494 0.360298 0.982804 0.260269 
0.851748 0.587691 0.0770244 0.489943 0.668093 
0.844368 0.784887 0.00318893 0.692864 0.970088 
0.791391 0.368986 0.148064 0.324335 0.49692 
0.345074 0.75267 0.393182 0.407871 0.357954 
0.780978 0.763333 0.293563 0.456885 0.676697 
0.713609 0.802489 0.87909 0.848708 0.0826619 
0.124313 0.623845 0.894269 0.629654 0.737477 
0.513139 0.66112 0.149176 0.0332922 0.428701 
0.821796 0.230457 0.696136 0.52297 0.269361 
0.104321 0.763758 0.203035 0.917559 0.76338 
0.842795 0.485793 0.140051 0.0808682 0.845018 
0.08183 0.284489 0.432326 0.0929559 0.698991 
0.262671 0.446403 0.128813 0.0382882 0.543591 
0.211939 0.425928 0.290716 0.169968 0.284976 
0.673336 0.0352287 0.502434 0.372398 0.311502 
0.588921 0.929952 0.264844 0.266273 0.382919 
0.0422006 0.0318961 0.0981369 0.0738512 0.343457 
0.628172 0.953439 0.993654 0.725591 0.605903 
0.387565 0.511249 0.512632 0.517796 0.350616 
0.595222 0.921707 0.98609 0.910549 0.845684 
0.812831 0.00878918 0.473437 0.479478 0.227077 
0.18029 0.117679 0.175103 0.620958 0.283243 
0.592893 0.768601 0.915323 0.545681 0.432337 
0.45695 0.383482 0.246896 0.299279 0.740002 
0.256797 0.0880451 0.970995 0.115802 0.379949 
0.784207 0.530038 0.399686 0.458671 0.146002 
0.0944242 0.339987 0.332666 0.697531 0.685799 
0.374695 0.76913 0.0671855 0.38706 0.425116 
0.62293 0.435702 0.781235 0.498513 0.484738 
0.956649 0.65832 0.840003 0.820444 0.392284 
0.48771 0.256482 0.958906 0.997547 0.764042 
0.33548 0.647452 0.404067 0.0464186 0.302329 
0.0679988 0.416045 0.425845 0.507278 0.619607 
0.934822 0.328078 0.273107 0.486504 0.328411 
0.127179 0.0218106 0.348364 0.0522053 0.944296 
0.432603 0.479585 0.68714 0.418933 0.492471 
0.767623 0.534655 0.984623 0.222963 0.945158 
0.971802 0.87314 0.0749012 0.273929 0.532629 
0.846652 0.985025 0.182363 0.455781 0.696226 
0.589671 0.717309 0.407832 0.0402842 0.840949 
0.154681 0.0397871 0.88223 0.511658 0.279448 
0.327701 0.104898 0.66372 0.50183 0.611994 
0.123465 0.582917 0.860461 0.709991 0.238169 
0.81723 0.253222 0.0756992 0.420372 0.84024 
0.908863 0.619957 0.623609 0.774224 0.274315 
0.728433 0.0888156 0.629688 0.200804 0.612706 
0.392891 0.780011 0.398257 0.689508 0.523011 
0.507338 0.984119 0.424974 0.160577 0.365308 
0.820251 0.25281 0.385451 0.554511 0.979159 
0.467116 0.0433875 0.503871 0.629172 0.910413 
0.686248 0.286396 0.0687093 0.416513 0.111636 
0.135355 0.391161 0.435326 0.815707 0.146539 
0.448101 0.137515 0.436382 0.47847 0.483749 
0.369167 0.995521 0.566702 0.607976 0.241841 
0.782321 0.477475 0.322095 0.0749747 0.244752 
0.492239 0.291624 0.231616 0.380674 0.608142 
0.110161 0.0151863 0.419948 0.789683 0.397576 
0.927155 0.37936 0.316021 0.405618 0.616055 
0.793924 0.520242 0.786051 0.175128 0.520442 
0.694075 0.395383 0.32274 0.0820364 0.374993 
0.401184 0.684051 0.991908 0.378831 0.588836 
0.958683 0.218021 0.604992 0.577042 0.483959 
0.687567 0.0947892 0.388822 0.468139 0.585498 
0.839898 0.578066 0.294198 0.379064 0.683642 
0.0214469 0.35242 0.293709 0.550681 0.74015 
0.587115 0.297387 0.0201895 0.185342 0.809032 
0.26935 0.423705 0.815335 0.0090456 0.588677 
0.674544 0.471493 0.0150294 0.439507 0.748317 
0.43357 0.37672 0.103988 0.605635 0.824987 
0.584112 0.519631 0.427315 0.232476 0.345573 
0.64922 0.341079 0.642522 0.14276 0.299772 
0.0114783 0.719728 0.62439 0.465134 0.100786 
0.330606 0.0967345 0.452267 0.23389 0.507088 
0.528247 0.477872 0.951944 0.522198 0.978053 
0.114043 0.184391 0.925961 0.423263 0.485355 
0.80299 0.300599 0.538383 0.0458397 0.255744 
0.906723 0.0888569 0.812356 0.314353 0.552838 
0.51198 0.230201 0.263807 0.454486 0.911836 
0.294129 0.883803 0.644849 0.992435 0.655165 
0.387303 0.357947 0.400254 0.743707 0.908114 
0.75797 0.49022 0.315788 0.862214 0.069 
0.847189 0.60292 0.638781 0.422535 0.227461 
0.581939 0.429097 0.3721 0.416117 0.316981 
0.648342 0.534805 0.999525 0.560496 0.72144 
0.00943442 0.423256 0.318968 0.142317 0.0543338 
0.357668 0.777601 0.995535 0.959243 0.974703 
0.553218 0.874547 0.733566 0.856058 0.0139526 
0.882811 0.311357 0.959237 0.60438 0.526664 
0.55762 0.844453 0.952629 0.529804 0.651059 
0.684092 0.349682 0.298978 0.317142 0.788149 
0.587501 0.0511778 0.677899 0.929565 0.679424 
0.186888 0.594929 0.470893 0.504726 0.910723 
0.122802 0.858562 0.552826 0.0761681 0.783399 
0.346692 0.395922 0.931214 0.658418 0.543253 
0.876192 0.155949 0.263997 0.308685 0.117701 
0.257915 0.192031 0.283448 0.568136 0.330077 
0.911327 0.277931 0.785104 0.246718 0.149944 
0.332053 0.44678 0.0132251 0.159094 0.330761 
0.277857 0.785131 0.391797 0.522003 0.408385 
0.976984 0.41306 0.00246317 0.858224 0.982248 
0.231742 0.560836 0.38055 0.362926 0.23411 
0.326636 0.10865 0.0422377 0.9107 0.195994 
0.932007 0.885363 0.611637 0.378395 0.96975 
0.355789 0.984529 0.230659 0.4315 0.598627 
0.937603 0.0815867 0.455898 0.264456 0.819955 
0.787461 0.678 0.569819 0.9374 0.0234001 
0.275898 0.278243 0.86588 0.382852 0.274692 
0.524983 0.879327 0.382568 0.28895 0.79529 
0.59916 0.202912 0.716166 0.117681 0.327993 
0.649979 0.830978 0.120723 0.33526 0.852609 
0.702588 0.712803 0.956646 0.630165 0.00425868 
0.0586662 0.504107 0.737476 0.577955 0.861982 
0.298612 0.707231 0.0566749 0.308986 0.0294901 
0.0403887 0.340013 0.923248 0.785582 0.598776 
0.6783 0.0566599 0.461703 0.216355 0.351565 
0.0625187 0.67112 0.226011 0.59331 0.0821604 
0.633877 0.221321 0.255991 0.101062 0.782437 
0.615202 0.512813 0.966619 0.757614 0.191116 
0.356508 0.868734 0.0315029 0.753181 0.4736 
0.843071 0.0965272 0.453892 0.533598 0.112547 
0.966156 0.913355 0.537261 0.505189 0.926116 
0.322364 0.967692 0.134513 0.857232 0.584585 
0.914297 0.797788 0.202433 0.289904 0.3192 
0.565713 0.716184 0.562875 0.435473 0.481266 
0.518669 0.342484 0.36959 0.513126 0.810735 
0.0938813 0.740824 0.510087 0.614247 0.119283 
0.344063 0.634185 0.34291 0.889764 0.666948 
0.809976 0.199724 0.976825 0.502607 0.144864 
0.154335 0.194216 0.421406 0.618194 0.81324 
0.368018 0.512625 0.153107 0.881234 0.88981 
0.80279 0.196227 0.705597 0.157307 0.432378 
0.25268 0.606756 0.651335 0.444095 0.0600181 
0.0960644 0.602184 0.283516 0.233803 0.324744 
0.555318 0.847251 0.936086 0.986823 0.570156 
0.370308 0.0868712 0.476748 0.016449 0.179156 
0.414987 0.462883 0.459641 0.0762718 0.427775 
0.0317841 0.939752 0.595768 0.760717 0.940114 
0.700761 0.771781 0.692798 0.800615 0.983217 
0.446272 1.00942e-05 0.213647 0.473461 0.932669 
0.147255 0.667278 0.914441 0.0341553 0.687601 
0.311562 0.641995 0.658211 0.529979 0.842788 
0.125845 0.375398 0.386011 0.521822 0.266015 
0.445347 0.956894 0.102484 0.811104 0.709635 
0.0374298 0.348554 0.983272 0.51145 0.715689 
0.187182 0.187425 0.516782 0.682992 0.739647 
0.924039 0.326483 0.391942 0.606671 0.777573 
0.751991 0.350249 0.696632 0.134867 0.729488 
0.412425 0.579272 0.260156 0.236837 0.169162 
0.446401 0.603756 0.639107 0.718965 0.611447 
0.349294 0.532597 0.897346 0.601446 0.0770889 
0.812547 0.321235 0.399779 0.0351158 0.951015 
0.0656609 0.081579 0.647715 0.878748 0.216293 
0.128015 0.637277 0.90567 0.34524 0.122733 
0.618445 0.665596 0.102334 0.316069 0.890214 
0.526362 0.293977 0.0381407 0.37297 0.348348 
0.104319 0.115153 0.731687 0.88409 0.384522 
0.546674 0.471299 0.196643 0.552493 0.427687 
0.18915 0.990446 0.0112379 0.373619 0.971758 
0.936796 0.704378 0.113065 0.861885 0.567428 
0.867603 0.695661 0.495897 0.986198 0.611745 
0.923488 0.324829 0.324995 0.169126 0.202745 
0.437899 0.385029 0.783218 0.679184 0.297789 
0.404798 0.113868 0.81508 0.397091 0.8441 
0.961481 0.296882 0.725567 0.539176 0.0611715 
0.312492 0.729843 0.835749 0.42601 0.558646 
0.564936 0.150807 0.333842 0.993631 0.636636 
0.0805791 0.470103 0.902399 0.613861 0.856817 
0.754094 0.612029 0.97987 0.0259622 0.865302 
0.936936 0.29779 0.254154 0.980413 0.775714 
0.0418179 0.996456 0.422721 0.192183 0.408449 
0.780949 0.919731 0.81388 0.173168 0.794513 
0.611913 0.693058 0.274903 0.22668 0.246588 
0.859075 0.551426 0.420277 0.859295 0.177685 
0.997279 0.376732 0.0372595 0.473408 0.480173 
0.855149 0.534126 0.255368 0.248295 0.0493817 
0.806643 0.0632631 0.932331 0.0388314 0.433199 
0.924596 0.542425 0.424367 0.128893 0.212902 
0.489674 0.621822 0.511141 0.656919 0.959331 
0.374338 0.433978 0.300727 0.672911 0.969035 
0.21561 0.134585 0.124851 0.956765 0.742766 
0.439081 0.868758 0.887314 0.133115 0.853859 
0.21825 0.296463 0.886947 0.758359 0.775105 
0.965584 0.886141 0.305516 0.0455052 0.968705 
0.781664 0.980126 0.150154 0.18511 0.376063 
0.966827 0.540114 0.854016 0.433684 0.765025 
0.929702 0.428392 0.720918 0.349474 0.40917 
0.733731 0.0288203 0.210472 0.0728848 0.673909 
0.568984 0.648611 0.120081 0.296433 0.235603 
0.818675 0.687073 0.795501 0.805055 0.147175 
0.677099 0.499754 0.777502 0.80846 0.679629 
0.332538 0.40429 0.2771 0.852109 0.998474 
0.264065 0.664505 0.93736 0.451699 0.895669 
0.724994 0.331909 0.795028 0.254678 0.538396 
0.793543 0.575565 0.538985 0.877211 0.314388 
0.400462 0.743095 0.629695 0.449196 0.613861 
0.359607 0.312465 0.040852 0.450965 0.705602 
0.488557 0.0955576 0.724491 0.389255 0.202499 
0.934547 0.724548 0.72847 0.0737797 0.766254 
0.698966 0.0208477 0.8813 0.480132 0.264562 
0.861335 0.100599 0.764395 0.934082 0.96075 
0.771566 0.051359 0.845548 0.183202 0.992365 
0.325492 0.120741 0.337548 0.290147 0.0127563 
0.639759 0.108943 0.368692 0.188846 0.916591 
0.729388 0.766669 0.0126548 0.599396 0.172216 
0.568547 0.550957 0.0234241 0.454554 0.354205 
0.78906 0.676058 0.91129 0.223445 0.560095 
0.97592 0.209333 0.407051 0.921562 0.808893 
0.628061 0.311559 0.382911 0.838102 0.510817 
0.746236 0.677575 0.104046 0.850675 0.466089 
0.311202 0.538387 0.289056 0.063207 0.202427 
0.866545 0.676247 0.413971 0.91177 0.672895 
0.213364 0.352731 0.659656 0.709826 0.969222 
0.747326 0.829264 0.350417 0.121789 0.23819 
0.975716 0.219804 0.79645 0.524284 0.872086 
0.430162 0.0578276 0.353967 0.709142 0.222969 
0.314016 0.0837923 0.0673077 0.0159553 0.865467 
0.249068 0.128859 0.6252 0.518669 0.762356 
0.812792 0.345853 0.617755 0.378773 0.681827 
0.306326 0.420537 0.701989 0.636867 0.384915 
0.644057 0.951079 0.33629 0.853981 0.423709 
0.401894 0.541605 0.903147 0.498035 0.222194 
0.998899 0.97047 0.042073 0.710146 0.524939 
0.791046 0.0190356 0.385966 0.163791 0.189435 
0.583549 0.344934 0.581937 0.534763 0.192375 
0.0527503 0.432505 0.00601768 0.199282 0.468353 
0.22371 0.58629 0.0716883 0.75912 0.839368 
0.838282 0.249221 0.878432 0.364729 0.431386 
0.390826 0.282417 0.970147 0.897939 0.98693 
0.83127 0.0549698 0.63353 0.947364 0.262627 
0.23577 0.354442 0.193103 0.456433 0.33015 
0.415747 0.772551 0.0327869 0.391976 0.89495 
0.698372 0.705843 0.301611 0.196454 0.91377 
0.276237 0.348741 0.928199 0.998985 0.491832 
0.788479 0.826809 0.871692 0.55494 0.0627856 
0.474011 0.071963 0.808883 0.223479 0.314791 
0.593769 0.275387 0.642733 0.596818 0.417722 
0.132922 0.00850459 0.404124 0.294257 0.110549 
0.934558 0.0446901 0.689491 0.777648 0.703548 
0.00542324 0.732829 0.401211 0.748458 0.798311 
0.451883 0.612569 0.368094 0.540878 0.481837 
0.54378 0.360419 0.643533 0.482155 0.909262 
0.446667 0.878602 0.715002 0.827228 0.759341 
0.214293 0.221748 0.286211 0.355352 0.595048 
0.0260599 0.412035 0.477256 0.785672 0.557858 
0.842947 0.0085792 0.0420056 0.128509 0.760583 
0.564426 0.466695 0.495801 0.293062 0.0959065 
0.338959 0.691169 0.837674 0.00800712 0.170661 
0.26319 0.633347 0.349963 0.680296 0.52303 
0.414747 0.107191 0.679393 0.254128 0.901167 
0.633994 0.0840014 0.157168 0.930248 0.658036 
0.537198 0.365349 0.343428 0.733291 0.73141 
0.036951 0.34517 0.491449 0.769482 0.311538 
0.648647 0.0898578 0.307202 0.0631097 0.950956 
0.0332645 0.673611 0.686601 0.398982 0.917607 
0.408454 0.585987 0.719069 0.415789 0.316364 
0.271882 0.289536 0.248593 0.168416 0.552668 
0.706168 0.748456 0.851206 0.41957 0.677655 
0.322554 0.661171 0.839021 0.247997 0.46751 
0.291959 0.667093 0.0766202 0.265506 0.861373 
0.00309518 0.547009 0.239403 0.498889 0.0605669 
0.524247 0.262748 0.15681 0.130624 0.444373 
0.496795 0.356007 0.166812 0.159022 0.772626 
0.0764675 0.628926 0.195837 0.204783 0.378898 
0.329617 0.495979 0.588002 0.417875 0.235635 
0.126414 0.782985 0.671118 0.744283 0.999375 
0.270835 0.340543 0.582047 0.591864 0.494998 
0.245767 0.312778 0.636772 0.218599 0.532645 
0.880603 0.765154 0.47594 0.653155 0.392766 
0.730247 0.468096 0.0146379 0.0984846 0.64916 
0.459772 0.405827 0.550603 0.993372 0.00500246 
0.259188 0.000130311 0.283819 0.169673 0.44866 
0.475011 0.552355 0.310538 0.94487 0.601055 
0.979345 0.418305 0.708433 0.640802 0.248432 
0.819539 0.484861 0.910575 0.643114 0.213107 
0.0479445 0.859462 0.141609 0.261927 0.425135 
0.173235 0.629423 0.269611 0.694991 0.806683 
0.741464 0.0594822 0.161716 0.667274 0.67295 
0.829565 0.94326 0.285656 0.989291 0.851081 
0.798096 0.424925 0.0852377 0.242448 0.175897 
0.0341354 0.0262723 0.714439 0.152997 0.0181845 
0.936659 0.138271 0.000529652 0.270767 0.828439 
0.759916 0.752417 0.170479 0.0662698 0.716 
0.620018 0.640106 0.905703 0.752233 0.65457 
0.841648 0.638643 0.143117 0.103383 0.871541 
0.521949 0.5214 0.229875 0.317834 0.414471 
0.0699339 0.816848 0.531238 0.309493 0.0851424 
0.978109 0.134477 0.343043 0.686091 0.303007 
0.138851 0.723729 0.857626 0.785593 0.672094 
0.970215 0.846136 0.132381 0.741511 0.704609 
0.129159 0.929612 0.0894537 0.203862 0.180538 
0.539534 0.781623 0.421379 0.212334 0.694977 
0.790287 0.0957249 0.45913 0.276769 0.992884 
0.0731504 0.337123 0.568593 0.980152 0.526434 
0.569252 0.81815 0.357454 0.734781 0.590337 
0.836841 0.62605 0.925001 0.793734 0.83967 
0.841567 0.919489 0.420627 0.723321 0.936135 
0.952747 0.0372461 0.838698 0.232232 0.974211 
0.815496 0.402722 0.137671 0.119728 0.0433841 
0.630022 0.28657 0.267761 0.893167 0.182837 
0.106751 0.474525 0.227981 0.748472 0.108689 
0.719418 0.523741 0.544723 0.186579 0.0165453 
0.212175 0.0533232 0.94027 0.5887 0.496657 
0.0193893 0.555301 0.826782 0.685702 0.641548 
0.348596 0.483545 0.139464 0.880082 0.295756 
0.39744 0.832239 0.490473 0.306885 0.0658337 
0.448025 0.960522 0.309272 0.432684 0.800461 
0.583226 0.769228 0.960736 0.298799 0.631154 
0.251696 0.078646 0.346647 0.259493 0.131732 
0.349746 0.608652 0.834355 0.95653 0.308091 
0.998793 0.629335 0.45554 0.850728 0.227046 
0.969056 0.913549 0.200344 0.381789 0.944419 
0.546586 0.311917 0.366495 0.213185 0.0638315 
0.0144451 0.134843 0.807334 0.238157 0.226611 
0.531792 0.606726 0.303373 0.200219 0.0985219 
0.563181 0.102977 0.798825 0.491006 0.530264 
0.106522 0.176269 0.0589202 0.338877 0.734163 
0.584659 0.340335 0.0843925 0.0583965 0.698805 
0.331126 0.309021 0.161937 0.296671 0.580044 
0.37153 0.778601 0.838114 0.98584 0.572627 
0.189929 0.0488607 0.551325 0.558111 0.376123 
0.987619 0.506246 0.952965 0.593205 0.530782 
0.365446 0.600456 0.240845 0.500309 0.497392 
0.513584 0.0431828 0.213338 0.875164 0.541567 
0.684464 0.788843 0.30154 0.704916 0.605506 
0.560504 0.685856 0.238018 0.565727 0.123379 
0.176197 0.297957 0.324412 0.0226449 0.42901 
0.0479373 0.422015 0.960013 0.104916 0.0368329 
0.988847 0.624549 0.362336 0.810814 0.385052 
