3800 5
0.162923 0.968222 0.513137 0.327212 0.8319 
0.0961305 0.425727 0.366813 0.107474 0.614332 
0.203346 0.793147 0.230963 0.676565 0.277004 
0.965855 0.539995 0.586158 0.373243 0.744741 
0.400649 0.46783 0.39424 0.51733 0.434885 
0.459281 0.728902 0.381354 0.998082 0.0539437 
0.725189 0.280092 0.327585 0.344212 0.905134 
0.752163 0.76544 0.0910837 0.773524 0.652673 
0.509325 0.342971 0.512916 0.154439 0.661073 
0.401221 0.517391 0.0386448 0.130605 0.543201 
0.73416 0.247686 0.640763 0.641608 0.0565934 
0.917134 0.287651 0.476187 0.201309 0.620933 
0.942263 0.999494 0.69076 0.523715 0.766941 
0.209228 0.879968 0.952277 0.192751 0.156728 
0.49189 0.271379 0.811486 0.604565 0.80036 
0.239346 0.423685 0.830902 0.488506 0.646228 
0.439981 0.745579 0.856167 0.334599 0.387447 
0.633513 0.711407 0.0491353 0.0169695 0.852034 
0.202632 0.461967 0.656616 0.832603 0.728676 
0.208759 0.189202 0.748982 0.690322 0.912414 
0.014997 0.716157 0.465306 0.0482531 0.0300585 
0.511466 0.127203 0.164162 0.310484 0.613115 
0.981005 0.687171 0.864737 0.74807 0.422969 
0.908798 0.520069 0.950238 0.659951 0.394293 
0.570264 0.520754 0.39242 0.552986 0.682511 
0.214493 0.400218 0.511915 0.846502 0.0929978 
0.47053 0.560393 0.64489 0.956277 0.60949 
0.392635 0.387731 0.695317 0.31236 0.113754 
0.627389 0.503372 0.153612 0.434322 0.253349 
0.182656 0.504206 0.351383 0.878049 0.280651 
0.206519 0.0199598 0.25889 0.66684 0.576557 
0.657158 0.211302 0.513755 0.808641 0.0456595 
0.535047 0.580375 0.279239 0.115687 0.112859 
0.80764 0.268478 0.579503 0.636742 0.252159 
0.34124 0.140789 0.887027 0.0957578 0.700555 
0.279745 0.178886 0.063817 0.852053 0.657639 
0.37405 0.855644 0.78588 0.534464 0.652784 
0.40038 0.791333 0.409726 0.132049 0.490353 
0.225499 0.595232 0.827507 0.540133 0.848146 
0.880341 0.775883 0.859741 0.0282707 0.902953 
0.588489 0.0795228 0.943965 0.254528 0.493818 
0.710067 0.871867 0.0459955 0.524402 0.0165419 
0.687666 0.581398 0.880816 0.127551 0.252053 
0.457753 0.256353 0.790575 0.328793 0.307554 
0.438292 0.880913 0.626053 0.968038 0.584473 
0.740833 0.992476 0.543129 0.910147 0.668136 
0.548884 0.232018 0.76841 0.0475193 0.794034 
0.796436 0.963711 0.947003 0.876884 0.877493 
0.127521 0.339449 0.500235 0.779629 0.530022 
0.708848 0.973508 0.840705 0.400826 0.511148 
0.431737 0.405581 0.220828 0.206431 0.706962 
0.250003 0.0573 0.488666 0.873544 0.53503 
0.993678 0.933119 0.877481 0.781973 0.479802 
0.638724 0.900306 0.0225648 0.139824 0.192666 
0.34008 0.109904 0.882162 0.548233 0.985827 
0.727509 0.819898 0.0959312 0.543133 0.987614 
0.207732 0.0178059 0.531481 0.645714 0.331796 
0.074929 0.298094 0.48273 0.595344 0.936329 
0.694817 0.442124 0.535926 0.0130914 0.107837 
0.323538 0.183479 0.788582 0.00914012 0.233429 
0.670165 0.559977 0.23382 0.339702 0.908401 
0.0160582 0.915064 0.418875 0.0365728 0.0176072 
0.297396 0.515031 0.0641924 0.360225 0.524333 
0.749358 0.691488 0.285845 0.909899 0.42113 
0.95895 0.498892 0.939279 0.891392 0.214794 
0.196026 0.231535 0.758471 0.185337 0.467314 
0.463016 0.312571 0.63294 0.454364 0.962391 
0.685794 0.365348 0.458756 0.19123 0.60064 
0.373174 0.644878 0.484705 0.337741 0.314613 
0.940164 0.499525 0.136074 0.422626 0.162454 
0.825594 0.592413 0.712359 0.627829 0.0606463 
0.193064 0.617886 0.628428 0.0983165 0.319729 
0.73001 0.65785 0.694895 0.401498 0.312612 
0.547002 0.870576 0.463909 0.830702 0.569054 
0.786689 0.319741 0.575977 0.590647 0.231248 
0.67117 0.95613 0.0865403 0.757324 0.137869 
0.762333 0.570989 0.947785 0.95285 0.267411 
0.983842 0.474647 0.137062 0.105259 0.963361 
0.584899 0.303646 0.825526 0.37528 0.153047 
0.491838 0.693272 0.249825 0.915837 0.854654 
0.341497 0.813794 0.61211 0.178078 0.81668 
0.0299115 0.067698 0.83647 0.0593013 0.852373 
0.579277 0.561977 0.777013 0.184542 0.713913 
0.315023 0.0049336 0.575863 0.962611 0.178224 
0.217971 0.596355 0.670985 0.616065 0.481447 
0.220416 0.325474 0.872086 0.23166 0.867017 
0.366643 0.867763 0.190927 0.38946 0.0221126 
0.203716 0.098257 0.715947 0.766711 0.547947 
0.166369 0.741213 0.116036 0.111163 0.202517 
0.365963 0.638963 0.922341 0.241658 0.227522 
0.59718 0.988671 0.201701 0.992011 0.577101 
0.0983467 0.334016 0.575468 0.79291 0.759076 
0.920261 0.227231 0.211924 0.273886 0.903439 
0.301303 0.209114 0.878563 0.583258 0.350905 
0.923756 0.274276 0.836819 0.091804 0.112137 
0.0896292 0.591958 0.404416 0.97084 0.184701 
0.88665 0.724494 0.931209 0.168911 0.0373065 
0.543497 0.161166 0.0236988 0.693559 0.838868 
0.41759 0.322722 0.288108 0.0276322 0.118004 
0.892101 0.693514 0.443958 0.539745 0.680929 
0.129402 0.474378 0.0489908 0.699517 0.869347 
0.258992 0.47219 0.18845 0.1468 0.381321 
0.602876 0.722101 0.784646 0.20638 0.850879 
0.778391 0.217391 0.816124 0.788121 0.287807 
0.598508 0.0414194 0.373568 0.903053 0.79948 
0.17586 0.858482 0.132766 0.236027 0.730753 
0.74881 0.767498 0.461991 0.0895759 0.0265698 
0.142442 0.145841 0.51633 0.570738 0.795768 
0.56855 0.462983 0.211904 0.368102 0.392267 
0.81243 0.266446 0.0850273 0.746789 0.922015 
0.8662 0.0663232 0.0962123 0.510048 0.97512 
0.760586 0.453948 0.616085 0.854362 0.0804571 
0.242184 0.126253 0.179203 0.865504 0.0522076 
0.211808 0.667859 0.984974 0.75047 0.313889 
0.579758 0.738007 0.356598 0.125443 0.572428 
0.039171 0.172602 0.341712 0.852437 0.561951 
0.641034 0.870689 0.239149 0.655089 0.34212 
0.883057 0.238275 0.657881 0.3034 0.31649 
0.294466 0.651728 0.288718 0.735637 0.331946 
0.850968 0.535802 0.695297 0.769522 0.803824 
0.0921926 0.693194 0.0366471 0.422427 0.261336 
0.892911 0.520703 0.11197 0.923658 0.368049 
0.351197 0.277018 0.343323 0.759666 0.243322 
0.276995 0.275266 0.492144 0.909922 0.311905 
0.361456 0.478179 0.267674 0.10446 0.156761 
0.051712 0.925439 0.788913 0.0755226 0.782468 
0.666827 0.292489 0.356918 0.450196 0.886743 
0.370465 0.246243 0.251202 0.937889 0.705206 
0.886425 0.795714 0.752271 0.525224 0.0291014 
0.299407 0.523217 0.352663 0.856358 0.875152 
0.55334 0.558959 0.413652 0.893611 0.138506 
0.596748 0.965389 0.0992651 0.430808 0.610791 
0.0154793 0.789927 0.217699 0.372609 0.671752 
0.721087 0.306092 0.792039 0.727972 0.285587 
0.56092 0.251166 0.462338 0.576244 0.441337 
0.997252 0.915655 0.53321 0.169073 0.983811 
0.237855 0.16548 0.289134 0.656302 0.643658 
0.456438 0.323717 0.430063 0.587911 0.51689 
0.309413 0.0223828 0.426517 0.401799 0.21106 
0.911816 0.218396 0.403872 0.426727 0.331063 
0.0157814 0.556258 0.592019 0.736987 0.769919 
0.371744 0.645843 0.58173 0.628727 0.108752 
0.0161446 0.122592 0.626752 0.497041 0.167367 
0.778243 0.506886 0.14618 0.116638 0.129949 
0.385803 0.664571 0.14823 0.813008 0.29694 
0.890291 0.35084 0.039316 0.801135 0.264792 
0.43636 0.272844 0.237649 0.688194 0.451668 
0.306216 0.685322 0.553729 0.852163 0.00940946 
0.988065 0.592056 0.124245 0.271687 0.933375 
0.385327 0.952886 0.314799 0.542657 0.79817 
0.935879 0.678465 0.184808 0.336497 0.639533 
0.482761 0.129824 0.709064 0.249914 0.915175 
0.518871 0.312999 0.343875 0.597569 0.551052 
0.483243 0.274703 0.473075 0.435699 0.606142 
0.178635 0.664149 0.247912 0.511957 0.250009 
0.958293 0.248303 0.536527 0.58272 0.120514 
0.19089 0.0547576 0.652142 0.937972 0.910149 
0.5153 0.528615 0.605251 0.458814 0.689282 
0.940989 0.376366 0.776157 0.864133 0.825782 
0.373298 0.00389052 0.939855 0.992204 0.699345 
0.626456 0.157611 0.488191 0.169662 0.325669 
0.675664 0.53089 0.0884288 0.0536576 0.692138 
0.778439 0.847137 0.647421 0.683208 0.134551 
0.286241 0.991978 0.659316 0.453823 0.184315 
0.751694 0.51501 0.285223 0.0425185 0.597817 
0.267284 0.406166 0.191922 0.912557 0.00927377 
0.62631 0.872063 0.890382 0.126366 0.221291 
0.743378 0.727624 0.677296 0.400383 0.832564 
0.99419 0.973349 0.511356 0.516236 0.560679 
0.401182 0.263652 0.309203 0.448836 0.493231 
0.32678 0.908148 0.180854 0.686256 0.62228 
0.729235 0.62822 0.862149 0.596865 0.276815 
0.770467 0.232005 0.782249 0.325715 0.488648 
0.831801 0.267316 0.238186 0.825508 0.347562 
0.249241 0.77991 0.323042 0.801155 0.964961 
0.910328 0.0156125 0.450414 0.860161 0.914636 
0.465795 0.642394 0.734397 0.454901 0.386399 
0.162996 0.189525 0.142227 0.813739 0.458063 
0.405066 0.827897 0.232448 0.213431 0.648276 
0.103203 0.969137 0.871584 0.410321 0.476195 
0.0143924 0.239354 0.840395 0.458028 0.078479 
0.575983 0.385196 0.240438 0.0772746 0.130132 
0.874831 0.631872 0.418899 0.57775 0.0415665 
0.892628 0.594408 0.870385 0.184307 0.575959 
0.505655 0.947933 0.856782 0.920595 0.770202 
0.450172 0.368648 0.50136 0.143499 0.0726215 
0.769169 0.155047 0.87407 0.293671 0.256915 
0.912306 0.614188 0.308588 0.692134 0.241672 
0.231358 0.987942 0.72885 0.283428 0.386156 
0.691753 0.56214 0.218251 0.418275 0.701724 
0.733708 0.947466 0.878256 0.792176 0.762726 
0.987453 0.0794088 0.843524 0.576335 0.750111 
0.403079 0.954841 0.229032 0.296833 0.663346 
0.732296 0.514787 0.696306 0.920707 0.770164 
0.528081 0.150232 0.909394 0.237364 0.27666 
0.0118864 0.993864 0.165776 0.914975 0.45972 
0.850733 0.434311 0.430423 0.214952 0.822214 
0.629391 0.191905 0.993272 0.838452 0.937974 
0.841781 0.972053 0.0645556 0.0271287 0.473038 
0.164276 0.913805 0.293594 0.898484 0.256306 
0.770719 0.162504 0.847916 0.404938 0.47106 
0.117868 0.876385 0.528242 0.434362 0.481299 
0.879074 0.477942 0.778783 0.724749 0.117183 
0.45886 0.69307 0.977068 0.272207 0.256466 
0.618335 0.916056 0.652045 0.686174 0.128664 
0.520773 0.242242 0.229536 0.0024484 0.898579 
0.679358 0.262093 0.379511 0.23814 0.450365 
0.307485 0.74526 0.667615 0.290909 0.208865 
0.459384 0.727332 0.252511 0.780223 0.791082 
0.81736 0.881822 0.581314 0.121518 0.0866776 
0.51022 0.694086 0.933967 0.851721 0.220106 
0.769827 0.379069 0.918153 0.133691 0.56328 
0.288548 0.701591 0.265594 0.695927 0.0182332 
0.60945 0.679614 0.246541 0.22818 0.497608 
0.125386 0.396137 0.419789 0.27234 0.757971 
0.937075 0.807977 0.905872 0.211611 0.454025 
0.27873 0.627802 0.903671 0.512357 0.956446 
0.0675268 0.473756 0.585009 0.839135 0.0325255 
0.555759 0.528373 0.847383 0.56522 0.64858 
0.876404 0.737132 0.917179 0.336607 0.450941 
0.335889 0.566814 0.502536 0.14717 0.241869 
0.325516 0.0379306 0.550344 0.849781 0.0699555 
0.748133 0.372079 0.132917 0.580811 0.878162 
0.963736 0.700288 0.775232 0.500586 0.592817 
0.695184 0.304931 0.659165 0.233486 0.670815 
0.65645 0.289395 0.37156 0.434206 0.237543 
0.139112 0.639682 0.203627 0.0204275 0.770042 
0.284606 0.851332 0.237108 0.702656 0.469865 
0.610701 0.280167 0.701355 0.526145 0.0941414 
0.710289 0.377964 0.392461 0.444157 0.57919 
0.960501 0.567871 0.682064 0.891484 0.919113 
0.275567 0.494737 0.302663 0.203769 0.0895236 
0.0114986 0.352043 0.784301 0.442482 0.801511 
0.285202 0.32333 0.534703 0.446622 0.0123162 
0.0347381 0.616124 0.342466 0.885626 0.140514 
0.363728 0.12611 0.0165895 0.679563 0.879974 
0.934734 0.612061 0.668644 0.216466 0.444086 
0.217588 0.577726 0.0648994 0.67372 0.379539 
0.0174874 0.891318 0.751124 0.717777 0.0883208 
0.0307867 0.44851 0.599124 0.00679436 0.204633 
0.215281 0.705328 0.792244 0.305143 0.854961 
0.309296 0.344624 0.10326 0.0666159 0.579025 
0.528737 0.331971 0.800302 0.228465 0.839107 
0.394564 0.0564285 0.561198 0.777088 0.986631 
0.396496 0.672618 0.603135 0.756647 0.933564 
0.0584839 0.957668 0.14428 0.937197 0.274615 
0.0739484 0.996592 0.188794 0.981636 0.869827 
0.975916 0.842945 0.154209 0.477504 0.970866 
0.995483 0.589786 0.205453 0.96304 0.385326 
0.572918 0.935025 0.583501 0.25174 0.348263 
0.951065 0.719416 0.63404 0.184472 0.771286 
0.575407 0.773741 0.453162 0.830888 0.0327304 
0.137247 0.406814 0.876285 0.442035 0.093175 
0.451362 0.317298 0.936212 0.300185 0.0403851 
0.974776 0.486548 0.319085 0.488375 0.815319 
0.594816 0.356444 0.613046 0.786407 0.513096 
0.716122 0.135092 0.139521 0.434917 0.329835 
0.76125 0.565384 0.551504 0.0555574 0.931703 
0.0734285 0.791657 0.126721 0.555049 0.339895 
0.03158 0.601201 0.562496 0.410232 0.495171 
0.773899 0.945776 0.162897 0.539136 0.307308 
0.825791 0.201765 0.0913824 0.467514 0.406493 
0.998077 0.0160221 0.30465 0.166626 0.910024 
0.0424529 0.925315 0.87249 0.561711 0.658591 
0.967384 0.496149 0.843562 0.390373 0.409777 
0.0462573 0.0129267 0.0937088 0.439319 0.315314 
0.0924905 0.287583 0.677769 0.490976 0.978531 
0.0579003 0.360841 0.931507 0.572727 0.89844 
0.168429 0.945417 0.418374 0.559654 0.216508 
0.543483 0.701696 0.872236 0.970991 0.872996 
0.906899 0.941968 0.075079 0.610984 0.485742 
0.824845 0.787026 0.668386 0.675739 0.0450591 
0.834253 0.991039 0.615988 0.361883 0.986761 
0.67958 0.938377 0.0596833 0.284996 0.0681276 
0.0553698 0.073441 0.757796 0.79061 0.830776 
0.892689 0.130967 0.886043 0.816508 0.191217 
0.813645 0.400504 0.745691 0.781816 0.752102 
0.0195882 0.323476 0.0204186 0.481083 0.92058 
0.355604 0.164918 0.880718 0.000429513 0.680617 
0.571464 0.824248 0.570095 0.841066 0.959374 
0.53489 0.0223565 0.162418 0.0470727 0.0993362 
0.345802 0.272894 0.327662 0.555965 0.367194 
0.244594 0.728254 0.906548 0.712829 0.708687 
0.688063 0.754947 0.208463 0.758491 0.546857 
0.196121 0.386932 0.522375 0.846949 0.189675 
0.877159 0.75134 0.123672 0.78906 0.427181 
0.508855 0.0636435 0.769547 0.910424 0.858984 
0.579957 0.142764 0.230371 0.85126 0.135458 
0.487851 0.85307 0.790197 0.253138 0.988893 
0.852909 0.903383 0.626547 0.792779 0.405357 
0.521719 0.894016 0.613197 0.0165469 0.868542 
0.954828 0.781097 0.521347 0.615013 0.969129 
0.649559 0.161976 0.288871 0.863886 0.110158 
0.499911 0.777714 0.741978 0.818917 0.67199 
0.662937 0.406056 0.180815 0.788401 0.539277 
0.410986 0.665029 0.368393 0.061306 0.164861 
0.569409 0.363309 0.423596 0.745301 0.134633 
0.974171 0.430669 0.45797 0.745303 0.708256 
0.809295 0.986915 0.772125 0.0913462 0.103254 
0.275604 0.115678 0.912935 0.290973 0.575378 
0.160501 0.135517 0.492652 0.833813 0.865738 
0.0441861 0.871571 0.27991 0.429594 0.741546 
0.886687 0.570614 0.0707465 0.16051 0.202036 
0.496189 0.430149 0.266071 0.159774 0.699824 
0.211556 0.640405 0.81723 0.397825 0.887949 
0.300017 0.0787058 0.953997 0.618752 0.406114 
0.14469 0.792157 0.717085 0.979839 0.85842 
0.124199 0.177848 0.147863 0.828631 0.06746 
0.541609 0.390955 0.921861 0.582944 0.76296 
0.0702094 0.905086 0.408638 0.134024 0.260653 
0.599993 0.213869 0.948753 0.0675146 0.392765 
0.826463 0.173366 0.810399 0.0228726 0.0243903 
0.0589783 0.205658 0.571678 0.916774 0.0499018 
0.623965 0.972115 0.763508 0.147314 0.496945 
0.0502101 0.47666 0.539359 0.964238 0.0812745 
0.156773 0.658648 0.418697 0.757106 0.629288 
0.602145 0.720174 0.908521 0.643964 0.841203 
0.534371 0.142897 0.715826 0.814359 0.364717 
0.643639 0.202466 0.523597 0.696707 0.404344 
0.66768 0.841485 0.013934 0.71497 0.05316 
0.974486 0.57225 0.198509 0.811364 0.783611 
0.314225 0.416748 0.830191 0.0732171 0.132505 
0.657644 0.123829 0.372093 0.319544 0.85674 
0.71363 0.463357 0.194953 0.841646 0.40535 
0.828066 0.543604 0.974547 0.601415 0.46655 
0.86437 0.258418 0.433489 0.45976 0.411275 
0.0134397 0.594061 0.0910203 0.332689 0.471916 
0.218305 0.151453 0.69741 0.48533 0.112335 
0.862773 0.897533 0.011238 0.129922 0.961111 
0.785289 0.22763 0.550059 0.194397 0.662459 
0.198081 0.812678 0.500815 0.939488 0.561557 
0.127832 0.0926753 0.500927 0.903401 0.0217435 
0.922473 0.722734 0.688513 0.670483 0.650203 
0.0126562 0.315014 0.382742 0.0527737 0.21453 
0.883323 0.0008928 0.483192 0.940936 0.600272 
0.946099 0.602883 0.0407022 0.69383 0.380753 
0.0423949 0.449474 0.754013 0.326161 0.596173 
0.442405 0.810162 0.14699 0.552686 0.420424 
0.989187 0.363492 0.906847 0.32195 0.628689 
0.759065 0.643835 0.438519 0.970473 0.464645 
0.829836 0.337477 0.969308 0.36033 0.498893 
0.28766 0.66301 0.147847 0.558807 0.691329 
0.268519 0.64695 0.275665 0.760607 0.0199329 
0.40738 0.250781 0.401368 0.496011 0.621689 
0.0818814 0.489277 0.00533176 0.964585 0.742477 
0.0684838 0.0261682 0.889953 0.410672 0.635928 
0.832437 0.412607 0.0490336 0.151837 0.013673 
0.638587 0.953655 0.908007 0.205748 0.571447 
0.822016 0.605522 0.698645 0.669536 0.870696 
0.048823 0.61485 0.159416 0.268161 0.980637 
0.468851 0.0733426 0.93004 0.873609 0.505389 
0.0432626 0.482432 0.120559 0.184209 0.09871 
0.762061 0.64162 0.254521 0.761157 0.774764 
0.10178 0.102909 0.543088 0.722478 0.236351 
0.348503 0.871365 0.177849 0.729433 0.389173 
0.454521 0.00785327 0.537315 0.313519 0.75873 
0.179186 0.455876 0.382694 0.388497 0.0890711 
0.593688 0.341933 0.13783 0.924289 0.0711047 
0.940983 0.172168 0.152555 0.297142 0.487994 
0.843641 0.0450491 0.411296 0.602756 0.470718 
0.666706 0.105649 0.0443237 0.27092 0.335814 
0.212636 0.809454 0.18502 0.493188 0.554012 
0.220836 0.824843 0.822847 0.372745 0.218681 
0.627414 0.0110945 0.177127 0.460292 0.838269 
0.639976 0.0841804 0.955738 0.0962796 0.44485 
0.464864 0.607719 0.497486 0.919189 0.286372 
0.304495 0.478324 0.313403 0.0491756 0.860801 
0.4018 0.580964 0.501979 0.14673 0.0217662 
0.229798 0.836438 0.650453 0.895558 0.526217 
0.835877 0.194473 0.556925 0.550366 0.359924 
0.688925 0.927779 0.704468 0.915852 0.370132 
0.387324 0.86207 0.814237 0.249263 0.379037 
0.332013 0.411972 0.7282 0.468881 0.0403176 
0.41664 0.858706 0.0859366 0.472635 0.260213 
0.201219 0.190162 0.280204 0.430564 0.35755 
0.644819 0.0588214 0.872283 0.176749 0.301901 
0.17844 0.0233652 0.124252 0.277427 0.430971 
0.180362 0.970026 0.863838 0.820989 0.184935 
0.240155 0.144866 0.0282 0.154635 0.827796 
0.416517 0.858922 0.945921 0.750444 0.0231565 
0.321822 0.657949 0.211802 0.508232 0.103996 
0.598509 0.675286 0.44501 0.0804647 0.918425 
0.450978 0.666922 0.738912 0.379683 0.0817779 
0.741351 0.690857 0.765728 0.951982 0.158771 
0.192542 0.443363 0.154969 0.321688 0.0781066 
0.495787 0.413114 0.551983 0.749986 0.249391 
0.85349 0.698599 0.0768351 0.208784 0.627922 
0.269939 0.411487 0.846021 0.924328 0.835947 
0.499532 0.412709 0.442587 0.383017 0.641899 
0.0531568 0.396993 0.495367 0.528763 0.0886834 
0.410968 0.648714 0.384289 0.350806 0.918517 
0.243016 0.383185 0.890686 0.999616 0.336401 
0.394125 0.719534 0.988265 0.825614 0.766034 
0.0819353 0.953233 0.220765 0.0902829 0.257009 
0.230654 0.529892 0.39277 0.600928 0.869471 
0.2899 0.438883 0.677587 0.731425 0.442455 
0.353358 0.499234 0.972076 0.935576 0.475824 
0.0803584 0.327049 0.768245 0.264602 0.890029 
0.392964 0.554432 0.388482 0.7628 0.370138 
0.380423 0.879773 0.872932 0.916559 0.670679 
0.749726 0.883 0.474597 0.619019 0.198396 
0.749581 0.869383 0.793704 0.478221 0.527695 
0.896942 0.956862 0.530806 0.215433 0.599357 
0.787172 0.0439593 0.525339 0.296378 0.626531 
0.439585 0.928835 0.885874 0.600717 0.572655 
0.257909 0.82218 0.380252 0.509194 0.0473299 
0.351308 0.912834 0.365628 0.629816 0.888519 
0.850968 0.659685 0.967492 0.28471 0.687641 
0.414421 0.062121 0.627439 0.210146 0.179242 
0.991845 0.780631 0.68102 0.807707 0.410411 
0.221699 0.859753 0.625947 0.536913 0.391659 
0.706873 0.296872 0.883874 0.366084 0.986772 
0.635075 0.665893 0.699319 0.62495 0.607877 
0.516898 0.332504 0.876358 0.141147 0.548859 
0.50483 0.320183 0.923607 0.738144 0.000760341 
0.0930497 0.181743 0.115321 0.0737723 0.962672 
0.5812 0.769427 0.0759637 0.131829 0.826726 
0.782896 0.216475 0.581507 0.073517 0.984394 
0.566898 0.332729 0.565031 0.325166 0.563565 
0.332497 0.0126914 0.71353 0.615933 0.617616 
0.393657 0.0629277 0.439463 0.0897453 0.47716 
0.117429 0.449306 0.619481 0.606933 0.0288164 
0.457818 0.0505084 0.0933032 0.488167 0.337461 
0.796637 0.0535452 0.155792 0.523915 0.78324 
0.0994528 0.920344 0.345792 0.772575 0.419111 
0.21693 0.595518 0.612769 0.677416 0.722897 
0.913691 0.194126 0.96772 0.9841 0.674137 
0.442299 0.0363013 0.337057 0.10261 0.650105 
0.573159 0.141424 0.0908566 0.0747181 0.26307 
0.902216 0.675288 0.0190324 0.857358 0.227327 
0.164035 0.669088 0.68498 0.408098 0.809595 
0.805777 0.201102 0.0812479 0.540056 0.144035 
0.320996 0.462789 0.0378327 0.955295 0.10128 
0.753628 0.725899 0.582923 0.733105 0.746705 
0.75531 0.707216 0.187457 0.417383 0.962758 
0.0801907 0.236057 0.00920392 0.727148 0.824687 
0.48633 0.487391 0.809524 0.46944 0.0927729 
0.0313627 0.290922 0.669378 0.753009 0.252291 
0.728605 0.454735 0.223458 0.915304 0.920844 
0.0278148 0.836298 0.399188 0.19187 0.0800215 
0.750391 0.960005 0.460738 0.0136409 0.878317 
0.16759 0.98743 0.381408 0.544965 0.671439 
0.748325 0.494833 0.337232 0.823827 0.457989 
0.54416 0.678195 0.16787 0.597147 0.808218 
0.639241 0.585159 0.131534 0.933047 0.594598 
0.184329 0.391139 0.346888 0.395038 0.850653 
0.101421 0.902499 0.85382 0.735324 0.703174 
0.305797 0.200116 0.501826 0.952789 0.717538 
0.873771 0.76353 0.839921 0.853704 0.843643 
0.944679 0.249914 0.546486 0.87642 0.997399 
0.323798 0.834507 0.882652 0.66166 0.24465 
0.626428 0.795364 0.219578 0.717443 0.734978 
0.793918 0.261786 0.297303 0.177267 0.841765 
0.87729 0.360933 0.0038732 0.270825 0.100423 
0.138843 0.783612 0.976413 0.159532 0.686457 
0.725657 0.153129 0.751908 0.101744 0.139627 
0.0506236 0.357606 0.369793 0.782817 0.657277 
0.788228 0.88037 0.112634 0.905299 0.527984 
0.491792 0.0995566 0.0645264 0.704188 0.992863 
0.457514 0.95955 0.173069 0.436293 0.354291 
0.731889 0.0656507 0.925216 0.651841 0.329594 
0.106271 0.851599 0.269673 0.478486 0.063751 
0.328159 0.456552 0.646205 0.862973 0.92452 
0.465363 0.393905 0.132728 0.154312 0.402208 
0.790826 0.357163 0.617109 0.910362 0.412891 
0.357877 0.47402 0.187819 0.446084 0.584859 
0.51625 0.886124 0.419414 0.666491 0.341641 
0.320904 0.790518 0.0790982 0.383804 0.808474 
0.528133 0.11251 0.730227 0.816537 0.324126 
0.447607 0.724529 0.581874 0.466818 0.243365 
0.714718 0.652393 0.677751 0.421147 0.217078 
0.578117 0.708205 0.659216 0.802179 0.533137 
0.694075 0.486361 0.101242 0.794064 0.779906 
0.514203 0.546497 0.222291 0.404693 0.519706 
0.159884 0.115476 0.388207 0.501301 0.132708 
0.470279 0.742601 0.424751 0.949212 0.468564 
0.67949 0.319428 0.0844435 0.0878775 0.819668 
0.257571 0.950532 0.658115 0.387086 0.167178 
0.583157 0.665459 0.485088 0.112582 0.865884 
0.33956 0.828638 0.105454 0.277638 0.549212 
0.935039 0.593252 0.866964 0.765217 0.859723 
0.299233 0.0434412 0.198722 0.0661746 0.211657 
0.289036 0.667791 0.863947 0.744255 0.225256 
0.690682 0.715206 0.543719 0.966865 0.945361 
0.647794 0.599861 0.418418 0.804552 0.721309 
0.111416 0.500272 0.755359 0.585248 0.123206 
0.00309235 0.35772 0.792079 0.674673 0.978926 
0.43927 0.772331 0.181177 0.0560029 0.657389 
0.871206 0.0614324 0.144819 0.0769888 0.829111 
0.00232463 0.191892 0.115864 0.369823 0.453781 
0.054219 0.789161 0.690935 0.985219 0.40997 
0.88635 0.0431532 0.297188 0.0740067 0.409143 
0.454803 0.732665 0.857424 0.0641417 0.877355 
0.495328 0.236675 0.094437 0.717246 0.0382013 
0.931177 0.490378 0.932138 0.291571 0.830765 
0.955262 0.811128 0.826252 0.388014 0.248069 
0.950171 0.314138 0.296216 0.0211056 0.242341 
0.293575 0.907684 0.769263 0.719348 0.02699 
0.987843 0.192492 0.00185287 0.607353 0.971011 
0.89453 0.128187 0.182071 0.885536 0.292903 
0.988209 0.86885 0.0967235 0.167766 0.776834 
0.321677 0.353066 0.334338 0.28703 0.865558 
0.510554 0.544476 0.348962 0.149623 0.739786 
0.247815 0.207871 0.573581 0.978188 0.0903788 
0.279615 0.693262 0.454874 0.992519 0.648615 
0.38623 0.525946 0.880937 0.293313 0.502339 
0.190512 0.255503 0.324469 0.854376 0.904147 
0.64736 0.573814 0.453755 0.511039 0.960394 
0.452423 0.877549 0.722391 0.76573 0.654905 
0.0745723 0.54893 0.435899 0.738195 0.119795 
0.702957 0.457366 0.109388 0.589366 0.2149 
0.125787 0.213586 0.0281919 0.0667679 0.716771 
0.0283621 0.796254 0.570981 0.332276 0.724867 
0.768462 0.773725 0.286385 0.512049 0.600184 
0.250407 0.451095 0.888972 0.826438 0.832225 
0.448126 0.146888 0.595511 0.465088 0.641606 
0.785179 0.751467 0.572033 0.836853 0.693938 
0.745716 0.700736 0.645115 0.755786 0.854346 
0.33552 0.159034 0.844616 0.124848 0.979017 
0.816051 0.208994 0.506714 0.178885 0.0417442 
0.895657 0.969214 0.650404 0.320988 0.769919 
0.797357 0.794231 0.666053 0.253938 0.754792 
0.380719 0.633132 0.798697 0.115194 0.14603 
0.493018 0.810237 0.114601 0.434315 0.328211 
0.465496 0.65765 0.461731 0.437189 0.380806 
0.626159 0.329649 0.940707 0.44734 0.487172 
0.0655079 0.332825 0.0211845 0.851623 0.0816054 
0.559812 0.167012 0.313507 0.46049 0.753694 
0.42432 0.0317778 0.321413 0.352458 0.853115 
0.558132 0.117088 0.986983 0.587454 0.563202 
0.944304 0.0184972 0.0754546 0.2573 0.901515 
0.40978 0.513725 0.434319 0.825237 0.787893 
0.164753 0.150039 0.602033 0.446891 0.751868 
0.883186 0.932872 0.720462 0.573018 0.988524 
0.337465 0.533072 0.541403 0.354951 0.351207 
0.119875 0.626173 0.823297 0.0889773 0.212147 
0.435059 0.302512 0.148246 0.134477 0.225164 
0.560449 0.6722 0.339906 0.953471 0.317366 
0.831972 0.177031 0.924353 0.575862 0.295022 
0.219146 0.346665 0.848255 0.118201 0.858356 
0.319596 0.382561 0.956806 0.155588 0.39558 
0.286719 0.0767835 0.320279 0.728394 0.54416 
0.717483 0.563464 0.569448 0.535643 0.342041 
0.702565 0.541933 0.47907 0.848418 0.481175 
0.828507 0.269706 0.456983 0.522988 0.909619 
0.411056 0.140218 0.580934 0.825505 0.208672 
0.812711 0.993719 0.316877 0.170856 0.212782 
0.750088 0.968678 0.448105 0.699597 0.269696 
0.452488 0.570222 0.911544 0.355144 0.583589 
0.31722 0.69149 0.0945289 0.232687 0.410724 
0.300062 0.0838421 0.0384994 0.627297 0.758573 
0.421425 0.130951 0.955002 0.0140831 0.0519637 
0.25007 0.433268 0.900909 0.637765 0.710375 
0.719447 0.31387 0.172508 0.87213 0.0467411 
0.792958 0.627089 0.812677 0.309938 0.359583 
0.288786 0.73722 0.550007 0.153644 0.99058 
0.871934 0.272139 0.293374 0.70614 0.457527 
0.0837731 0.558866 0.504576 0.813225 0.264131 
0.239984 0.0125304 0.190465 0.5393 0.557233 
0.00838105 0.369936 0.532651 0.15359 0.00397883 
0.332321 0.648859 0.698619 0.818601 0.918558 
0.106447 0.280162 0.0942913 0.782061 0.213187 
0.0477109 0.146211 0.41622 0.411261 0.406023 
0.184959 0.630359 0.637681 0.286076 0.924643 
0.536747 0.886359 0.929664 0.516675 0.364665 
0.405313 0.555805 0.193645 0.654124 0.579562 
0.750325 0.907816 0.951539 0.792134 0.465009 
0.797326 0.612031 0.366592 0.882766 0.204385 
0.888484 0.766803 0.979318 0.126675 0.818548 
0.442562 0.653742 0.201352 0.806316 0.582684 
0.155691 0.941077 0.896704 0.253024 0.018296 
0.282575 0.0926594 0.62791 0.596894 0.948998 
0.837323 0.569261 0.162034 0.648784 0.318862 
0.290358 0.552274 0.931716 0.110826 0.985932 
0.440928 0.632568 0.824916 0.723523 0.886618 
0.800521 0.323717 0.899634 0.238175 0.401273 
0.140243 0.670073 0.494411 0.0034269 0.65213 
0.728843 0.983568 0.65028 0.408836 0.761723 
0.266122 0.893983 0.554732 0.203874 0.450801 
0.655397 0.921278 0.98396 0.578072 0.0188176 
0.229775 0.859084 0.457472 0.842006 0.976445 
0.459221 0.459485 0.570484 0.0447539 0.658022 
0.900629 0.410427 0.696967 0.582447 0.507977 
0.634683 0.288915 0.971544 0.703052 0.0714661 
0.705059 0.428158 0.84857 0.0313802 0.289306 
0.166959 0.903152 0.252256 0.000726955 0.601592 
0.331448 0.753334 0.162264 0.0885978 0.282188 
0.359907 0.205957 0.970328 0.0486911 0.790668 
0.670123 0.473654 0.157539 0.326387 0.935149 
0.816113 0.427192 0.64229 0.380098 0.622032 
0.089119 0.495679 0.0304832 0.16936 0.263784 
0.586971 0.886148 0.306455 0.218132 0.843974 
0.927536 0.890164 0.129516 0.749744 0.941689 
0.69288 0.202812 0.516953 0.929161 0.338355 
0.630782 0.922597 0.726538 0.55578 0.870158 
0.980098 0.462909 0.025227 0.369196 0.121103 
0.150133 0.103578 0.58145 0.747601 0.678056 
0.249152 0.863962 0.368087 0.148907 0.358331 
0.847192 0.764855 0.67388 0.433377 0.248636 
0.886293 0.0170971 0.218924 0.222828 0.844373 
0.692355 0.442397 0.932478 0.544093 0.761553 
0.909207 0.792789 0.87904 0.156704 0.488328 
0.862866 0.960823 0.640245 0.926208 0.402714 
0.636044 0.513606 0.846238 0.809114 0.757817 
0.960844 0.704446 0.772044 0.817218 0.582082 
0.771311 0.069498 0.672861 0.642869 0.700516 
0.425429 0.865931 0.858305 0.819207 0.766812 
0.920725 0.177714 0.638167 0.998715 0.466347 
0.868165 0.577264 0.758707 0.101062 0.521265 
0.853706 0.366612 0.321505 0.835161 0.600358 
0.396209 0.871551 0.232701 0.339679 0.828468 
0.974332 0.939498 0.840067 0.466802 0.451079 
0.342286 0.70238 0.315851 0.146343 0.131084 
0.451884 0.259269 0.0634294 0.6426 0.352078 
0.2239 0.0885632 0.818123 0.217671 0.233174 
0.267648 0.721868 0.976376 0.736919 0.348104 
0.43959 0.842429 0.371231 0.210979 0.215958 
0.947259 0.99382 0.265628 0.0995539 0.00959252 
0.371811 0.443644 0.469095 0.00977 0.690565 
0.51587 0.596303 0.545682 0.748714 0.905891 
0.738527 0.210662 0.357274 0.569004 0.845106 
0.966389 0.45297 0.917085 0.514447 0.0647591 
0.791382 0.86647 0.747373 0.531616 0.514683 
0.114493 0.705155 0.473154 0.0152907 0.37768 
0.247884 0.550352 0.0175791 0.735876 0.989909 
0.728664 0.650622 0.507886 0.970394 0.845933 
0.24109 0.284002 0.900634 0.0580012 0.993089 
0.231843 0.639439 0.189447 0.4181 0.163216 
0.838719 0.133194 0.343542 0.693402 0.480119 
0.576665 0.173361 0.312675 0.705528 0.438043 
0.622394 0.253712 0.312616 0.977985 0.600312 
0.0429478 0.803741 0.632961 0.734136 0.942297 
0.492375 0.22446 0.798728 0.293431 0.939497 
0.493181 0.564419 0.558386 0.196577 0.200745 
0.210887 0.0275131 0.742942 0.449543 0.489748 
0.360636 0.0791054 0.918343 0.490184 0.416601 
0.223496 0.644231 0.752207 0.241803 0.0408798 
0.459326 0.997219 0.679799 0.802985 0.865202 
0.449196 0.0208632 0.00745805 0.740226 0.401512 
0.440808 0.508642 0.423479 0.773504 0.675888 
0.511685 0.236814 0.659919 0.505605 0.496759 
0.341287 0.348787 0.114339 0.125218 0.845054 
0.105876 0.784559 0.227562 0.837803 0.563851 
0.806158 0.993984 0.243074 0.118016 0.592337 
0.736242 0.237264 0.941904 0.382109 0.437503 
0.624425 0.158396 0.491909 0.260328 0.445054 
0.958054 0.0367621 0.629857 0.671423 0.744656 
0.807377 0.246129 0.236631 0.126696 0.0501223 
0.520148 0.979316 0.891551 0.194067 0.555461 
0.0403045 0.458959 0.0143677 0.747535 0.773026 
0.695975 0.968193 0.91203 0.459169 0.0286588 
0.562844 0.409306 0.388552 0.365447 0.540109 
0.955838 0.678728 0.27346 0.351568 0.692727 
0.39886 0.22839 0.457361 0.221012 0.475807 
0.583388 0.149322 0.748252 0.248253 0.30662 
0.719126 0.299262 0.0111281 0.0233015 0.252075 
0.620425 0.557641 0.141079 0.93322 0.309806 
0.426711 0.0451991 0.779372 0.77539 0.1038 
0.705083 0.267581 0.395977 0.515522 0.646459 
0.773479 0.369683 0.841806 0.487691 0.449334 
0.897812 0.508395 0.796004 0.292815 0.653913 
0.763857 0.350145 0.742787 0.632871 0.843372 
0.477343 0.538803 0.573637 0.383126 0.786212 
0.826492 0.303734 0.667718 0.724403 0.612749 
0.690573 0.0324711 0.721853 0.373637 0.437786 
0.532088 0.946763 0.977211 0.455131 0.257452 
0.0669899 0.737986 0.487792 0.244085 0.929372 
0.989746 0.938276 0.151989 0.602218 0.193554 
0.626354 0.106744 0.162598 0.963941 0.534846 
0.492362 0.377122 0.785375 0.989119 0.235521 
0.992365 0.846874 0.157628 0.12398 0.345714 
0.371303 0.518125 0.145445 0.950734 0.0553973 
0.749266 0.176462 0.887826 0.656721 0.452489 
0.559934 0.115322 0.0110846 0.565414 0.702206 
0.945988 0.465562 0.652138 0.576968 0.57043 
0.0930599 0.676923 0.958054 0.59466 0.755218 
0.44915 0.443342 0.344051 0.234881 0.845849 
0.968773 0.412471 0.0065431 0.517393 0.149523 
0.917517 0.374783 0.458438 0.567358 0.439279 
0.329901 0.422647 0.277173 0.0412977 0.0431107 
0.68479 0.661517 0.800497 0.146624 0.121857 
0.041874 0.319045 0.0957637 0.573434 0.815405 
0.143505 0.770069 0.437103 0.635939 0.912762 
0.839133 0.404364 0.0134491 0.226732 0.652465 
0.791764 0.470931 0.887482 0.602055 0.526108 
0.0867249 0.978031 0.441572 0.356713 0.505082 
0.38673 0.307137 0.761912 0.279623 0.491665 
0.829379 0.41528 0.120353 0.494743 0.66242 
0.847901 0.541673 0.547185 0.226934 0.92496 
0.955417 0.00841183 0.694942 0.68266 0.193047 
0.793726 0.323659 0.314651 0.442325 0.984739 
0.761223 0.674658 0.0510088 0.706993 0.688363 
0.903205 0.693427 0.941654 0.879991 0.0919399 
0.141047 0.409708 0.151894 0.289199 0.920747 
0.000759455 0.524021 0.217786 0.891234 0.354166 
0.1913 0.926706 0.392617 0.62689 0.339963 
0.122081 0.517412 0.975951 0.648339 0.852288 
0.403953 0.0114595 0.432695 0.0296095 0.623031 
0.901461 0.777769 0.530469 0.19507 0.958153 
0.279864 0.209703 0.0399529 0.97531 0.779768 
0.736688 0.36145 0.16656 0.700156 0.124438 
0.730748 0.312323 0.593548 0.355808 0.502931 
0.764672 0.570454 0.0965948 0.0836526 0.968043 
0.0422132 0.23506 0.855162 0.221248 0.411929 
0.961543 0.262594 0.341393 0.975088 0.83062 
0.958486 0.2425 0.7328 0.317672 0.440638 
0.80795 0.173734 0.224307 0.872017 0.607261 
0.423384 0.98665 0.636863 0.0689384 0.662829 
0.905276 0.446831 0.465148 0.686836 0.109239 
0.60881 0.296211 0.216526 0.260089 0.607748 
0.168062 0.749032 0.907093 0.940196 0.622167 
0.767526 0.61962 0.409014 0.261996 0.629394 
0.32468 0.985433 0.515905 0.908097 0.631726 
0.976878 0.943578 0.399169 0.451404 0.204481 
0.351157 0.347643 0.9834 0.719232 0.706745 
0.23971 0.548628 0.277338 0.910191 0.984945 
0.609863 0.0619313 0.132204 0.745628 0.98828 
0.708346 0.458631 0.766834 0.901086 0.925362 
0.607228 0.704305 0.825212 0.689677 0.691507 
0.974074 0.585021 0.649498 0.485987 0.453856 
0.943355 0.900395 0.34175 0.631905 0.457079 
0.329208 0.0497806 0.0309767 0.232366 0.16399 
0.628234 0.872881 0.0843772 0.920313 0.310837 
0.473944 0.687885 0.768282 0.04993 0.560083 
0.00451523 0.624362 0.849734 0.255697 0.56035 
0.352067 0.0263135 0.989921 0.813852 0.982916 
0.633242 0.940797 0.427914 0.645103 0.160613 
0.793664 0.231236 0.0810614 0.240291 0.737999 
0.244414 0.215598 0.0563089 0.731688 0.374383 
0.609438 0.207143 0.836649 0.260133 0.279074 
0.613562 0.598388 0.11311 0.582256 0.977494 
0.964418 0.767603 0.461026 0.16497 0.779106 
0.609663 0.774178 0.89555 0.354986 0.951956 
0.546007 0.263843 0.632457 0.72968 0.694402 
0.55027 0.765587 0.430738 0.560242 0.357715 
0.72313 0.902048 0.530938 0.358353 0.836765 
0.285164 0.533254 0.203266 0.00554085 0.694512 
0.00182683 0.511863 0.482379 0.881238 0.768489 
0.823921 0.31927 0.822071 0.072343 0.901867 
0.99467 0.128745 0.0579087 0.223988 0.168556 
0.254261 0.0429534 0.217584 0.810626 0.0360164 
0.397401 0.941232 0.172838 0.663016 0.862873 
0.608923 0.615461 0.214455 0.848025 0.868162 
0.749904 0.948267 0.133159 0.434738 0.2066 
0.556713 0.321165 0.319232 0.459455 0.980969 
0.435289 0.407444 0.494436 0.214873 0.505912 
0.820461 0.00200023 0.315173 0.614172 0.332783 
0.625953 0.77835 0.0964417 0.137722 0.775827 
0.953946 0.95249 0.605895 0.237215 0.897714 
0.0214757 0.165088 0.770268 0.773507 0.837183 
0.187367 0.70796 0.866712 0.985558 0.83659 
0.952337 0.141302 0.680298 0.336793 0.674299 
0.368253 0.052439 0.419312 0.982202 0.284314 
0.375519 0.748417 0.30492 0.62805 0.317122 
0.68995 0.284395 0.284695 0.961537 0.0137243 
0.35859 0.00328544 0.805887 0.717043 0.35721 
0.875073 0.174103 0.578722 0.572536 0.801297 
0.132664 0.268807 0.0961431 0.856347 0.0788845 
0.918812 0.0590603 0.476655 0.269811 0.978822 
0.64591 0.591389 0.34249 0.422131 0.478122 
0.137185 0.281974 0.528623 0.9338 0.953165 
0.766879 0.40431 0.335469 0.618355 0.727854 
0.992159 0.980433 0.11832 0.888527 0.402977 
0.619896 0.440074 0.215268 0.638601 0.234813 
0.511157 0.964062 0.493212 0.617525 0.0972996 
0.877641 0.474421 0.179625 0.792903 0.015452 
0.672735 0.724793 0.155795 0.851325 0.176734 
0.663729 0.870974 0.946127 0.0210118 0.376038 
0.0938614 0.640263 0.78981 0.91939 0.713249 
0.393205 0.684073 0.662213 0.798759 0.23075 
0.976019 0.0285083 0.95465 0.147096 0.22434 
0.189536 0.867179 0.749287 0.485877 0.431916 
0.147295 0.603684 0.132104 0.163431 0.450004 
0.0326923 0.99751 0.211072 0.188457 0.691898 
0.722778 0.733401 0.458839 0.0745025 0.0706432 
0.312996 0.925159 0.707542 0.851144 0.393475 
0.60501 0.197328 0.434392 0.786798 0.493318 
0.815118 0.569757 0.950681 0.0423827 0.0529682 
0.0229741 0.7178 0.413374 0.300237 0.311038 
0.809926 0.524803 0.383426 0.569498 0.772322 
0.300978 0.820043 0.269614 0.113179 0.503645 
0.778143 0.828768 0.642955 0.214383 0.87957 
0.294192 0.136288 0.191282 0.0839386 0.331603 
0.662914 0.506239 0.922386 0.40844 0.814756 
0.725965 0.940905 0.651548 0.00543448 0.419239 
0.166308 0.703935 0.13989 0.76716 0.345887 
0.348965 0.717068 0.812922 0.624973 0.0264798 
0.44924 0.678119 0.288146 0.703505 0.282131 
0.662621 0.737844 0.502963 0.244721 0.967188 
0.347937 0.631984 0.879889 0.479248 0.536916 
0.182614 0.724606 0.325601 0.806159 0.12176 
0.215634 0.0818909 0.123239 0.78979 0.462354 
0.259696 0.0775244 0.458088 0.444296 0.978286 
0.107091 0.175549 0.459244 0.297845 0.813838 
0.394209 0.935485 0.490123 0.644046 0.480534 
0.162677 0.198011 0.135303 0.900764 0.828373 
0.349996 0.736946 0.259001 0.28571 0.708574 
0.827837 0.314392 0.824455 0.598372 0.00316924 
0.63823 0.802414 0.124589 0.476734 0.453629 
0.863386 0.546304 0.0515672 0.902803 0.0650389 
0.920572 0.558997 0.700525 0.955584 0.0364592 
0.0657723 0.361432 0.761821 0.136973 0.0381174 
0.969339 0.453904 0.206565 0.0614169 0.106894 
0.0537706 0.506758 0.788691 0.433022 0.569429 
0.825513 0.534004 0.62883 0.619381 0.823072 
0.572305 0.522614 0.585925 0.968098 0.405645 
0.553892 0.0360555 0.108448 0.343917 0.168835 
0.720113 0.270489 0.835699 0.123853 0.86421 
0.642564 0.246714 0.301394 0.492587 0.835145 
0.17806 0.049735 0.487899 0.514388 0.276869 
0.418512 0.493695 0.763889 0.857004 0.792938 
0.661888 0.667524 0.054856 0.174361 0.952452 
0.981726 0.815305 0.271192 0.33259 0.855134 
0.78401 0.715232 0.753055 0.367235 0.70235 
0.888115 0.686858 0.616887 0.586174 0.0825104 
0.384925 0.240337 0.903235 0.928602 0.843753 
0.588422 0.938537 0.847251 0.299009 0.695604 
0.7283 0.919527 0.175295 0.555465 0.296642 
0.312868 0.225256 0.532432 0.331662 0.803061 
0.105843 0.926378 0.318631 0.488671 0.240587 
0.618563 0.52344 0.884819 0.627011 0.231403 
0.545249 0.170249 0.649382 0.955421 0.790842 
0.242084 0.77087 0.634375 0.63585 0.430226 
0.606725 0.933521 0.503375 0.039547 0.926418 
0.968394 0.137303 0.981772 0.00609605 0.968432 
0.4637 0.507972 0.946176 0.279289 0.0117562 
0.0974943 0.34192 0.418503 0.157226 0.117737 
0.507816 0.730287 0.141915 0.373516 0.665981 
0.908438 0.15329 0.635189 0.882908 0.446134 
0.312246 0.664987 0.484718 0.898075 0.984968 
0.376229 0.269286 0.166523 0.859061 0.851568 
0.0378175 0.802929 0.733328 0.258878 0.0885971 
0.316832 0.00553962 0.255282 0.395485 0.0345386 
0.0393102 0.20992 0.142577 0.853554 0.889201 
0.481739 0.644834 0.44971 0.566718 0.00134529 
0.0192247 0.363866 0.0945627 0.981886 0.816879 
0.0374049 0.456329 0.062445 0.0804641 0.425665 
0.6057 0.864135 0.911616 0.616965 0.975828 
0.507838 0.377355 0.0147536 0.277024 0.113287 
0.748218 0.15583 0.514158 0.788216 0.555109 
0.556066 0.069509 0.124308 0.013171 0.49302 
0.266806 0.744895 0.607461 0.80066 0.463663 
0.319776 0.902276 0.313363 0.852233 0.45458 
0.665061 0.577147 0.537745 0.577721 0.528772 
0.354449 0.235389 0.770229 0.617895 0.591079 
0.671886 0.0769668 0.981825 0.584543 0.558331 
0.75398 0.483118 0.907636 0.168452 0.641218 
0.289758 0.286493 0.505782 0.815936 0.42686 
0.721099 0.617128 0.330449 0.504869 0.63755 
0.27054 0.294322 0.97038 0.115561 0.600132 
0.954232 0.383211 0.263572 0.888017 0.701293 
0.251215 0.735813 0.932502 0.0579799 0.829104 
0.546017 0.199028 0.775305 0.866177 0.600472 
0.231911 0.0666627 0.786815 0.179781 0.378653 
0.926177 0.291301 0.926578 0.869089 0.619747 
0.912446 0.287568 0.762344 0.00701954 0.435406 
0.901926 0.28761 0.0995302 0.131177 0.151633 
0.295896 0.525645 0.342157 0.259077 0.202203 
0.602711 0.915875 0.851088 0.550796 0.567598 
0.223027 0.791839 0.37577 0.558669 0.924621 
0.896076 0.921981 0.217944 0.34874 0.789657 
0.36966 0.928236 0.0170305 0.745031 0.573611 
0.023659 0.0762643 0.153058 0.19328 0.476654 
0.936454 0.781583 0.429665 0.663884 0.773972 
0.133791 0.274263 0.110038 0.74579 0.987007 
0.27967 0.489232 0.410429 0.558162 0.572041 
0.889905 0.567779 0.786585 0.757843 0.600192 
0.901571 0.862204 0.261304 0.267172 0.733121 
0.535884 0.160945 0.434574 0.434057 0.193699 
0.703331 0.369452 0.850743 0.169035 0.66614 
0.112058 0.00244006 0.199174 0.176128 0.973145 
0.941655 0.218406 0.850518 0.178831 0.0769641 
0.941014 0.542328 0.846101 0.0159891 0.284555 
0.665009 0.960805 0.0826267 0.518549 0.281568 
0.634472 0.925939 0.000455208 0.887544 0.933308 
0.164465 0.361745 0.572538 0.383658 0.0428403 
0.900127 0.153586 0.463883 0.608527 0.666322 
0.0163773 0.17305 0.661742 0.177294 0.372531 
0.328405 0.503781 0.929667 0.00506158 0.484416 
0.0842683 0.221707 0.952774 0.287255 0.731924 
0.206871 0.487661 0.72939 0.0448362 0.809739 
0.387708 0.871792 0.115035 0.0133576 0.848899 
0.356525 0.585553 0.195231 0.304818 0.599537 
0.0508273 0.00175309 0.605526 0.874911 0.391318 
0.15344 0.166499 0.00930845 0.0882691 0.646737 
0.445234 0.988971 0.406789 0.350404 0.233522 
0.366447 0.138695 0.313323 0.805667 0.727832 
0.711571 0.581082 0.467489 0.922372 0.285461 
0.58798 0.478478 0.174567 0.150338 0.404975 
0.821234 0.0232869 0.454323 0.866486 0.0278002 
0.583985 0.539143 0.701169 0.0594955 0.665143 
0.205416 0.660783 0.640047 0.81994 0.837635 
0.765088 0.638808 0.73038 0.205795 0.923632 
0.903015 0.278037 0.310619 0.296981 0.798708 
0.522551 0.0120903 0.301332 0.532315 0.831803 
0.932296 0.730263 0.910371 0.698451 0.41114 
0.379089 0.0311704 0.821556 0.649795 0.695494 
0.451999 0.965752 0.00659048 0.613365 0.704667 
0.487889 0.288812 0.389615 0.324723 0.519133 
0.539984 0.961067 0.386278 0.83701 0.0621994 
0.0368034 0.940702 0.4142 0.210197 0.0311898 
0.168589 0.808086 0.861481 0.544049 0.199873 
0.77295 0.731108 0.173185 0.348232 0.602346 
0.61402 0.872523 0.734925 0.922735 0.578565 
0.587139 0.655488 0.85772 0.152525 0.284824 
0.126832 0.689109 0.676248 0.723789 0.557106 
0.745484 0.463027 0.3642 0.0937661 0.0619034 
0.324114 0.999198 0.941483 0.875797 0.75688 
0.875193 0.527444 0.0315739 0.85511 0.265024 
0.481457 0.0192572 0.51255 0.748451 0.27268 
0.053506 0.577574 0.823086 0.155425 0.526808 
0.715649 0.577032 0.0790082 0.0748042 0.756773 
0.6267 0.897588 0.632935 0.825441 0.392884 
0.951677 0.473602 0.0884321 0.767331 0.467398 
0.412344 0.915923 0.0759091 0.484948 0.94992 
0.410319 0.982059 0.954037 0.292855 0.0208459 
0.437389 0.347683 0.67528 0.700405 0.1108 
0.857731 0.829145 0.312833 0.681924 0.471192 
0.333588 0.0999359 0.364636 0.606249 0.559658 
0.276123 0.810301 0.183628 0.0380735 0.316946 
0.0811224 0.302675 0.547323 0.579703 0.762812 
0.46369 0.73128 0.0033495 0.817273 0.223139 
0.950004 0.631373 0.645974 0.991174 0.653239 
0.384654 0.377772 0.949245 0.698023 0.750191 
0.424233 0.452189 0.517971 0.793771 0.351953 
0.255393 0.546986 0.00426389 0.149047 0.715358 
0.77211 0.617565 0.879516 0.587643 0.748644 
0.244384 0.55516 0.115753 0.892626 0.219365 
0.0573115 0.053232 0.827937 0.277734 0.395762 
0.164215 0.0985964 0.0400385 0.389878 0.659492 
0.337697 0.0123965 0.300195 0.423969 0.495178 
0.567396 0.853612 0.105725 0.0358528 0.122586 
0.42151 0.877617 0.859771 0.155081 0.0149801 
0.779603 0.665266 0.957653 0.238984 0.838589 
0.490527 0.0898986 0.336199 0.662083 0.446621 
0.569375 0.0611092 0.154869 0.453191 0.619101 
0.234853 0.13348 0.614036 0.588875 0.22611 
0.956653 0.466458 0.847242 0.0380157 0.472768 
0.962492 0.202382 0.105631 0.911822 0.429677 
0.611859 0.569353 0.331735 0.846126 0.51143 
0.691513 0.645655 0.592197 0.0478455 0.548229 
0.231244 0.858909 0.754166 0.550221 0.355812 
0.30264 0.364123 0.906943 0.340626 0.0435866 
0.0301373 0.101522 0.867369 0.099697 0.910635 
0.188712 0.550431 0.537736 0.516666 0.773588 
0.51122 0.880941 0.826742 0.546517 0.640648 
0.802261 0.306118 0.936246 0.230605 0.987411 
0.768693 0.262573 0.855558 0.3377 0.625266 
0.628823 0.905005 0.455893 0.758633 0.130981 
0.290541 0.594348 0.251417 0.49327 0.0441928 
0.289079 0.852704 0.546546 0.617438 0.308555 
0.677528 0.421906 0.370452 0.0265225 0.739374 
0.928524 0.847514 0.661954 0.243615 0.367687 
0.941649 0.935215 0.164793 0.61411 0.945689 
0.600451 0.0035633 0.274104 0.643914 0.418068 
0.442342 0.736688 0.657989 0.0301526 0.0115713 
0.55375 0.114828 0.938745 0.991294 0.572629 
0.915842 0.530969 0.388689 0.303477 0.00867899 
0.763846 0.0484989 0.969741 0.560621 0.968794 
0.561749 0.444888 0.259092 0.101398 0.892153 
0.799857 0.781442 0.0644081 0.529578 0.338068 
0.878489 0.920023 0.343519 0.347696 0.390812 
0.239499 0.856921 0.598153 0.786121 0.276598 
0.00111871 0.410818 0.293748 0.127295 0.623573 
0.10625 0.813773 0.611202 0.635687 0.974748 
0.993556 0.999803 0.949527 0.945926 0.415698 
0.121906 0.640665 0.71507 0.979745 0.444358 
0.00421604 0.313068 0.24358 0.807326 0.99232 
0.295827 0.843215 0.796032 0.473297 0.877284 
0.559174 0.133525 0.719109 0.579983 0.602598 
0.941352 0.0816371 0.981321 0.542141 0.403353 
0.666056 0.234904 0.720895 0.377639 0.377189 
0.379562 0.820069 0.110139 0.988938 0.200118 
0.151081 0.270494 0.240093 0.030736 0.533708 
0.94682 0.838308 0.862541 0.317771 0.627348 
0.751688 0.845764 0.26908 0.62501 0.678828 
0.873914 0.839691 0.688163 0.213369 0.668079 
0.892929 0.440311 0.822572 0.193144 0.751008 
0.453581 0.290393 0.15757 0.193884 0.447374 
0.191556 0.0143547 0.121846 0.0548567 0.445797 
0.0817257 0.335703 0.162305 0.691514 0.147609 
0.0850294 0.348239 0.237431 0.866568 0.337505 
0.790493 0.582024 0.269526 0.24062 0.16198 
0.699386 0.926301 0.0240628 0.641402 0.699962 
0.380894 0.0890639 0.429611 0.166515 0.25041 
0.944803 0.767239 0.173727 0.449784 0.538022 
0.582145 0.529228 0.534641 0.953954 0.565876 
0.194803 0.827116 0.682734 0.925035 0.417198 
0.511344 0.716386 0.260608 0.343701 0.965263 
0.651673 0.52035 0.978588 0.539739 0.358761 
0.844812 0.627086 0.881162 0.732123 0.512771 
0.125829 0.177655 0.103242 0.664297 0.783386 
0.913738 0.836867 0.101686 0.330339 0.295721 
0.959091 0.150036 0.389853 0.422975 0.545529 
0.565236 0.748674 0.841915 0.0445059 0.0473768 
0.415836 0.881617 0.794294 0.720205 0.598037 
0.371974 0.450582 0.949773 0.765856 0.717984 
0.653932 0.202028 0.370016 0.225624 0.168101 
0.465039 0.25174 0.886815 0.745517 0.286876 
0.619877 0.138276 0.840152 0.162614 0.117976 
0.292645 0.348933 0.491435 0.683616 0.21119 
0.811346 0.767406 0.108875 0.93382 0.79195 
0.718487 0.658967 0.4377 0.488067 0.852938 
0.250341 0.539586 0.499243 0.909183 0.248328 
0.272634 0.597836 0.131998 0.959461 0.48181 
0.495342 0.425637 0.73883 0.258896 0.307299 
0.7143 0.4325 0.371542 0.442729 0.160331 
0.889829 0.653483 0.966735 0.0241326 0.126443 
0.571828 0.553507 0.210313 0.426558 0.978208 
0.275798 0.0417317 0.689845 0.101885 0.450624 
0.204724 0.948045 0.645275 0.753656 0.935417 
0.605393 0.561672 0.327968 0.17404 0.914378 
0.984395 0.628825 0.516862 0.00298829 0.43476 
0.505615 0.823316 0.573658 0.156282 0.275839 
0.94897 0.390126 0.511673 0.690979 0.214884 
0.577333 0.712668 0.44781 0.0233298 0.418149 
0.338971 0.805547 0.23802 0.231469 0.515189 
0.568826 0.486021 0.802435 0.559876 0.144558 
0.801399 0.128194 0.350411 0.742772 0.489665 
0.0663383 0.906078 0.562444 0.138786 0.724 
0.426524 0.558948 0.317773 0.331633 0.163037 
0.901374 0.84229 0.831462 0.935794 0.63991 
0.0702778 0.0358208 0.330742 0.687509 0.963764 
0.407542 0.506363 0.288246 0.867002 0.801343 
0.2542 0.304001 0.32283 0.16682 0.119806 
0.716807 0.38394 0.486262 0.972075 0.034767 
0.218506 0.309369 0.604694 0.136622 0.726853 
0.325048 0.681425 0.297661 0.390579 0.21991 
0.705534 0.514597 0.199771 0.920086 0.71509 
0.574491 0.590921 0.405003 0.569216 0.832943 
0.0302975 0.614038 0.760663 0.923581 0.761132 
0.904419 0.082054 0.24689 0.640578 0.590762 
0.628145 0.719029 0.348215 0.267312 0.627889 
0.160385 0.640911 0.00803588 0.376813 0.954503 
0.282415 0.59331 0.328444 0.178904 0.408344 
0.243729 0.687065 0.143835 0.5607 0.778185 
0.647394 0.475068 0.313239 0.13949 0.635849 
0.823373 0.690247 0.384438 0.40344 0.791852 
0.533713 0.0166052 0.81478 0.721373 0.953419 
0.0805546 0.103417 0.0104839 0.0733633 0.907418 
0.546195 0.0281838 0.081141 0.921651 0.961579 
0.509091 0.966786 0.615663 0.943241 0.620063 
0.44936 0.978655 0.404082 0.122133 0.122067 
