3600 5
0.756203 0.635482 0.529431 0.97642 0.425831 
0.839748 0.447523 0.621561 0.61026 0.0484068 
0.461932 0.545062 0.209483 0.501151 0.715671 
0.102082 0.650111 0.927941 0.498237 0.452059 
0.447768 0.56859 0.253986 0.182494 0.147367 
0.372649 0.237794 0.0317533 0.244705 0.497619 
0.702826 0.22292 0.901453 0.938982 0.316144 
0.498253 0.630738 0.0678579 0.25797 0.853666 
0.521172 0.894198 0.609922 0.237693 0.914108 
0.280354 0.425144 0.548298 0.876167 0.492149 
0.204304 0.742381 0.230692 0.184387 0.259239 
0.0376313 0.172958 0.376898 0.979214 0.110757 
0.611962 0.92642 0.076816 0.302834 0.613274 
0.237087 0.329914 0.746474 0.914111 0.795638 
0.270616 0.52285 0.804176 0.060951 0.684362 
0.616004 0.020917 0.0134551 0.299643 0.99446 
0.983505 0.794738 0.64409 0.0183126 0.334303 
0.61663 0.0657082 0.382505 0.366532 0.545831 
0.462724 0.892072 0.613992 0.315345 0.5739 
0.320142 0.539543 0.475368 0.621192 0.405523 
0.586018 0.971738 0.0976379 0.210446 0.345504 
0.842237 0.43068 0.970883 0.615231 0.0921031 
0.701926 0.657146 0.445316 0.779149 0.571471 
0.819733 0.522404 0.767683 0.254167 0.66186 
0.904797 0.440758 0.95084 0.89888 0.79457 
0.83102 0.896115 0.425273 0.787081 0.743532 
0.466281 0.518546 0.789448 0.54825 0.880102 
0.420611 0.917609 0.722939 0.653945 0.284729 
0.688755 0.886285 0.0794702 0.883435 0.320859 
0.420129 0.877907 0.699088 0.376499 0.290465 
0.325678 0.509041 0.654667 0.830611 0.807926 
0.411753 0.717769 0.916779 0.631312 0.291708 
0.444402 0.344335 0.865123 0.368967 0.256627 
0.837254 0.135841 0.63378 0.402938 0.88965 
0.971748 0.306019 0.366654 0.962196 0.511909 
0.161324 0.470482 0.205651 0.6291 0.21457 
0.684868 0.194524 0.39773 0.387284 0.256368 
0.0796428 0.736701 0.655772 0.513945 0.10718 
0.610806 0.14647 0.723594 0.203684 0.76361 
0.166835 0.709493 0.730749 0.912951 0.712022 
0.182743 0.251443 0.690845 0.966809 0.433804 
0.576449 0.129009 0.702587 0.734939 0.319348 
0.261362 0.565494 0.613759 0.296377 0.923735 
0.554064 0.325339 0.839998 0.630106 0.358867 
0.761009 0.858932 0.318453 0.557897 0.819525 
0.617624 0.947995 0.474815 0.671144 0.847471 
0.0322515 0.458513 0.410111 0.511551 0.931198 
0.375478 0.212382 0.49423 0.692158 0.579215 
0.0704728 0.610997 0.196188 0.945918 0.139211 
0.0968969 0.214256 0.537073 0.792666 0.280861 
0.633479 0.349506 0.976231 0.460837 0.394885 
0.219879 0.979015 0.906076 0.622418 0.732953 
0.224108 0.26044 0.573035 0.000336593 0.70192 
0.880025 0.10173 0.936772 0.429541 0.112207 
0.0329316 0.15325 0.924617 0.848716 0.516644 
0.779926 0.0771412 0.78018 0.0676191 0.819511 
0.589514 0.35755 0.783781 0.327607 0.231135 
0.213638 0.982072 0.370132 0.259102 0.639312 
0.631961 0.00380895 0.221288 0.819567 0.467793 
0.115287 0.208592 0.458033 0.647385 0.345628 
0.972105 0.0808124 0.347758 0.367497 0.231074 
0.00156298 0.370212 0.635997 0.730351 0.958275 
0.98633 0.32668 0.355869 0.111625 0.68318 
0.689248 0.311694 0.259507 0.908863 0.136114 
0.687545 0.731706 0.749153 0.932013 0.22055 
0.673031 0.630042 0.424417 0.408666 0.0950623 
0.838202 0.898679 0.0364652 0.176761 0.695086 
0.743749 0.0586552 0.0104311 0.291716 0.628475 
0.19313 0.633777 0.302893 0.0264771 0.568462 
0.620307 0.881184 0.891379 0.340381 0.499517 
0.460424 0.31421 0.786508 0.839805 0.422641 
0.942123 0.582982 0.332276 0.538242 0.464421 
0.328552 0.949442 0.752948 0.589877 0.0980384 
0.50868 0.221338 0.427208 0.549276 0.126824 
0.219389 0.0364467 0.836386 0.00909109 0.671006 
0.407733 0.565161 0.669394 0.453212 0.301374 
0.0792485 0.373554 0.304476 0.798155 0.823203 
0.879619 0.328782 0.474232 0.295345 0.986579 
0.548148 0.803488 0.0234341 0.79892 0.608593 
0.855109 0.276576 0.385349 0.854505 0.511992 
0.255587 0.921361 0.811003 0.495995 0.136905 
0.719809 0.440154 0.0851831 0.454111 0.354804 
0.17937 0.400738 0.484384 0.587693 0.0885644 
0.770567 0.897406 0.739833 0.460821 0.701917 
0.632905 0.0316836 0.0129462 0.23624 0.018968 
0.721345 0.561287 0.392435 0.183227 0.494056 
0.244497 0.12304 0.171274 0.827686 0.475215 
0.783359 0.729224 0.678066 0.83938 0.457347 
0.511997 0.246709 0.961268 0.249303 0.835732 
0.398476 0.446312 0.52067 0.23386 0.399901 
0.53102 0.344367 0.641794 0.0571495 0.805216 
0.946811 0.405878 0.893486 0.465793 0.817065 
0.364086 0.473583 0.678844 0.367936 0.160025 
0.922618 0.0218126 0.727595 0.96022 0.802228 
0.562024 0.115102 0.898088 0.30023 0.0726258 
0.0514128 0.951121 0.858057 0.480075 0.0320442 
0.910474 0.12119 0.750878 0.633899 0.58023 
0.362519 0.422148 0.638376 0.129463 0.77397 
0.814205 0.493225 0.593183 0.252884 0.733147 
0.537145 0.267939 0.0283306 0.844743 0.745218 
0.76175 0.286206 0.945627 0.489766 0.417834 
0.213604 0.185791 0.405167 0.243731 0.95279 
0.18666 0.222929 0.265967 0.698587 0.73886 
0.70504 0.0337095 0.172866 0.772436 0.394616 
0.775411 0.201768 0.232542 0.341524 0.666709 
0.519578 0.443564 0.0212898 0.261599 0.678211 
0.985607 0.436805 0.283674 0.893594 0.256294 
0.310667 0.484816 0.694588 0.201496 0.462944 
0.721841 0.78601 0.280608 0.277215 0.393405 
0.380894 0.789597 0.67427 0.619987 0.0884749 
0.277068 0.779091 0.200091 0.451708 0.219321 
0.582598 0.00076041 0.849138 0.989691 0.519424 
0.36884 0.781234 0.749542 0.376805 0.0925943 
0.568648 0.473638 0.506539 0.839184 0.284008 
0.878336 0.638847 0.909477 0.177683 0.713424 
0.42616 0.515144 0.531958 0.514278 0.336161 
0.814291 0.587411 0.943342 0.273751 0.534893 
0.571245 0.108035 0.190678 0.445575 0.623527 
0.57556 0.632824 0.247646 0.47284 0.37834 
0.712876 0.480432 0.93463 0.476468 0.791353 
0.067408 0.0385414 0.928695 0.523915 0.877954 
0.456576 0.246637 0.767237 0.387617 0.166043 
0.858999 0.893401 0.45238 0.849908 0.343809 
0.718836 0.695792 0.47286 0.500104 0.421408 
0.343935 0.157111 0.623435 0.105238 0.776701 
0.794593 0.583028 0.0582851 0.917387 0.857993 
0.810926 0.730388 0.168558 0.174433 0.477384 
0.0648186 0.100485 0.317553 0.385123 0.530346 
0.376091 0.680718 0.303334 0.548212 0.833366 
0.997259 0.195019 0.804233 0.580618 0.889824 
0.038462 0.661559 0.833048 0.822753 0.324376 
0.411081 0.801286 0.522691 0.770891 0.478594 
0.709659 0.619172 0.78576 0.612451 0.406371 
0.946013 0.135368 0.263326 0.790607 0.144178 
0.938114 0.293318 0.591074 0.852604 0.56061 
0.463373 0.298684 0.68167 0.507109 0.557132 
0.358753 0.131435 0.119933 0.26043 0.0309847 
0.567716 0.965965 0.993542 0.681718 0.823082 
0.975824 0.00334124 0.568055 0.72909 0.341704 
0.345352 0.748491 0.582143 0.892658 0.745543 
0.687531 0.13794 0.779948 0.695927 0.528761 
0.0402907 0.176582 0.518275 0.694778 0.0987382 
0.739903 0.182614 0.748086 0.723686 0.44866 
0.248789 0.255482 0.030336 0.571609 0.302445 
0.966853 0.579996 0.176136 0.58579 0.587375 
0.46658 0.660917 0.0298972 0.385585 0.0694178 
0.0299062 0.982806 0.88917 0.62338 0.610722 
0.150012 0.611188 0.171551 0.427588 0.380203 
0.0611728 0.698123 0.433395 0.169213 0.862566 
0.834963 0.123285 0.935329 0.440592 0.366086 
0.89153 0.193295 0.691358 0.94508 0.943262 
0.821702 0.170754 0.649795 0.557275 0.308304 
0.729084 0.102489 0.0771196 0.473224 0.601943 
0.00271944 0.554693 0.818252 0.939367 0.185862 
0.779433 0.822365 0.70414 0.659324 0.372456 
0.102701 0.142306 0.808576 0.75836 0.919688 
0.593666 0.102877 0.182966 0.0355228 0.783388 
0.758496 0.396467 0.755325 0.775154 0.237118 
0.201353 0.14666 0.651553 0.451866 0.866037 
0.0697135 0.288616 0.599291 0.850233 0.273358 
0.683639 0.660749 0.115472 0.130129 0.434422 
0.555248 0.408793 0.547383 0.116949 0.626005 
0.200758 0.724629 0.762541 0.409229 0.206731 
0.829648 0.326637 0.755804 0.333842 0.381538 
0.769541 0.929632 0.942544 0.564329 0.972783 
0.460312 0.178827 0.967238 0.456662 0.073039 
0.718287 0.744799 0.202789 0.0493485 0.384373 
0.0891348 0.82506 0.944915 0.452535 0.150932 
0.634916 0.190039 0.817249 0.471214 0.643052 
0.551197 0.671588 0.187966 0.210981 0.892018 
0.145905 0.717418 0.610879 0.78612 0.49059 
0.486916 0.0194985 0.850742 0.278768 0.275412 
0.714557 0.0124645 0.42531 0.483285 0.598542 
0.980782 0.700602 0.764407 0.286346 0.646572 
0.493907 0.85033 0.358545 0.302439 0.959948 
0.336358 0.239012 0.202929 0.622299 0.941198 
0.801744 0.564973 0.77229 0.0345529 0.549282 
0.27173 0.799952 0.328005 0.262293 0.410768 
0.0934129 0.810349 0.114741 0.284003 0.19561 
0.177184 0.866172 0.021133 0.975923 0.0725302 
0.369657 0.895495 0.284687 0.578829 0.184799 
0.1367 0.134683 0.0644172 0.543192 0.678918 
0.546197 0.893299 0.624511 0.652235 0.429547 
0.80306 0.0952992 0.963441 0.316233 0.387069 
0.459994 0.503511 0.547475 0.128403 0.644185 
0.915002 0.055466 0.813235 0.386034 0.137345 
0.539139 0.6772 0.227288 0.600703 0.104971 
0.218182 0.64745 0.902404 0.95636 0.00916247 
0.501916 0.042251 0.690909 0.879282 0.287667 
0.475472 0.937606 0.152285 0.544401 0.166022 
0.771521 0.697387 0.518851 0.835595 0.0232007 
0.227113 0.13859 0.10947 0.696749 0.517238 
0.135855 0.542773 0.6109 0.408405 0.477426 
0.641137 0.448057 0.892026 0.544653 0.471221 
0.0663077 0.330281 0.154622 0.124016 0.132855 
0.148153 0.756384 0.169334 0.688599 0.298877 
0.0576349 0.107164 0.392313 0.405454 0.274032 
0.673878 0.418127 0.188283 0.620436 0.190566 
0.0920281 0.431093 0.363705 0.544332 0.964243 
0.595346 0.923114 0.292039 0.944656 0.787496 
0.350961 0.271332 0.828015 0.743999 0.24004 
0.841455 0.50456 0.681756 0.62779 0.671367 
0.315747 0.950156 0.832295 0.250267 0.953974 
0.0140827 0.124481 0.992974 0.838502 0.157577 
0.612545 0.0283526 0.624576 0.414603 0.812578 
0.381155 0.774 0.866504 0.931001 0.211173 
0.172425 0.43722 0.703598 0.886796 0.576239 
0.207296 0.241133 0.824876 0.553359 0.441901 
0.957059 0.31912 0.913253 0.631021 0.813306 
0.485931 0.972318 0.310876 0.477293 0.74637 
0.519723 0.1629 0.21146 0.163933 0.861901 
0.502866 0.00438918 0.481158 0.152704 0.979507 
0.990223 0.131383 0.507542 0.136014 0.980047 
0.0803061 0.705873 0.584647 0.453066 0.250001 
0.993408 0.649457 0.85467 0.897389 0.290146 
0.635019 0.820703 0.0652987 0.591677 0.371965 
0.453503 0.971316 0.104078 0.669549 0.581646 
0.790985 0.324923 0.922896 0.354941 0.245644 
0.349184 0.362955 0.804125 0.0368409 0.573993 
0.770135 0.525519 0.62751 0.115895 0.991085 
0.729559 0.332669 0.735991 0.938177 0.806368 
0.937745 0.670324 0.841434 0.406597 0.143277 
0.371136 0.157272 0.9026 0.620606 0.662992 
0.41939 0.425917 0.75436 0.433383 0.0409941 
0.371045 0.328015 0.74816 0.35917 0.465993 
0.0494543 0.531567 0.252046 0.567488 0.181437 
0.294556 0.858669 0.288541 0.882955 0.124997 
0.176507 0.830653 0.969265 0.159308 0.920364 
0.229758 0.508342 0.872786 0.354528 0.409682 
0.0260287 0.445636 0.503304 0.113608 0.476554 
0.74527 0.737138 0.950632 0.664144 0.333101 
0.455372 0.44947 0.18875 0.91634 0.376583 
0.327643 0.594459 0.830623 0.167336 0.71552 
0.987402 0.881206 0.267711 0.292075 0.465146 
0.46922 0.878669 0.07628 0.216334 0.130306 
0.0834359 0.192398 0.0563164 0.122968 0.0583113 
0.743475 0.708676 0.535786 0.131795 0.272234 
0.872987 0.247612 0.632442 0.50937 0.860174 
0.730099 0.150532 0.830643 0.831241 0.336433 
0.113081 0.648468 0.770081 0.754755 0.701441 
0.289342 0.2545 0.44297 0.886889 0.536555 
0.0616536 0.29223 0.553882 0.887123 0.614725 
0.323518 0.422454 0.736555 0.42298 0.350917 
0.360541 0.422958 0.627845 0.748236 0.487479 
0.00433507 0.425607 0.376266 0.150103 0.395851 
0.408681 0.83009 0.199175 0.654339 0.684435 
0.405832 0.366272 0.423073 0.61757 0.726356 
0.854395 0.251018 0.34825 0.903507 0.0776503 
0.0133724 0.590639 0.601438 0.762316 0.4142 
0.117142 0.821906 0.474277 0.0068753 0.819148 
0.00141264 0.575609 0.238805 0.355264 0.156431 
0.0600631 0.792655 0.944498 0.0701687 0.531427 
0.417288 0.83572 0.0677103 0.943649 0.212255 
0.535701 0.31455 0.0599655 0.890254 0.296707 
0.72458 0.786165 0.141289 0.390623 0.009718 
0.489305 0.233284 0.291366 0.846334 0.925148 
0.363073 0.977265 0.490093 0.135361 0.69523 
0.250907 0.390063 0.404629 0.440249 0.842667 
0.608135 0.978099 0.176312 0.0432418 0.940091 
0.14283 0.515257 0.0214126 0.416635 0.992845 
0.0742341 0.405176 0.0818551 0.381301 0.275503 
0.618229 0.255389 0.0473841 0.104156 0.409977 
0.513273 0.696606 0.605264 0.851264 0.542986 
0.339584 0.727846 0.778635 0.82714 0.175046 
0.20143 0.152494 0.580458 0.902246 0.561168 
0.356948 0.761137 0.469363 0.158158 0.0920127 
0.053595 0.768595 0.95095 0.169586 0.696747 
0.784827 0.794493 0.390164 0.273137 0.848352 
0.145397 0.256531 0.737185 0.278038 0.997742 
0.802248 0.400946 0.241509 0.763273 0.481384 
0.237275 0.884183 0.159353 0.598496 0.196604 
0.116289 0.932956 0.96176 0.723823 0.723499 
0.844836 0.365266 0.741205 0.822848 0.286995 
0.269646 0.478237 0.0836635 0.735785 0.180315 
0.927628 0.0664063 0.121559 0.00401557 0.337408 
0.0257893 0.904219 0.907521 0.802617 0.185921 
0.214418 0.815991 0.302779 0.740212 0.339723 
0.78543 0.603201 0.640337 0.264593 0.74208 
0.00298267 0.442375 0.336936 0.358539 0.996417 
0.149632 0.737613 0.280859 0.40879 0.422887 
0.79584 0.442774 0.674626 0.35985 0.717532 
0.477611 0.546917 0.318858 0.577793 0.0103886 
0.274691 0.14982 0.00096132 0.110606 0.184267 
0.862424 0.264907 0.363912 0.145646 0.325851 
0.258362 0.712985 0.171708 0.95247 0.788618 
0.267492 0.670284 0.459432 0.80516 0.178243 
0.305628 0.296273 0.280833 0.42506 0.534656 
0.0018803 0.313865 0.494115 0.0121513 0.000440921 
0.283874 0.291393 0.826414 0.0454881 0.424618 
0.957093 0.566852 0.988173 0.0789656 0.975528 
0.358448 0.188225 0.872968 0.45734 0.127604 
0.0661987 0.278355 0.1878 0.249245 0.0607275 
0.00730236 0.918205 0.364002 0.491784 0.632524 
0.0177647 0.101288 0.506146 0.731996 0.446673 
0.444713 0.225545 0.707989 0.392435 0.961653 
0.0918922 0.465249 0.200905 0.60775 0.864323 
0.605749 0.678463 0.36041 0.523997 0.248513 
0.543251 0.444516 0.159995 0.600537 0.399911 
0.155636 0.880136 0.389681 0.0568686 0.56254 
0.395045 0.243481 0.575575 0.854213 0.031355 
0.807918 0.412668 0.189146 0.0960515 0.769207 
0.451582 0.603884 0.353469 0.386489 0.956271 
0.257366 0.161855 0.430603 0.242802 0.155557 
0.557673 0.870252 0.731839 0.0837231 0.123257 
0.922709 0.199518 0.95974 0.0119625 0.387395 
0.89978 0.824498 0.717638 0.376603 0.797625 
0.0592784 0.81004 0.265766 0.2846 0.392639 
0.19948 0.231199 0.909737 0.358059 0.361746 
0.0704499 0.498255 0.936735 0.305411 0.496601 
0.338788 0.741981 0.116016 0.537755 0.495293 
0.155565 0.785415 0.874364 0.190343 0.99394 
0.431685 0.132039 0.0417771 0.86622 0.574411 
0.0945323 0.546736 0.0278287 0.445795 0.601355 
0.660667 0.865043 0.604144 0.337829 0.612912 
0.0906683 0.680888 0.889665 0.0989191 0.729631 
0.996945 0.530437 0.438203 0.530027 0.490977 
0.861687 0.461652 0.858532 0.470734 0.645869 
0.356666 0.721418 0.709618 0.295195 0.26753 
0.759556 0.250126 0.41704 0.885132 0.438209 
0.927254 0.250413 0.561088 0.785307 0.773496 
0.50631 0.330056 0.940883 0.814376 0.279989 
0.417229 0.901295 0.978981 0.857641 0.416984 
0.489783 0.680664 0.914754 0.149745 0.314732 
0.879319 0.785056 0.978557 0.215811 0.424941 
0.559762 0.8855 0.725383 0.232891 0.0694722 
0.772375 0.821877 0.947101 0.758184 0.111672 
0.803883 0.755017 0.822784 0.811229 0.355505 
0.670241 0.0221527 0.307557 0.955347 0.114885 
0.595814 0.566215 0.392746 0.468205 0.441704 
0.474046 0.473333 0.842288 0.99871 0.255519 
0.249128 0.63578 0.511424 0.0319146 0.869534 
0.850669 0.0443194 0.697406 0.682662 0.222843 
0.191513 0.714521 0.994886 0.639728 0.549225 
0.0733641 0.00199995 0.96865 0.0262015 0.638107 
0.196555 0.183276 0.941893 0.25918 0.166588 
0.976057 0.593046 0.486389 0.322947 0.573345 
0.099054 0.140576 0.486791 0.282899 0.683968 
0.794447 0.309906 0.876502 0.0701167 0.611241 
0.844401 0.389637 0.592404 0.0855462 0.623527 
0.0517618 0.677575 0.504757 0.682343 0.186185 
0.675823 0.433891 0.888834 0.461459 0.388506 
0.408942 0.551207 0.162886 0.471728 0.24368 
0.464763 0.361154 0.146857 0.385292 0.632441 
0.933537 0.76026 0.0368585 0.153604 0.865968 
0.577352 0.859235 0.553439 0.433171 0.519991 
0.266142 0.91692 0.658607 0.377092 0.134194 
0.603952 0.17341 0.434974 0.440986 0.920608 
0.53931 0.818854 0.356686 0.00462899 0.496319 
0.794152 0.600852 0.819753 0.448529 0.0461697 
0.356661 0.97329 0.645919 0.842244 0.0558857 
0.939069 0.330279 0.75736 0.513993 0.45196 
0.555596 0.812797 0.785291 0.638996 0.542848 
0.835347 0.480484 0.155027 0.587407 0.0977783 
0.899859 0.26384 0.676332 0.537201 0.255951 
0.126458 0.10119 0.867117 0.489363 0.57608 
0.40148 0.32189 0.182793 0.872688 0.302771 
0.467287 0.169169 0.471039 0.747381 0.106838 
0.106076 0.367702 0.00960621 0.222862 0.199448 
0.0750235 0.875989 0.330802 0.263565 0.500522 
0.322646 0.418843 0.787457 0.00289681 0.377378 
0.838907 0.851767 0.306105 0.420968 0.310611 
0.903432 0.493346 0.557527 0.443388 0.811408 
0.186961 0.121255 0.23165 0.88436 0.0597189 
0.659137 0.907927 0.553891 0.776417 0.924627 
0.0464751 0.176701 0.844217 0.801847 0.207445 
0.472501 0.799989 0.787726 0.800831 0.59384 
0.141026 0.220328 0.183668 0.194713 0.0391698 
0.804474 0.249132 0.457296 0.567349 0.796821 
0.0618165 0.313084 0.24253 0.954322 0.478942 
0.847119 0.704293 0.735615 0.248948 0.670308 
0.718607 0.596774 0.441583 0.255762 0.850826 
0.428964 0.649097 0.641328 0.897173 0.548792 
0.689385 0.901433 0.934884 0.254395 0.767153 
0.732058 0.636542 0.736797 0.170043 0.73868 
0.817535 0.13908 0.898961 0.109555 0.868602 
0.557983 0.060952 0.0349973 0.0890553 0.992138 
0.893612 0.593361 0.0470004 0.0917795 0.230734 
0.814849 0.805139 0.234606 0.458024 0.326217 
0.744451 0.106004 0.196309 0.234979 0.960235 
0.0146923 0.836522 0.593028 0.528962 0.34998 
0.647243 0.268394 0.567298 0.813291 0.197855 
0.446607 0.386484 0.158393 0.154237 0.220753 
0.391777 0.925344 0.826996 0.516204 0.366332 
0.879962 0.153981 0.544431 0.249835 0.860182 
0.781661 0.0778989 0.122971 0.325422 0.706092 
0.509037 0.122054 0.273286 0.453703 0.617483 
0.600408 0.535837 0.202978 0.816144 0.160798 
0.845415 0.103565 0.377394 0.0517452 0.848467 
0.805447 0.855738 0.940302 0.500332 0.974523 
0.430712 0.925837 0.747427 0.86066 0.325592 
0.546794 0.259773 0.528013 0.848454 0.646095 
0.605167 0.692509 0.351258 0.251436 0.914474 
0.321164 0.0931475 0.802555 0.594953 0.615344 
0.412785 0.0716694 0.0035126 0.198254 0.900926 
0.799729 0.498035 0.302601 0.327178 0.671319 
0.96739 0.826644 0.542689 0.230937 0.275714 
0.152402 0.739094 0.118773 0.0620537 0.738321 
0.386896 0.743947 0.804916 0.420901 0.534885 
0.097584 0.538432 0.796337 0.452069 0.0952206 
0.899666 0.132451 0.510069 0.569724 0.673509 
0.441039 0.68218 0.0820229 0.526367 0.431643 
0.301803 0.601416 0.592465 0.541224 0.804659 
0.379845 0.277941 0.251685 0.546005 0.662501 
0.602064 0.167759 0.706253 0.230646 0.881246 
0.787817 0.313379 0.310038 0.0709199 0.489945 
0.104764 0.867714 0.646829 0.185988 0.127172 
0.781316 0.221228 0.0555513 0.0188554 0.833461 
0.781608 0.790295 0.454363 0.6597 0.958873 
0.434442 0.912511 0.331184 0.94918 0.882882 
0.440833 0.34427 0.666612 0.824927 0.294011 
0.844638 0.858063 0.45646 0.379372 0.618797 
0.880301 0.768654 0.0421348 0.0353734 0.238291 
0.936487 0.267553 0.66823 0.339353 0.618291 
0.175812 0.979396 0.825489 0.0731965 0.949391 
0.0028073 0.894647 0.950464 0.0434525 0.870341 
0.922261 0.928463 0.240705 0.54711 0.560001 
0.226977 0.829723 0.0226744 0.653817 0.686697 
0.937353 0.118776 0.293265 0.265173 0.629439 
0.601418 0.502822 0.696396 0.856905 0.958387 
0.762249 0.572259 0.281391 0.337264 0.0451256 
0.405841 0.285447 0.739105 0.458196 0.572053 
0.659596 0.64507 0.493722 0.224412 0.429505 
0.135751 0.493413 0.475397 0.167653 0.324369 
0.874026 0.999 0.722033 0.970651 0.316187 
0.805227 0.973648 0.666376 0.270256 0.10977 
0.892375 0.0798136 0.528695 0.944472 0.567642 
0.53287 0.184117 0.912898 0.206415 0.123484 
0.189208 0.621981 0.718684 0.802409 0.113424 
0.520825 0.00871745 0.227011 0.739942 0.0208644 
0.875828 0.258995 0.0247669 0.850448 0.495457 
0.700002 0.856593 0.080478 0.953234 0.39444 
0.723112 0.806454 0.54118 0.77009 0.0205778 
0.781276 0.137941 0.0906075 0.22368 0.172208 
0.208325 0.675142 0.708337 0.900467 0.203827 
0.72757 0.991204 0.367481 0.233793 0.467829 
0.592944 0.414336 0.226199 0.105978 0.0319779 
0.0546048 0.025415 0.224322 0.53042 0.417503 
0.343139 0.180721 0.477705 0.945803 0.418731 
0.541718 0.584328 0.393912 0.329368 0.00730702 
0.0301025 0.955645 0.844869 0.52338 0.809522 
0.346359 0.962452 0.106489 0.772871 0.668828 
0.575278 0.495414 0.0978575 0.243914 0.952292 
0.559079 0.0736292 0.963896 0.787992 0.316374 
0.133876 0.0549876 0.349652 0.223225 0.604334 
0.148324 0.65576 0.924373 0.841057 0.172026 
0.105759 0.175783 0.461525 0.689113 0.0695457 
0.373008 0.713277 0.294684 0.957499 0.820207 
0.906718 0.382624 0.743838 0.480133 0.92619 
0.010362 0.600218 0.215485 0.931541 0.775678 
0.378434 0.0417942 0.235906 0.974358 0.709121 
0.472665 0.816279 0.0584063 0.451119 0.385708 
0.922214 0.341544 0.189888 0.26239 0.166907 
0.0596488 0.691136 0.626113 0.0713843 0.928349 
0.432979 0.231843 0.596211 0.830068 0.697697 
0.434159 0.0967202 0.587344 0.512323 0.618645 
0.569494 0.156199 0.213058 0.987442 0.548528 
0.913414 0.0319988 0.303022 0.384615 0.0515352 
0.757353 0.688111 0.18391 0.356128 0.633348 
0.152455 0.914705 0.0564306 0.809779 0.312298 
0.858217 0.37805 0.866478 0.706985 0.619205 
0.680812 0.516594 0.0350618 0.0174234 0.568643 
0.867598 0.984192 0.0390704 0.564096 0.730761 
0.029231 0.877808 0.263745 0.659246 0.835424 
0.0714535 0.629459 0.469187 0.603267 0.756319 
0.440594 0.173636 0.976236 0.746013 0.526504 
0.7056 0.0137031 0.913629 0.470242 0.673199 
0.240393 0.971504 0.388646 0.592704 0.212204 
0.770987 0.423087 0.939217 0.656058 0.304466 
0.36547 0.484947 0.830885 0.642626 0.164821 
0.288012 0.26483 0.799851 0.445725 0.999681 
0.996634 0.762609 0.272651 0.193063 0.415346 
0.62065 0.994133 0.493121 0.483143 0.121834 
0.0648268 0.00804891 0.335214 0.271014 0.822176 
0.0673567 0.666444 0.0257885 0.317346 0.82273 
0.27102 0.671137 0.227611 0.353139 0.00664153 
0.200809 0.367138 0.451708 0.79125 0.523316 
0.936032 0.862081 0.322784 0.251104 0.442443 
0.265947 0.755381 0.416199 0.346037 0.402597 
0.458058 0.863117 0.337334 0.473718 0.639556 
0.211917 0.514443 0.98636 0.313723 0.551162 
0.468647 0.987553 0.548153 0.120678 0.798159 
0.0448556 0.552164 0.621385 0.442039 0.829844 
0.107678 0.85589 0.679134 0.48987 0.501638 
0.547755 0.517707 0.0410799 0.993227 0.0191915 
0.982664 0.991762 0.0951749 0.0375281 0.698598 
0.0533435 0.58621 0.864366 0.51588 0.741169 
0.19577 0.765872 0.347447 0.31028 0.32895 
0.205859 0.409416 0.104798 0.416803 0.872075 
0.403517 0.582953 0.744172 0.653872 0.836623 
0.554361 0.517731 0.44159 0.533128 0.221811 
0.516682 0.493678 0.0709279 0.709148 0.148387 
0.989328 0.494687 0.865209 0.500267 0.896417 
0.590926 0.111905 0.794348 0.531914 0.659418 
0.721445 0.887544 0.882253 0.622097 0.850334 
0.343877 0.0284416 0.164652 0.0775144 0.648876 
0.557882 0.635472 0.26461 0.650956 0.725259 
0.0879412 0.660639 0.698808 0.0343981 0.858331 
0.464236 0.632516 0.572594 0.916204 0.148915 
0.372228 0.339914 0.280646 0.207591 0.964966 
0.653894 0.184171 0.0297608 0.375794 0.729578 
0.545405 0.785455 0.692794 0.0880021 0.203658 
0.568694 0.753786 0.189282 0.867128 0.717382 
0.751007 0.853654 0.405879 0.75729 0.899553 
0.746029 0.395959 0.410259 0.00618514 0.461605 
0.172419 0.00897307 0.566003 0.256689 0.630948 
0.802818 0.114001 0.725457 0.650017 0.810658 
0.261796 0.510937 0.7428 0.456498 0.641292 
0.183066 0.869447 0.542202 0.885816 0.182687 
0.00721024 0.897023 0.760935 0.644234 0.566598 
0.632185 0.33479 0.0342958 0.322322 0.887184 
0.812678 0.207866 0.383401 0.408513 0.838377 
0.213498 0.512342 0.825852 0.23616 0.495156 
0.910073 0.347258 0.749641 0.424497 0.574516 
0.709557 0.783141 0.529958 0.833024 0.813074 
0.613521 0.547288 0.928668 0.582069 0.586382 
0.750734 0.328049 0.294848 0.195643 0.185141 
0.829314 0.268262 0.87183 0.336051 0.271542 
0.176472 0.789876 0.26496 0.358065 0.572168 
0.352825 0.70221 0.7642 0.57827 0.255457 
0.826102 0.759248 0.941675 0.212043 0.517894 
0.483977 0.558853 0.535502 0.652128 0.371637 
0.0780653 0.52 0.57221 0.939211 0.420079 
0.378429 0.0310421 0.394895 0.0511823 0.819592 
0.0335091 0.604352 0.0695574 0.40132 0.570449 
0.43038 0.575084 0.546914 0.799212 0.571469 
0.909188 0.0531489 0.998993 0.549133 0.668719 
0.572069 0.314568 0.882078 0.267011 0.573416 
0.164901 0.15785 0.318782 0.287365 0.489465 
0.826312 0.415277 0.322695 0.601485 0.90879 
0.746267 0.703758 0.871036 0.541172 0.400466 
0.336881 0.580779 0.833073 0.147832 0.289839 
0.320716 0.0768322 0.068711 0.959765 0.820894 
0.123335 0.560874 0.12603 0.549263 0.602736 
0.676611 0.442542 0.728731 0.473032 0.0898152 
0.0954021 0.633364 0.0297536 0.655382 0.438087 
0.517349 0.0374514 0.709991 0.52897 0.341909 
0.0777321 0.873119 0.897158 0.110755 0.188532 
0.528487 0.656794 0.481751 0.283037 0.805699 
0.616746 0.915664 0.613942 0.0376795 0.583663 
0.77109 0.513587 0.396788 0.350337 0.250988 
0.233831 0.0810336 0.741174 0.306677 0.525191 
0.186456 0.325719 0.74808 0.150749 0.693932 
0.864986 0.575361 0.555922 0.450388 0.953475 
0.919276 0.635615 0.267809 0.0112898 0.866308 
0.90498 0.033579 0.196883 0.0720183 0.674893 
0.280363 0.559427 0.638831 0.338351 0.601519 
0.732919 0.893915 0.626693 0.260848 0.0225153 
0.18479 0.394011 0.461636 0.330066 0.0131413 
0.451414 0.0381242 0.568488 0.00434278 0.930588 
0.0447447 0.93806 0.511077 0.613919 0.872988 
0.321179 0.231061 0.579872 0.299995 0.839642 
0.748751 0.671862 0.919221 0.0740027 0.523844 
0.109157 0.821953 0.74009 0.0914236 0.742289 
0.635014 0.477043 0.0911421 0.156889 0.757862 
0.834012 0.909591 0.76279 0.931606 0.59063 
0.314998 0.945026 0.257614 0.569423 0.0950736 
0.63495 0.510519 0.850927 0.517137 0.662141 
0.932431 0.974894 0.863345 0.491139 0.314516 
0.605264 0.946006 0.569268 0.153572 0.827582 
0.464939 0.659815 0.75546 0.776578 0.278751 
0.658404 0.399324 0.504881 0.558772 0.455785 
0.420177 0.948502 0.212842 0.555059 0.615363 
0.281118 0.281385 0.860826 0.438582 0.987483 
0.245928 0.319324 0.89376 0.0766846 0.474363 
0.108757 0.652842 0.714654 0.897381 0.0320269 
0.0942273 0.466781 0.367598 0.121566 0.107591 
0.404216 0.983722 0.623964 0.513494 0.949218 
0.883302 0.098753 0.726444 0.994086 0.547509 
0.997884 0.924169 0.119974 0.964729 0.470287 
0.543783 0.400004 0.57772 0.401697 0.448421 
0.602065 0.83628 0.908306 0.825753 0.846738 
0.257931 0.976259 0.996761 0.78929 0.00663849 
0.832546 0.636639 0.500853 0.88768 0.111479 
0.146883 0.897506 0.436339 0.124932 0.802283 
0.704562 0.152993 0.831676 0.0591075 0.00393216 
0.452044 0.654239 0.562403 0.517986 0.922287 
0.650107 0.12239 0.658993 0.68957 0.35523 
0.266131 0.412578 0.0198369 0.68797 0.558764 
0.910981 0.361036 0.848159 0.85166 0.146329 
0.302979 0.777717 0.185782 0.499971 0.667392 
0.310666 0.338152 0.431181 0.00565158 0.919375 
0.379548 0.326485 0.965983 0.7059 0.0673258 
0.637522 0.212482 0.248659 0.154885 0.362459 
0.163427 0.0668682 0.793163 0.626888 0.39567 
0.101154 0.744771 0.816127 0.729851 0.147431 
0.949604 0.794417 0.992639 0.481991 0.905523 
0.0858086 0.409385 0.381708 0.681489 0.413476 
0.696279 0.875245 0.724799 0.735614 0.879368 
0.818166 0.883297 0.145589 0.892311 0.262095 
0.262952 0.372046 0.958991 0.663228 0.581662 
0.0278197 0.440016 0.639487 0.963266 0.89732 
0.322344 0.366608 0.315968 0.212241 0.0764504 
0.160391 0.350271 0.965716 0.158393 0.539589 
0.697596 0.553625 0.162706 0.760699 0.606417 
0.320615 0.161754 0.0518028 0.0464 0.520019 
0.568337 0.410396 0.899996 0.905618 0.623926 
0.293734 0.216942 0.0828135 0.75024 0.903368 
0.474788 0.416551 0.863697 0.799599 0.646916 
0.494622 0.887048 0.875399 0.940623 0.391662 
0.740218 0.259006 0.736596 0.620769 0.92854 
0.608939 0.817674 0.12615 0.658299 0.363348 
0.212514 0.0694421 0.174439 0.218584 0.451699 
0.137614 0.739974 0.536753 0.97665 0.557265 
0.49591 0.493243 0.827479 0.958976 0.929689 
0.527041 0.842704 0.802715 0.528496 0.911221 
0.346632 0.0907457 0.21434 0.814358 0.369258 
0.49825 0.90422 0.523105 0.0106951 0.417983 
0.606079 0.786028 0.855212 0.99954 0.276394 
0.638349 0.828365 0.0133834 0.406637 0.329065 
0.417298 0.393471 0.584425 0.912492 0.731677 
0.546462 0.381986 0.389558 0.762435 0.0811984 
0.60627 0.923478 0.757154 0.20192 0.211731 
0.834901 0.71449 0.193877 0.435823 0.669326 
0.444119 0.358721 0.806976 0.97444 0.173629 
0.286005 0.46274 0.381248 0.990548 0.626939 
0.0310815 0.76987 0.850888 0.431529 0.821871 
0.947447 0.627328 0.099146 0.461744 0.600693 
0.607623 0.606484 0.664758 0.138209 0.687709 
0.802657 0.0503564 0.00664049 0.714062 0.47603 
0.479606 0.492789 0.0525008 0.402856 0.666686 
0.848364 0.117743 0.735771 0.0716864 0.619776 
0.435052 0.0520383 0.266772 0.286845 0.257592 
0.197845 0.250421 0.465183 0.398047 0.995633 
0.610401 0.465377 0.734938 0.533068 0.309379 
0.186195 0.799191 0.208453 0.379341 0.437059 
0.329936 0.434457 0.693573 0.0839752 0.370611 
0.305601 0.503558 0.457944 0.761114 0.748855 
0.425093 0.905255 0.136357 0.631767 0.444919 
0.221785 0.407857 0.609963 0.61989 0.770931 
0.704057 0.829157 0.702201 0.896863 0.881033 
0.602294 0.762237 0.807678 0.816973 0.722014 
0.503538 0.938591 0.998895 0.700387 0.567741 
0.764664 0.721752 0.658576 0.67483 0.325722 
0.815057 0.699746 0.199101 0.85474 0.531506 
0.822318 0.190698 0.161398 0.631918 0.233401 
0.37434 0.533344 0.0634361 0.394927 0.746606 
0.176497 0.878466 0.720848 0.564798 0.634988 
0.0651417 0.591493 0.87886 0.980466 0.871098 
0.627878 0.0134787 0.502259 0.0698511 0.0277497 
0.0336653 0.9082 0.300791 0.0356846 0.532454 
0.0489201 0.503564 0.161437 0.539726 0.51758 
0.22909 0.108741 0.49656 0.537744 0.721393 
0.257818 0.369947 0.906375 0.109889 0.377695 
0.66941 0.848259 0.313063 0.301906 0.129771 
0.487941 0.341738 0.441042 0.143453 0.927243 
0.626905 0.659789 0.815218 0.638917 0.592894 
0.0363653 0.734327 0.657938 0.850676 0.833843 
0.262261 0.255117 0.0953484 0.888648 0.244655 
0.918641 0.0644944 0.319474 0.526544 0.384689 
0.3866 0.708942 0.30899 0.324736 0.59005 
0.991381 0.0820281 0.949129 0.855122 0.0633585 
0.500061 0.926299 0.745787 0.164908 0.753704 
0.357919 0.869315 0.492671 0.348459 0.860116 
0.76804 0.252065 0.287178 0.418524 0.955446 
0.380043 0.0770078 0.549444 0.705842 0.560114 
0.53602 0.313641 0.528756 0.349397 0.250768 
0.15754 0.223308 0.255443 0.727556 0.437788 
0.908161 0.0372779 0.299974 0.28527 0.184172 
0.452944 0.870805 0.906313 0.503453 0.936263 
0.264835 0.348717 0.287839 0.211259 0.308166 
0.766548 0.536788 0.853074 0.728599 0.0442828 
0.294638 0.873959 0.659694 0.399781 0.437298 
0.118614 0.991704 0.45646 0.769815 0.147588 
0.150038 0.207607 0.503041 0.177878 0.889092 
0.0292048 0.391682 0.945736 0.388263 0.152928 
0.489281 0.306211 0.333803 0.00266065 0.957248 
0.628432 0.443434 0.331047 0.32533 0.955219 
0.490831 0.915353 0.744372 0.179073 0.862265 
0.429985 0.673023 0.442787 0.876772 0.457473 
0.0297553 0.429124 0.847559 0.355399 0.357149 
0.59805 0.416554 0.244755 0.981001 0.639983 
0.744078 0.610451 0.0280214 0.176886 0.366603 
0.479475 0.479387 0.939625 0.700755 0.309021 
0.593027 0.478795 0.453296 0.508636 0.987102 
0.375687 0.45063 0.934659 0.0705473 0.686063 
0.78813 0.797179 0.301466 0.913309 0.195856 
0.812178 0.574266 0.136334 0.665319 0.759346 
0.743292 0.1449 0.252815 0.837921 0.029252 
0.0358283 0.31211 0.801603 0.344202 0.795296 
0.561026 0.145768 0.746014 0.744332 0.709892 
0.507477 0.396455 0.258048 0.607411 0.812026 
0.110065 0.575086 0.68189 0.566242 0.532083 
0.144492 0.000762919 0.872838 0.353429 0.142625 
0.918353 0.400033 0.388468 0.768112 0.637397 
0.793352 0.187033 0.716514 0.971761 0.782622 
0.0721977 0.330967 0.647532 0.0586288 0.373646 
0.557125 0.565033 0.00482459 0.530431 0.976349 
0.816362 0.0565367 0.688451 0.167979 0.792483 
0.414309 0.557231 0.703968 0.622572 0.00676067 
0.767276 0.0181243 0.413186 0.17689 0.113808 
0.250812 0.296338 0.0808293 0.653024 0.547131 
0.24171 0.821864 0.434381 0.983574 0.301505 
0.228933 0.815668 0.863671 0.748057 0.854876 
0.529207 0.0117988 0.0404823 0.154463 0.90614 
0.876692 0.66785 0.649952 0.192854 0.300128 
0.906355 0.992959 0.592222 0.424003 0.943958 
0.217898 0.0615988 0.780334 0.802828 0.150076 
0.244126 0.887451 0.749719 0.0778479 0.287794 
0.550984 0.514232 0.505197 0.612917 0.857188 
0.722863 0.535784 0.486755 0.547216 0.876066 
0.126358 0.2596 0.0165059 0.465696 0.841269 
0.746633 0.80103 0.803104 0.438369 0.112336 
0.0616357 0.0370611 0.126015 0.882545 0.624651 
0.932742 0.811765 0.920713 0.367374 0.249716 
0.207942 0.745509 0.670622 0.038716 0.145761 
0.688974 0.968972 0.646636 0.64377 0.428243 
0.000555559 0.13367 0.716278 0.0159462 0.273037 
0.467775 0.853047 0.914317 0.684971 0.50563 
0.822665 0.61302 0.20934 0.526519 0.650662 
0.243669 0.86122 0.779049 0.456412 0.560129 
0.313917 0.796551 0.173758 0.451998 0.00831316 
0.489848 0.161645 0.125315 0.995626 0.705804 
0.728687 0.368868 0.0806903 0.582574 0.735605 
0.588364 0.505232 0.879951 0.497772 0.107078 
0.79468 0.714475 0.991821 0.559359 0.76008 
0.690744 0.0355933 0.562083 0.914587 0.74662 
0.251861 0.145158 0.147995 0.609319 0.61939 
0.02461 0.230674 0.491671 0.654073 0.020094 
0.218228 0.0520352 0.951442 0.695921 0.397297 
0.153734 0.547697 0.880461 0.313299 0.515818 
0.531904 0.179944 0.521742 0.958991 0.767269 
0.905136 0.952669 0.879412 0.49711 0.889526 
0.766186 0.497988 0.787016 0.351057 0.308488 
0.989496 0.429684 0.654397 0.674724 0.00685374 
0.973278 0.188195 0.603028 0.8842 0.134001 
0.204757 0.557967 0.962942 0.856869 0.508037 
0.420066 0.959193 0.0163544 0.709971 0.240766 
0.25127 0.458889 0.953055 0.759337 0.752377 
0.473968 0.102753 0.468632 0.477498 0.388595 
0.604969 0.968341 0.810149 0.667652 0.0419703 
0.617551 0.976552 0.538236 0.729394 0.843739 
0.531435 0.949552 0.902331 0.187485 0.623582 
0.0254737 0.0111979 0.521881 0.413271 0.943667 
0.00566765 0.790397 0.496866 0.495927 0.546687 
0.944238 0.283009 0.487962 0.19533 0.410919 
0.512898 0.506155 0.269527 0.966447 0.0339756 
0.646568 0.70744 0.650039 0.929481 0.0818287 
0.795699 0.416434 0.219757 0.998606 0.203741 
0.663187 0.12265 0.0971503 0.0325857 0.0386545 
0.705414 0.107755 0.287684 0.784061 0.727816 
0.815803 0.0292491 0.576044 0.549997 0.448316 
0.57563 0.0964003 0.818424 0.961243 0.353362 
0.800285 0.0872918 0.690794 0.36169 0.993718 
0.58861 0.635469 0.749013 0.854701 0.956762 
0.133727 0.879167 0.83607 0.111362 0.143691 
0.990939 0.13193 0.670071 0.980716 0.446101 
0.833292 0.513138 0.96979 0.768012 0.741975 
0.241615 0.334507 0.494895 0.36078 0.0100177 
0.143546 0.525781 0.564379 0.142729 0.213528 
0.643247 0.522959 0.243464 0.834473 0.804507 
0.108182 0.756721 0.299158 0.452047 0.116087 
0.302761 0.931674 0.261136 0.939678 0.195463 
0.343277 0.556385 0.938895 0.807411 0.78392 
0.164845 0.70972 0.6395 0.679093 0.297096 
0.809124 0.16982 0.0234422 0.866082 0.548243 
0.49962 0.986515 0.848497 0.143536 0.971399 
0.362218 0.630846 0.754349 0.749582 0.118627 
0.672734 0.772761 0.0214492 0.966629 0.531426 
0.548047 0.171379 0.357064 0.0522911 0.731634 
0.821305 0.830301 0.460855 0.995117 0.311138 
0.556524 0.569561 0.391312 0.524698 0.340456 
0.332123 0.754359 0.711009 0.0279621 0.717392 
0.586204 0.354055 0.0989427 0.658142 0.166434 
0.674539 0.381516 0.349726 0.991051 0.328163 
0.356396 0.247657 0.579475 0.730363 0.227956 
0.514734 0.312596 0.0992302 0.610089 0.687181 
0.60017 0.69255 0.997951 0.155429 0.571859 
0.403992 0.273257 0.141007 0.251407 0.358796 
0.448936 0.55702 0.263712 0.864871 0.660401 
0.518367 0.333938 0.180447 0.649179 0.464566 
0.204557 0.931206 0.851019 0.961508 0.793013 
0.0431808 0.129462 0.0677654 0.810044 0.643706 
0.0574404 0.0747697 0.0526378 0.888744 0.681188 
0.224885 0.208895 0.999679 0.998905 0.432969 
0.190596 0.699024 0.590073 0.277195 0.84881 
0.382524 0.705607 0.305591 0.952647 0.930633 
0.520385 0.318007 0.199184 0.697258 0.710243 
0.757318 0.499132 0.144632 0.124623 0.0164882 
0.239853 0.620456 0.622316 0.281214 0.565068 
0.308996 0.0183616 0.702002 0.457233 0.878315 
0.832045 0.969484 0.597413 0.0419703 0.114709 
0.893573 0.860531 0.557164 0.249811 0.617973 
0.0443433 0.149817 0.56112 0.874173 0.234084 
0.488586 0.60595 0.618507 0.314342 0.0837341 
0.166976 0.570537 0.591151 0.0632255 0.729193 
0.956056 0.523303 0.646839 0.263655 0.336745 
0.948927 0.895403 0.0210329 0.0844084 0.194094 
0.692992 0.121 0.50822 0.191089 0.372875 
0.722036 0.789976 0.829381 0.607729 0.463198 
0.694894 0.236518 0.454169 0.342417 0.583558 
0.181713 0.421179 0.543707 0.652716 0.713398 
0.0152185 0.366934 0.317391 0.628641 0.0181382 
0.639888 0.461271 0.720494 0.805732 0.210795 
0.96183 0.895107 0.0412829 0.350599 0.399152 
0.684845 0.00342611 0.105297 0.192509 0.336715 
0.0653373 0.684705 0.400241 0.643639 0.0373884 
0.1307 0.83441 0.839815 0.191631 0.681953 
0.870815 0.668656 0.709592 0.869835 0.157517 
0.268537 0.113319 0.168972 0.248823 0.991674 
0.332929 0.404571 0.525026 0.733197 0.00737707 
0.125512 0.47911 0.563069 0.513587 0.741688 
0.477404 0.438571 0.651599 0.611108 0.121565 
0.46622 0.926135 0.521203 0.858478 0.0232845 
0.226156 0.920631 0.606006 0.0625865 0.262257 
0.407525 0.154999 0.342112 0.426226 0.149979 
0.814457 0.648824 0.363083 0.824805 0.171301 
0.0609645 0.197762 0.112064 0.893207 0.0265914 
0.118925 0.666972 0.220479 0.910124 0.794942 
0.762673 0.0748189 0.325736 0.0803202 0.632024 
0.741223 0.00471057 0.925669 0.447561 0.247147 
0.0209705 0.244069 0.665998 0.921682 0.904248 
0.565877 0.768522 0.16735 0.68915 0.986664 
0.774297 0.791625 0.123994 0.701894 0.516502 
0.478306 0.589586 0.207706 0.246897 0.451416 
0.813645 0.821708 0.353644 0.0101224 0.0889278 
0.00175674 0.254366 0.0282127 0.850864 0.346142 
0.231556 0.739633 0.7497 0.150833 0.054339 
0.863536 0.131674 0.770063 0.620907 0.989114 
0.48567 0.855285 0.127829 0.241129 0.886875 
0.0141196 0.946625 0.379958 0.414954 0.88323 
0.850782 0.157611 0.483476 0.694327 0.323343 
0.503595 0.88436 0.486672 0.0528474 0.0544667 
0.68726 0.570645 0.0568482 0.764614 0.596025 
0.907757 0.308817 0.492335 0.64731 0.935982 
0.840967 0.301578 0.0682285 0.58467 0.119154 
0.818599 0.460954 0.974097 0.485019 0.0403196 
0.337471 0.929768 0.704188 0.384527 0.622196 
0.895813 0.269806 0.655815 0.963471 0.837756 
0.92361 0.569741 0.79612 0.0780201 0.161804 
0.438516 0.364694 0.590743 0.639458 0.940672 
0.671953 0.756931 0.481993 0.951468 0.206777 
0.485677 0.855004 0.510791 0.86809 0.258827 
0.744985 0.357237 0.102046 0.599516 0.944658 
0.10995 0.287475 0.755167 0.508657 0.911765 
0.156699 0.825227 0.462571 0.0911222 0.778865 
0.975281 0.760072 0.184323 0.264524 0.17781 
0.00409286 0.985564 0.481109 0.376505 0.494077 
0.56905 0.41337 0.820725 0.228521 0.774428 
0.889831 0.756095 0.781398 0.488168 0.361564 
0.339408 0.331242 0.505398 0.434795 0.410405 
0.792843 0.714475 0.983204 0.211224 0.612549 
0.578073 0.456608 0.487974 0.865475 0.743457 
0.146762 0.111841 0.800366 0.839877 0.529367 
0.117001 0.783918 0.331207 0.501629 0.328484 
0.586274 0.771519 0.587767 0.771242 0.543055 
0.670681 0.209811 0.767259 0.887732 0.374187 
0.267693 0.216623 0.436174 0.194399 0.333912 
0.77687 0.511413 0.192729 0.337653 0.915756 
0.613221 0.193849 0.048859 0.402347 0.445331 
0.662405 0.418685 0.283327 0.211769 0.245651 
0.405146 0.952218 0.475364 0.89956 0.0920565 
0.694901 0.464791 0.807702 0.617129 0.468817 
0.502815 0.823908 0.737264 0.555287 0.981876 
0.913694 0.229327 0.356213 0.513705 0.100261 
0.902364 0.555336 0.0286751 0.996158 0.174887 
0.240798 0.194004 0.951571 0.828349 0.288712 
0.452921 0.675758 0.492409 0.238387 0.228509 
0.12945 0.287605 0.141684 0.66761 0.64073 
0.328572 0.670381 0.248357 0.300381 0.300547 
0.811253 0.3147 0.952949 0.249219 0.991842 
0.826598 0.471428 0.99279 0.285098 0.530382 
0.919508 0.921067 0.331838 0.148576 0.0345139 
0.0492025 0.439542 0.00469594 0.683383 0.661581 
0.135845 0.89905 0.0565651 0.191748 0.558181 
0.180619 0.048769 0.597538 0.522256 0.348009 
0.912506 0.560727 0.41839 0.870493 0.654259 
0.910887 0.786631 0.49736 0.131079 0.1891 
0.604872 0.417837 0.274253 0.281379 0.996577 
0.178972 0.893729 0.166319 0.00693425 0.368148 
0.569159 0.446498 0.0208951 0.551922 0.44583 
0.681702 0.542309 0.9997 0.902451 0.436436 
0.58413 0.0950502 0.124696 0.161494 0.355268 
0.199427 0.352215 0.6411 0.183919 0.645242 
0.874914 0.434505 0.625463 0.701243 0.449563 
0.773115 0.766599 0.551036 0.56598 0.358404 
0.412602 0.156025 0.0823912 0.996827 0.350951 
0.404105 0.226307 0.994141 0.235931 0.879145 
0.598846 0.160892 0.37233 0.978234 0.510033 
0.746123 0.559998 0.587831 0.526454 0.981311 
0.622797 0.228157 0.944576 0.210872 0.0906579 
0.0843094 0.920132 0.0905045 0.325557 0.111772 
0.826975 0.33204 0.980847 0.589359 0.662254 
0.552122 0.219403 0.366459 0.697018 0.901978 
0.947168 0.348033 0.0848057 0.157635 0.0572545 
0.592249 0.740653 0.304472 0.858233 0.740981 
0.506871 0.702248 0.548105 0.135356 0.568444 
0.0137738 0.956783 0.0739193 0.0914667 0.465272 
0.400817 0.99476 0.751019 0.160463 0.543875 
0.748967 0.957825 0.371991 0.30634 0.419186 
0.393076 0.424252 0.681058 0.151391 0.76886 
0.953975 0.604008 0.360063 0.105573 0.52225 
0.506237 0.979397 0.751025 0.886779 0.722778 
0.396314 0.43928 0.716949 0.416032 0.701961 
0.456048 0.441392 0.96719 0.602024 0.195613 
0.614352 0.386705 0.203511 0.457161 0.221505 
0.798425 0.207647 0.397728 0.723633 0.868204 
0.722627 0.685711 0.159745 0.243391 0.615907 
0.673718 0.25542 0.838909 0.727081 0.976606 
0.289327 0.232656 0.706191 0.612323 0.0839735 
0.375219 0.618792 0.788082 0.267821 0.84848 
0.892061 0.71915 0.224396 0.962623 0.00281365 
0.0854338 0.0635203 0.360153 0.373788 0.770059 
0.0379961 0.0161715 0.78889 0.88338 0.520154 
0.2902 0.144668 0.780177 0.964463 0.573478 
0.465887 0.398917 0.377128 0.00193862 0.462965 
0.29704 0.536289 0.550867 0.26181 0.625966 
0.447933 0.677792 0.939843 0.595266 0.362096 
0.420321 0.745502 0.858529 0.349134 0.862436 
0.654993 0.3829 0.645102 0.335697 0.812596 
0.774288 0.86292 0.976192 0.494709 0.380113 
0.201403 0.424766 0.942021 0.678611 0.302873 
0.0390585 0.943244 0.390179 0.0836978 0.909986 
0.364207 0.58825 0.694893 0.325992 0.524172 
0.443724 0.808936 0.0819971 0.28686 0.296539 
0.671582 0.49595 0.807781 0.819186 0.966992 
0.987797 0.861547 0.422316 0.349435 0.254259 
0.265172 0.441845 0.486733 0.861961 0.633817 
0.447601 0.869975 0.715632 0.782702 0.376624 
0.98084 0.107777 0.881167 0.134075 0.354615 
0.128955 0.263226 0.586428 0.56861 0.657384 
0.261573 0.703829 0.955471 0.929088 0.329872 
0.0515475 0.412622 0.186354 0.0285689 0.455668 
0.432965 0.0530459 0.804 0.0960356 0.257016 
0.4139 0.314107 0.946426 0.319345 0.327196 
0.659445 0.475708 0.669992 0.0609221 0.184813 
0.825962 0.687866 0.251619 0.822792 0.860405 
0.834058 0.614045 0.190414 0.641551 0.371661 
0.645696 0.0931863 0.10447 0.204331 0.828398 
0.99801 0.571311 0.601224 0.0282489 0.53952 
0.239746 0.750569 0.768688 0.125203 0.296013 
0.219993 0.120033 0.312198 0.033603 0.696549 
0.417472 0.98399 0.0822646 0.982331 0.287296 
0.217664 0.505948 0.988374 0.0942425 0.622415 
0.0575162 0.73907 0.655084 0.783959 0.32149 
0.240062 0.403356 0.842179 0.490041 0.505281 
0.439739 0.0990905 0.311358 0.585356 0.100726 
0.536925 0.0265209 0.812601 0.610596 0.28894 
0.903499 0.818977 0.965184 0.855227 0.285511 
0.220967 0.266819 0.0879208 0.496281 0.846325 
0.613077 0.315379 0.774297 0.77679 0.806216 
0.642107 0.267594 0.46288 0.570568 0.0290027 
0.892447 0.528419 0.11418 0.896398 0.0718514 
0.952409 0.087755 0.233991 0.130249 0.602024 
0.139856 0.199453 0.0415119 0.0258029 0.701529 
0.0335156 0.815063 0.072153 0.356104 0.107653 
0.890557 0.819214 0.257281 0.249022 0.954441 
0.922048 0.307353 0.632697 0.596697 0.00803882 
0.0170973 0.460515 0.0506522 0.996621 0.180587 
0.260691 0.184223 0.189689 0.575731 0.334271 
0.649477 0.58986 0.828777 0.747149 0.723177 
0.355925 0.058164 0.406167 0.0653337 0.318023 
0.261631 0.458667 0.586529 0.507009 0.922022 
0.349075 0.570769 0.413493 0.539715 0.475273 
0.774242 0.801785 0.626294 0.395387 0.956776 
0.572154 0.580345 0.813517 0.0644895 0.320695 
0.597429 0.0654117 0.360523 0.429214 0.94014 
0.14275 0.704001 0.550745 0.745464 0.927164 
0.257417 0.946436 0.377836 0.931243 0.128633 
0.860549 0.930343 0.455322 0.684271 0.146925 
0.262252 0.0332879 0.89487 0.788642 0.461374 
0.520689 0.178563 0.0925004 0.539631 0.924937 
0.132685 0.733706 0.773282 0.668682 0.23017 
0.800808 0.484943 0.392377 0.674054 0.718077 
0.50008 0.226244 0.429564 0.292413 0.832355 
0.509095 0.541394 0.343562 0.922814 0.916066 
0.0335054 0.223115 0.0939199 0.559817 0.509516 
0.557778 0.644504 0.86591 0.370481 0.7047 
0.643322 0.215873 0.331146 0.877651 0.517248 
0.750194 0.0107912 0.586499 0.856818 0.880523 
0.552155 0.976851 0.380514 0.213013 0.578217 
0.53168 0.602788 0.923568 0.943223 0.859037 
0.0770262 0.985729 0.271636 0.717372 0.528636 
0.492632 0.930249 0.429773 0.137631 0.3014 
0.448731 0.158544 0.171447 0.0223516 0.986267 
0.233015 0.973745 0.713288 0.0573242 0.878241 
0.273336 0.993508 0.536382 0.876823 0.0315188 
0.0403557 0.0658131 0.0952682 0.0725852 0.588873 
0.537313 0.832517 0.787364 0.617771 0.984823 
0.321681 0.848435 0.766184 0.300458 0.274369 
0.552094 0.708398 0.240337 0.832933 0.412436 
0.6328 0.29075 0.560067 0.135109 0.641094 
0.757005 0.0724492 0.336696 0.722816 0.0244243 
0.598694 0.390517 0.877423 0.309056 0.868112 
0.14206 0.67822 0.782045 0.176131 0.0299743 
0.0579191 0.994135 0.540533 0.729582 0.119133 
0.510462 0.840179 0.57189 0.824129 0.623988 
0.594744 0.422424 0.00277542 0.267734 0.743389 
0.494221 0.800005 0.381037 0.824823 0.43292 
0.795551 0.603704 0.617993 0.52277 0.796546 
0.959727 0.633734 0.524625 0.677484 0.00713171 
0.457184 0.801008 0.601809 0.14608 0.412347 
0.881619 0.060476 0.0520409 0.152674 0.596675 
0.156407 0.791934 0.401132 0.102152 0.0139586 
0.220681 0.361258 0.760115 0.106657 0.0634319 
0.280462 0.369769 0.453892 0.627763 0.817461 
0.306447 0.465076 0.496324 0.770979 0.397752 
0.41571 0.479699 0.270918 0.890079 0.1023 
0.203556 0.925774 0.57056 0.105096 0.840246 
0.178649 0.449401 0.845041 0.557349 0.826015 
0.405592 0.665841 0.109063 0.289056 0.0897268 
0.337919 0.934062 0.974409 0.254991 0.704716 
0.865129 0.837845 0.55763 0.447735 0.0252494 
0.893103 0.352223 0.0988871 0.0500366 0.542118 
0.95695 0.300589 0.374291 0.168968 0.376734 
0.391815 0.216411 0.88345 0.31624 0.889711 
0.710429 0.049044 0.582098 0.785406 0.057398 
0.848564 0.782256 0.980271 0.845989 0.622432 
0.0272507 0.0403953 0.685963 0.147524 0.893364 
0.987354 0.177695 0.198349 0.0576321 0.748582 
0.272563 0.944816 0.875652 0.898595 0.190034 
0.153928 0.706561 0.844499 0.877934 0.487667 
0.0802041 0.394204 0.257556 0.515371 0.859297 
0.328659 0.0416647 0.709229 0.515939 0.520392 
0.367046 0.411464 0.755193 0.216787 0.764129 
0.906206 0.5029 0.491695 0.144411 0.541771 
0.767702 0.116002 0.487669 0.839007 0.0595537 
0.548524 0.774997 0.721077 0.195766 0.464787 
0.694768 0.0580789 0.0272197 0.196878 0.896045 
0.812638 0.60421 0.318148 0.729472 0.960457 
0.596469 0.169016 0.958122 0.43523 0.112098 
0.125094 0.422275 0.346407 0.690858 0.593638 
0.433912 0.843541 0.446377 0.284623 0.789239 
0.281785 0.00911887 0.716395 0.362055 0.248094 
0.974533 0.616147 0.0798868 0.00518337 0.655505 
0.62544 0.256618 0.427184 0.0394207 0.994461 
0.50007 0.596273 0.90266 0.499268 0.598803 
0.605599 0.521913 0.168225 0.540774 0.88037 
0.945755 0.27782 0.515525 0.249711 0.0462649 
0.98319 0.575128 0.495278 0.912832 0.160212 
0.587228 0.609162 0.287337 0.202872 0.243716 
0.294989 0.587417 0.734878 0.206599 0.0532242 
0.373495 0.516139 0.751288 0.440975 0.628618 
0.508792 0.685746 0.996793 0.828659 0.233109 
0.766065 0.210588 0.462171 0.346345 0.877068 
0.767801 0.752105 0.370484 0.31885 0.41413 
0.75791 0.558492 0.499447 0.288601 0.402634 
0.793675 0.334366 0.467381 0.0429375 0.788396 
0.933977 0.599551 0.190381 0.12231 0.408246 
0.70594 0.451053 0.527428 0.966735 0.453193 
0.577888 0.00618366 0.0212576 0.685013 0.0839397 
0.46259 0.651921 0.910407 0.621866 0.500982 
0.277566 0.629722 0.577742 0.355259 0.461286 
