4800 5
0.532214 0.257475 0.731393 0.591415 0.200682 
0.264958 0.742021 0.934135 0.220563 0.753869 
0.655271 0.303538 0.412092 0.946979 0.941105 
0.612548 0.195932 0.310485 0.914789 0.653035 
0.13953 0.585981 0.896141 0.470768 0.763516 
0.300535 0.384951 0.903089 0.295677 0.200159 
0.56231 0.91177 0.939193 0.501881 0.87872 
0.0341918 0.722135 0.04289 0.436784 0.678647 
0.558233 0.730308 0.887639 0.0533825 0.235181 
0.437047 0.824012 0.465142 0.51984 0.799639 
0.446671 0.229143 0.538888 0.766185 0.37289 
0.402219 0.543814 0.772561 0.910621 0.264529 
0.31354 0.814874 0.315444 0.36196 0.322045 
0.58668 0.793321 0.750893 0.356175 0.530052 
0.693555 0.497174 0.653025 0.984092 0.564812 
0.329782 0.161896 0.236791 0.518317 0.251962 
0.00351026 0.1539 0.983808 0.980794 0.163965 
0.0165751 0.99255 0.503208 0.0363377 0.921473 
0.186881 0.566112 0.810593 0.685391 0.990828 
0.468873 0.630582 0.427453 0.347881 0.539933 
0.716086 0.177189 0.102337 0.0338936 0.0495531 
0.407445 0.00506487 0.293257 0.562134 0.402026 
0.696612 0.415729 0.995159 0.991155 0.12997 
0.109958 0.583046 0.204706 0.642504 0.696011 
0.901629 0.942587 0.545276 0.0806164 0.771533 
0.159559 0.479839 0.308516 0.577079 0.742621 
0.411501 0.478178 0.127863 0.727173 0.95441 
0.452704 0.794955 0.937934 0.329596 0.185742 
0.862453 0.958104 0.0992913 0.784961 0.481455 
0.5377 0.250097 0.864191 0.135342 0.729341 
0.128478 0.532089 0.93283 0.876143 0.77675 
0.29697 0.451991 0.505963 0.668821 0.686535 
0.547859 0.76224 0.0325652 0.0460135 0.412951 
0.638317 0.207637 0.0542952 0.65629 0.970276 
0.865957 0.818578 0.169266 0.261388 0.627455 
0.523646 0.451684 0.474916 0.0522244 0.827311 
0.187667 0.0611446 0.0546432 0.0477857 0.598867 
0.764872 0.190108 0.0547768 0.0318301 0.923525 
0.633402 0.72492 0.742985 0.574207 0.209588 
0.033921 0.0456374 0.897548 0.314616 0.950363 
0.316118 0.997335 0.090289 0.740398 0.950177 
0.0724248 0.497413 0.655432 0.60906 0.131339 
0.50349 0.600667 0.18255 0.600708 0.00839748 
0.950925 0.0140671 0.184768 0.757222 0.557702 
0.935198 0.893056 0.662912 0.384348 0.318569 
0.167403 0.383682 0.370726 0.413469 0.166424 
0.270174 0.678465 0.117402 0.0152755 0.0342796 
0.880409 0.191613 0.389694 0.601685 0.377159 
0.140427 0.893115 0.872491 0.187449 0.930721 
0.497413 0.395614 0.779961 0.214652 0.504939 
0.797863 0.81679 0.383215 0.825645 0.272785 
0.637135 0.175197 0.00728426 0.143963 0.922424 
0.91847 0.272016 0.725585 0.0268395 0.723238 
0.213479 0.41689 0.372711 0.402025 0.115283 
0.0733348 0.955298 0.906317 0.920542 0.286344 
0.0304712 0.0219294 0.643564 0.0441105 0.690585 
0.66603 0.879774 0.19873 0.808652 0.810106 
0.387854 0.398414 0.987054 0.262531 0.441797 
0.475136 0.896444 0.0362633 0.601074 0.670368 
0.19787 0.973776 0.848605 0.254783 0.819117 
0.958071 0.894234 0.278173 0.0715436 0.115209 
0.728333 0.0359698 0.974659 0.341895 0.90484 
0.797495 0.584701 0.392765 0.195487 0.664404 
0.875946 0.344279 0.192694 0.483414 0.113757 
0.423675 0.174137 0.558662 0.836155 0.862946 
0.203996 0.231997 0.131373 0.704306 0.64453 
0.337252 0.0042856 0.232433 0.62751 0.964066 
0.201944 0.785881 0.319298 0.110365 0.819194 
0.154017 0.649645 0.462275 0.878358 0.136318 
0.572122 0.541453 0.151328 0.282623 0.220902 
0.136637 0.633515 0.279051 0.38827 0.338683 
0.314841 0.606902 0.0864424 0.858858 0.120944 
0.943314 0.207275 0.807344 0.386949 0.638468 
0.887731 0.799017 0.365807 0.756889 0.903872 
0.706184 0.772581 0.709376 0.865772 0.538565 
0.819337 0.3629 0.986976 0.98593 0.183624 
0.438324 0.671155 0.398714 0.702169 0.878107 
0.813258 0.0739544 0.0525348 0.278265 0.541 
0.513114 0.746452 0.210692 0.897747 0.861063 
0.407813 0.611611 0.85546 0.649328 0.236882 
0.80111 0.421725 0.916505 0.288758 0.509032 
0.870722 0.144646 0.911194 0.274425 0.55085 
0.110172 0.111289 0.544421 0.126413 0.821597 
0.18368 0.159946 0.193158 0.0120756 0.915348 
0.996885 0.96016 0.583974 0.459305 0.587734 
0.581252 0.340965 0.447316 0.640443 0.681379 
0.991508 0.236577 0.339382 0.289491 0.0801289 
0.0738482 0.182489 0.500476 0.126577 0.14145 
0.907795 0.501633 0.968025 0.219016 0.673261 
0.792002 0.929065 0.712083 0.639463 0.480217 
0.931191 0.300868 0.0155795 0.128207 0.472038 
0.999592 0.823599 0.275845 0.710626 0.178073 
0.0296839 0.103602 0.128281 0.0352871 0.402348 
0.000450242 0.0118204 0.95129 0.249574 0.698105 
0.282024 0.898967 0.368243 0.686897 0.970388 
0.713048 0.914858 0.256629 0.915604 0.377843 
0.579198 0.705166 0.673112 0.977733 0.908752 
0.919566 0.874402 0.314699 0.923071 0.846461 
0.609612 0.601948 0.680382 0.722913 0.454509 
0.909738 0.44693 0.199315 0.764853 0.117786 
0.34691 0.749609 0.816725 0.693908 0.285644 
0.279531 0.0330898 0.307911 0.486527 0.741686 
0.677408 0.789619 0.970746 0.322728 0.791518 
0.681273 0.208106 0.73307 0.946118 0.952499 
0.0162424 0.893009 0.283657 0.212949 0.527859 
0.369007 0.24175 0.155052 0.647938 0.825835 
0.478516 0.157283 0.545594 0.842424 0.205307 
0.492274 0.021665 0.0661724 0.764455 0.0600556 
0.497047 0.647933 0.985068 0.0763508 0.468852 
0.0523374 0.140919 0.0817426 0.613822 0.74634 
0.644951 0.406422 0.601701 0.86352 0.809602 
0.496784 0.707077 0.999244 0.159558 0.735805 
0.975721 0.147352 0.907421 0.255977 0.3934 
0.777933 0.40656 0.553396 0.198818 0.652005 
0.886592 0.887358 0.0305748 0.100901 0.655657 
0.531485 0.538252 0.211806 0.319899 0.290393 
0.585785 0.366364 0.694524 0.886003 0.712377 
0.790164 0.141597 0.531107 0.758344 0.795829 
0.278243 0.252261 0.0887331 0.679777 0.364697 
0.100972 0.226491 0.481705 0.306029 0.692348 
0.498605 0.277987 0.66488 0.0241593 0.247244 
0.698778 0.128351 0.396082 0.937539 0.4018 
0.910816 0.770596 0.0316803 0.589583 0.382077 
0.356339 0.213155 0.331208 0.552224 0.89413 
0.497569 0.450243 0.245294 0.587938 0.117667 
0.941034 0.710394 0.0341837 0.128447 0.741693 
0.485601 0.239977 0.9033 0.0422103 0.32852 
0.369287 0.797229 0.807637 0.734851 0.996651 
0.283825 0.43204 0.147125 0.81297 0.634755 
0.0340731 0.863917 0.0815507 0.931435 0.3418 
0.492473 0.0154646 0.177256 0.391636 0.629342 
0.118547 0.381107 0.479663 0.209625 0.466107 
0.222079 0.147816 0.201035 0.762352 0.172688 
0.300389 0.24085 0.314982 0.998658 0.533326 
0.853152 0.658139 0.65331 0.924383 0.295909 
0.62471 0.336346 0.123136 0.380612 0.470444 
0.937946 0.698635 0.572044 0.535373 0.813721 
0.387834 0.783644 0.620137 0.906779 0.353534 
0.685632 0.926127 0.476613 0.798453 0.0382168 
0.814679 0.541472 0.991972 0.791986 0.142184 
0.471212 0.192344 0.762244 0.585972 0.493436 
0.644588 0.0525984 0.977199 0.0146812 0.264592 
0.843126 0.918647 0.255885 0.0242116 0.0911408 
0.344851 0.924939 0.839523 0.525658 0.151098 
0.377301 0.0947853 0.0381261 0.415252 0.729166 
0.979814 0.418968 0.913797 0.655998 0.947614 
0.37205 0.412441 0.188951 0.684784 0.732428 
0.00410461 0.37465 0.554003 0.592724 0.927289 
0.797833 0.387212 0.625639 0.175535 0.536448 
0.857038 0.538703 0.467338 0.457185 0.424867 
0.317489 0.113532 0.790544 0.473028 0.103408 
0.561814 0.918515 0.265245 0.415858 0.632249 
0.200459 0.230903 0.238557 0.554605 0.649915 
0.415629 0.572467 0.721778 0.0736256 0.235501 
0.87715 0.483159 0.492518 0.930096 0.404528 
0.0478201 0.130695 0.847208 0.96189 0.856341 
0.384554 0.96062 0.783133 0.631022 0.963182 
0.942454 0.0326634 0.900548 0.507852 0.141327 
0.332168 0.806032 0.444597 0.57487 0.861982 
0.17051 0.543443 0.27211 0.335123 0.0644709 
0.00581724 0.0367608 0.845278 0.397488 0.877686 
0.848141 0.691127 0.347677 0.790757 0.233591 
0.662642 0.796492 0.411469 0.708671 0.314484 
0.629857 0.736716 0.627589 0.791203 0.515406 
0.545381 0.0345136 0.769447 0.821002 0.489765 
0.199314 0.974881 0.621376 0.46746 0.495758 
0.997134 0.0324029 0.632732 0.795651 0.911481 
0.669463 0.484072 0.0204022 0.482067 0.187699 
0.442827 0.450746 0.687519 0.99245 0.825599 
0.263074 0.351287 0.282326 0.441764 0.287956 
0.221559 0.751462 0.00872635 0.603125 0.399546 
0.44097 0.385303 0.393799 0.562534 0.361785 
0.269157 0.574568 0.738681 0.530167 0.748945 
0.0984178 0.885936 0.387387 0.883664 0.821166 
0.558121 0.257942 0.994076 0.537796 0.237589 
0.808661 0.314028 0.239725 0.205634 0.412385 
0.365006 0.788405 0.533398 0.703667 0.715293 
0.248136 0.506215 0.923508 0.0713637 0.302732 
0.0595412 0.598754 0.320179 0.591299 0.62785 
0.184879 0.713054 0.2429 0.192922 0.529729 
0.398082 0.337167 0.879425 0.77599 0.389864 
0.716138 0.967682 0.86935 0.333126 0.720031 
0.366074 0.562985 0.751798 0.60327 0.355262 
0.723322 0.088251 0.742096 0.388998 0.0880437 
0.819278 0.346196 0.918429 0.999583 0.735959 
0.761434 0.0315866 0.283731 0.696028 0.876068 
0.395972 0.867976 0.703401 0.331692 0.238434 
0.181155 0.94994 0.605788 0.285968 0.991653 
0.248008 0.827761 0.695199 0.579727 0.595806 
0.639006 0.973139 0.717102 0.926525 0.616682 
0.288918 0.881488 0.153788 0.339355 0.592586 
0.0551807 0.172764 0.0287398 0.228653 0.863338 
0.639623 0.468219 0.568935 0.800649 0.745831 
0.775002 0.376209 0.675932 0.940159 0.930163 
0.0255652 0.268795 0.63379 0.95572 0.0111226 
0.201892 0.923612 0.930442 0.29824 0.216579 
0.18692 0.144598 0.100562 0.204615 0.90617 
0.605443 0.258842 0.749453 0.530732 0.0985497 
0.670253 0.513337 0.758008 0.590717 0.614941 
0.344026 0.175362 0.10056 0.744055 0.942923 
0.943708 0.657329 0.442255 0.88252 0.208607 
0.413449 0.319665 0.368157 0.970163 0.0851653 
0.527029 0.522783 0.10826 0.644189 0.284725 
0.903682 0.827999 0.664957 0.71936 0.0431542 
0.0773621 0.717018 0.844523 0.338071 0.216068 
0.0273382 0.316485 0.333254 0.927256 0.850995 
0.298968 0.772219 0.134983 0.281601 0.71995 
0.416231 0.630592 0.74036 0.902518 0.0901032 
0.198082 0.931022 0.0942149 0.358473 0.43079 
0.473701 0.756591 0.280931 0.396501 0.664735 
0.396833 0.386857 0.393964 0.877899 0.931821 
0.321484 0.668985 0.627432 0.360591 0.370856 
0.163318 0.687902 0.485651 0.251073 0.30471 
0.988118 0.549894 0.432962 0.126594 0.458484 
0.805229 0.328131 0.733336 0.623786 0.021453 
0.720735 0.506147 0.152679 0.974484 0.0241887 
0.272892 0.611053 0.682756 0.310869 0.700207 
0.00517914 0.672221 0.520856 0.61101 0.284072 
0.629591 0.52955 0.517825 0.497845 0.0382179 
0.513608 0.0265012 0.0335488 0.689306 0.852593 
0.371124 0.976798 0.120855 0.299221 0.050504 
0.218513 0.347262 0.615284 0.300503 0.758606 
0.253992 0.946029 0.0562193 0.761103 0.791707 
0.311078 0.446777 0.916741 0.716027 0.286612 
0.854979 0.356059 0.472435 0.245492 0.838525 
0.806485 0.884872 0.58803 0.953497 0.580639 
0.519196 0.966165 0.181613 0.538504 0.786807 
0.507162 0.598002 0.235695 0.279916 0.632376 
0.0733421 0.773826 0.819506 0.173561 0.835855 
0.573234 0.0175355 0.161838 0.0888028 0.165113 
0.988672 0.511465 0.193367 0.435117 0.828755 
0.90257 0.76911 0.408949 0.332824 0.97431 
0.735351 0.572061 0.142952 0.792594 0.00521826 
0.573014 0.892769 0.75368 0.697305 0.0593288 
0.352047 0.780154 0.494967 0.254802 0.90547 
0.444409 0.323446 0.566454 0.694247 0.875693 
0.337626 0.5574 0.959577 0.235379 0.13384 
0.865572 0.965681 0.525588 0.142548 0.472199 
0.709221 0.925132 0.855208 0.612395 0.305144 
0.0832 0.920678 0.426402 0.665786 0.762298 
0.502792 0.909851 0.879606 0.816519 0.863707 
0.210861 0.77837 0.620617 0.663819 0.931259 
0.528044 0.45591 0.347113 0.162922 0.496061 
0.371235 0.156851 0.724923 0.0955881 0.663606 
0.883009 0.16507 0.491759 0.284972 0.0452163 
0.316794 0.811026 0.0846816 0.296829 0.107229 
0.686659 0.834836 0.701499 0.702869 0.0836824 
0.45134 0.75994 0.402322 0.998744 0.690862 
0.298659 0.433766 0.514765 0.368601 0.856502 
0.769193 0.695786 0.150968 0.530642 0.349637 
0.166459 0.123895 0.357725 0.0272709 0.340001 
0.17018 0.622877 0.316391 0.720404 0.124312 
0.84183 0.356923 0.686854 0.706672 0.941053 
0.218238 0.203879 0.868947 0.866527 0.101967 
0.929203 0.547351 0.46813 0.281428 0.614189 
0.612546 0.0249583 0.0934554 0.710528 0.993523 
0.0330082 0.212891 0.135669 0.575742 0.516242 
0.414901 0.466987 0.188543 0.576417 0.330045 
0.430122 0.833174 0.434505 0.414219 0.728699 
0.374034 0.750111 0.181182 0.159017 0.306473 
0.734811 0.885348 0.738641 0.888863 0.528868 
0.605295 0.21678 0.487319 0.191011 0.356088 
0.697278 0.532407 0.460704 0.221805 0.139749 
0.0278405 0.988138 0.123857 0.151163 0.919949 
0.519995 0.743781 0.31359 0.918181 0.84622 
0.828923 0.716714 0.126641 0.223452 0.676127 
0.0459761 0.853115 0.938268 0.22916 0.531632 
0.468224 0.500271 0.512935 0.734218 0.0994148 
0.668972 0.305188 0.0929272 0.399166 0.214643 
0.158608 0.808292 0.0612126 0.386764 0.430183 
0.967611 0.0853018 0.348267 0.729405 0.688775 
0.324437 0.0627979 0.986982 0.854033 0.490679 
0.114244 0.284248 0.671706 0.86316 0.020504 
0.148833 0.0286916 0.231287 0.881738 0.489518 
0.30615 0.0131976 0.668818 0.993274 0.241225 
0.193643 0.877495 0.673663 0.0241305 0.92981 
0.915152 0.123117 0.83231 0.301432 0.239404 
0.627458 0.162784 0.127699 0.535967 0.212308 
0.740534 0.982957 0.4566 0.0332763 0.39319 
0.668562 0.751411 0.362825 0.391897 0.294489 
0.123182 0.309183 0.511843 0.725757 0.110504 
0.815684 0.681378 0.380783 0.285336 0.42331 
0.748411 0.79236 0.276841 0.403576 0.724559 
0.0729576 0.649765 0.672809 0.0837615 0.373758 
0.894865 0.0975346 0.722952 0.43799 0.411838 
0.322293 0.792081 0.983164 0.220355 0.698005 
0.652934 0.824809 0.284463 0.075133 0.350791 
0.893498 0.0444235 0.973933 0.60248 0.451621 
0.743363 0.655922 0.444241 0.691891 0.840988 
0.530384 0.593045 0.252873 0.334012 0.815586 
0.00299142 0.441732 0.626101 0.403199 0.989559 
0.161722 0.787894 0.120887 0.389192 0.981822 
0.396684 0.994774 0.351242 0.704382 0.870989 
0.286554 0.948877 0.374926 0.262137 0.641681 
0.263867 0.993433 0.731882 0.462428 0.653364 
0.480598 0.574474 0.264484 0.299863 0.979576 
0.103443 0.831274 0.299611 0.285948 0.734525 
0.829298 0.542404 0.717172 0.145094 0.687081 
0.425323 0.775266 0.87414 0.917657 0.792271 
0.270979 0.556052 0.68681 0.957568 0.0348609 
0.397034 0.584282 0.669874 0.862184 0.842959 
0.549596 0.87364 0.172072 0.201094 0.840592 
0.358528 0.623833 0.878039 0.440023 0.427217 
0.417689 0.458401 0.398403 0.546448 0.795619 
0.74115 0.446902 0.931161 0.894003 0.764587 
0.458258 0.500088 0.864376 0.199637 0.806767 
0.867465 0.116576 0.535766 0.684126 0.556724 
0.255121 0.951013 0.5631 0.150041 0.151791 
0.446903 0.451982 0.47207 0.772595 0.370079 
0.0743759 0.939975 0.235332 0.57598 0.617101 
0.677976 0.591999 0.457627 0.390197 0.0580051 
0.704378 0.524033 0.303123 0.783999 0.397604 
0.978126 0.297683 0.908952 0.877108 0.306458 
0.548417 0.777925 0.2473 0.4989 0.112494 
0.0813547 0.0976214 0.573796 0.0543881 0.898503 
0.415685 0.380838 0.107941 0.30882 0.721672 
0.938588 0.558388 0.238689 0.282659 0.789373 
0.887498 0.322433 0.529592 0.526206 0.909766 
0.483407 0.935512 0.407141 0.0116926 0.712622 
0.815995 0.015592 0.131538 0.00610978 0.804315 
0.883387 0.526166 0.532189 0.426431 0.350594 
0.185371 0.184888 0.208704 0.94379 0.293104 
0.686912 0.729246 0.955698 0.954196 0.182621 
0.965977 0.265089 0.496467 0.153606 0.435255 
0.164285 0.55097 0.0539557 0.19245 0.104861 
0.989722 0.0605058 0.477342 0.70086 0.690042 
0.913793 0.00587406 0.590091 0.826433 0.300033 
0.14253 0.591088 0.681057 0.271356 0.316699 
0.519635 0.961263 0.922805 0.212854 0.747632 
0.850292 0.224146 0.0254085 0.116649 0.131837 
0.130462 0.0975968 0.534085 0.630825 0.279996 
0.142218 0.0711378 0.838246 0.0125011 0.359615 
0.758928 0.075794 0.46516 0.595325 0.494683 
0.871889 0.0273057 0.247817 0.830028 0.419116 
0.798566 0.651767 0.886995 0.213076 0.480249 
0.677487 0.831522 0.523329 0.292594 0.973305 
0.68346 0.750573 0.230018 0.476785 0.351215 
0.0266218 0.327859 0.794304 0.438985 0.723186 
0.938707 0.0577743 0.962237 0.570977 0.276568 
0.908999 0.801596 0.709 0.831844 0.716819 
0.580455 0.938437 0.635614 0.158403 0.400754 
0.695881 0.942726 0.780698 0.0128907 0.453955 
0.0841958 0.568761 0.639342 0.732061 0.772761 
0.0177344 0.988154 0.701025 0.985847 0.155078 
0.883658 0.819734 0.130345 0.887433 0.230186 
0.109242 0.500308 0.910055 0.228787 0.75255 
0.995987 0.428176 0.147013 0.110072 0.646181 
0.725267 0.12026 0.529744 0.823367 0.56215 
0.777824 0.836189 0.838758 0.826005 0.162162 
0.488175 0.913537 0.276493 0.733878 0.49022 
0.652298 0.790924 0.316766 0.994012 0.501975 
0.476931 0.00146477 0.200375 0.147518 0.522825 
0.749502 0.282439 0.603546 0.275158 0.759305 
0.504027 0.959066 0.271157 0.274289 0.760382 
0.0197938 0.258532 0.241771 0.471747 0.404364 
0.847974 0.136117 0.67634 0.402118 0.823383 
0.884231 0.162062 0.911439 0.373093 0.799265 
0.942299 0.783544 0.0124928 0.777506 0.35125 
0.375148 0.88574 0.334235 0.72655 0.524337 
0.54844 0.637488 0.841533 0.0677353 0.314025 
0.638924 0.107978 0.338541 0.196227 0.258059 
0.683949 0.885545 0.419672 0.121459 0.553916 
0.00266615 0.061203 0.867535 0.675478 0.0568869 
0.356529 0.55673 0.789296 0.454803 0.794989 
0.269088 0.399287 0.137715 0.385741 0.150354 
0.975913 0.0547091 0.837487 0.753048 0.969224 
0.872227 0.450834 0.776203 0.896008 0.260544 
0.914626 0.0965873 0.149393 0.244348 0.65741 
0.288268 0.419025 0.981092 0.358794 0.794117 
0.60347 0.0706536 0.186055 0.929926 0.808521 
0.0506405 0.292246 0.778075 0.746148 0.600031 
0.0381195 0.332461 0.518483 0.964194 0.143488 
0.891672 0.544258 0.807541 0.126714 0.975136 
0.011687 0.940188 0.960527 0.566229 0.30732 
0.909949 0.866288 0.145381 0.28153 0.820506 
0.545692 0.448304 0.945821 0.0514244 0.331281 
0.0397098 0.953461 0.657562 0.755183 0.547971 
0.316593 0.969082 0.0164797 0.31375 0.132942 
0.698501 0.0939618 0.803991 0.877132 0.446987 
0.803011 0.594776 0.213202 0.192198 0.459285 
0.65534 0.915577 0.00558392 0.963649 0.743065 
0.183891 0.378217 0.112664 0.225202 0.249904 
0.31453 0.588232 0.895824 0.469449 0.288903 
0.840647 0.683551 0.0485029 0.898388 0.297395 
0.916099 0.678345 0.643701 0.832372 0.476756 
0.170692 0.742319 0.923878 0.64348 0.300122 
0.496845 0.456231 0.581181 0.204795 0.710799 
0.482112 0.588982 0.662629 0.397923 0.701429 
0.285171 0.652577 0.3556 0.94096 0.731361 
0.454911 0.646034 0.966279 0.61627 0.878557 
0.552843 0.0166999 0.818345 0.303796 0.686385 
0.0958484 0.119743 0.0315268 0.972267 0.146052 
0.893009 0.162661 0.190368 0.980271 0.617384 
0.111085 0.864215 0.309894 0.537878 0.610386 
0.882659 0.108266 0.398827 0.511094 0.387215 
0.37767 0.00386507 0.216314 0.0742458 0.587693 
0.849647 0.607231 0.774243 0.567816 0.338422 
0.0131197 0.768452 0.92076 0.306073 0.272911 
0.452701 0.828564 0.934279 0.0171281 0.355929 
0.969721 0.048551 0.257333 0.00924455 0.435897 
0.732682 0.688477 0.174971 0.580665 0.427313 
0.569276 0.838899 0.492453 0.967696 0.552327 
0.501611 0.037057 0.744067 0.0658773 0.388763 
0.364311 0.75322 0.364475 0.548248 0.4467 
0.718356 0.421181 0.677458 0.699574 0.613129 
0.272386 0.49042 0.408824 0.132698 0.130729 
0.303071 0.259198 0.13623 0.145249 0.713777 
0.137721 0.180121 0.105523 0.361865 0.414722 
0.76327 0.306923 0.195691 0.781512 0.794645 
0.0468888 0.910964 0.335887 0.466787 0.490535 
0.746387 0.367654 0.899832 0.177087 0.169816 
0.180926 0.068974 0.541684 0.0110517 0.513126 
0.353658 0.419549 0.706299 0.98403 0.528347 
0.246384 0.381923 0.954082 0.671414 0.274305 
0.153861 0.808813 0.00463247 0.825999 0.522167 
0.755539 0.431776 0.954096 0.334851 0.441446 
0.569727 0.0901895 0.164029 0.875603 0.152023 
0.0686706 0.673244 0.48029 0.763253 0.233049 
0.420961 0.304403 0.781564 0.198187 0.753743 
0.764836 0.233307 0.255783 0.717816 0.966776 
0.0371044 0.582132 0.962364 0.0408342 0.832743 
0.545914 0.893677 0.715949 0.67339 0.203265 
0.862668 0.0375758 0.742259 0.531196 0.990262 
0.251339 0.406469 0.660242 0.557844 0.431045 
0.910158 0.514631 0.529374 0.602355 0.569657 
0.996929 0.543661 0.271511 0.343694 0.94749 
0.0182026 0.774379 0.98681 0.0902377 0.709604 
0.922358 0.596276 0.850635 0.982241 0.671724 
0.151988 0.595013 0.221718 0.480596 0.186942 
0.472539 0.144186 0.913777 0.704633 0.315126 
0.479229 0.421713 0.157683 0.522855 0.315347 
0.96171 0.288249 0.147581 0.517618 0.826632 
0.286566 0.673248 0.813686 0.506742 0.730786 
0.635255 0.137102 0.765075 0.469044 0.240155 
0.673378 0.572364 0.64395 0.858929 0.0475144 
0.108176 0.201994 0.996597 0.32175 0.410853 
0.306267 0.442124 0.249288 0.0689921 0.152433 
0.121918 0.700673 0.704467 0.973275 0.21627 
0.413329 0.245879 0.301686 0.353285 0.395581 
0.522501 0.7394 0.557017 0.898894 0.874928 
0.511644 0.0308292 0.245839 0.769121 0.375539 
0.177821 0.570764 0.521254 0.0460608 0.453022 
0.972806 0.20139 0.795332 0.206231 0.824186 
0.0711417 0.684167 0.256751 0.890472 0.401812 
0.525279 0.971505 0.674693 0.512265 0.0738217 
0.0576925 0.986053 0.206606 0.976784 0.0409369 
0.529168 0.391649 0.191835 0.915765 0.209737 
0.962129 0.378917 0.0602872 0.732917 0.414473 
0.663078 0.667548 0.437534 0.255593 0.308734 
0.683845 0.467792 0.424225 0.359089 0.97663 
0.387301 0.310074 0.610696 0.302985 0.673983 
0.0864229 0.399325 0.264167 0.632504 0.0410632 
0.433838 0.996264 0.339953 0.776416 0.145676 
0.122345 0.809821 0.26934 0.873526 0.626093 
0.747486 0.864895 0.35964 0.277137 0.017517 
0.29053 0.48509 0.508375 0.31223 0.158795 
0.413335 0.848887 0.238058 0.322442 0.331886 
0.894701 0.820194 0.498514 0.187199 0.796354 
0.684512 0.597088 0.238913 0.346596 0.5046 
0.446451 0.458627 0.0218664 0.390773 0.652998 
0.770409 0.0413446 0.695249 0.0453319 0.215138 
0.190038 0.116866 0.149832 0.0126659 0.826192 
0.0156872 0.385107 0.673121 0.573222 0.541476 
0.466743 0.169956 0.555232 0.333517 0.807046 
0.753926 0.536312 0.330394 0.315 0.0659701 
0.854064 0.315049 0.0495231 0.803247 0.886759 
0.399604 0.73041 0.392172 0.178503 0.892319 
0.892238 0.646448 0.754913 0.753947 0.355399 
0.00245714 0.501508 0.75939 0.20268 0.542022 
0.386906 0.949539 0.980896 0.166675 0.144629 
0.165054 0.119138 0.237263 0.166327 0.190191 
0.177691 0.709225 0.42993 0.826217 0.892224 
0.312916 0.393126 0.0929538 0.375426 0.948579 
0.832074 0.0506398 0.185238 0.120624 0.814694 
0.623634 0.774171 0.399411 0.926457 0.382584 
0.5891 0.817185 0.207952 0.200043 0.623043 
0.805122 0.0404571 0.520973 0.577252 0.79378 
0.951414 0.446177 0.0151945 0.0448264 0.294954 
0.557201 0.814123 0.274023 0.355203 0.108605 
0.878763 0.330437 0.940496 0.741032 0.290832 
0.371862 0.301058 0.971509 0.0359306 0.698281 
0.902955 0.199091 0.570149 0.57449 0.865001 
0.156988 0.5925 0.571312 0.880079 0.814984 
0.72326 0.56318 0.332299 0.74106 0.444157 
0.755549 0.180067 0.465347 0.338379 0.23956 
0.064453 0.851656 0.794671 0.0319196 0.0738911 
0.697198 0.182967 0.409275 0.230199 0.954011 
0.321263 0.953258 0.112511 0.0146722 0.911397 
0.287897 0.859679 0.672012 0.206917 0.384027 
0.760341 0.662444 0.997022 0.933244 0.272157 
0.199913 0.997997 0.156616 0.143872 0.0983044 
0.524251 0.544602 0.21807 0.277301 0.294589 
0.578711 0.790322 0.189214 0.48819 0.567044 
0.388705 0.155286 0.141614 0.708295 0.0187704 
0.851653 0.552653 0.975097 0.499913 0.174095 
0.969384 0.249874 0.236139 0.285172 0.715436 
0.466366 0.631403 0.397494 0.712626 0.796726 
0.977891 0.333989 0.778476 0.742781 0.292998 
0.621588 0.678576 0.247343 0.351587 0.747125 
0.54558 0.53806 0.0807251 0.714243 0.800485 
0.291823 0.544991 0.936606 0.733997 0.460695 
0.25658 0.267447 0.965852 0.2803 0.72477 
0.504946 0.443714 0.0150023 0.4788 0.12045 
0.926024 0.297006 0.529649 0.49262 0.273718 
0.698673 0.0115875 0.96937 0.343926 0.252545 
0.290406 0.953609 0.39858 0.263651 0.126516 
0.630121 0.0694912 0.713812 0.968984 0.876286 
0.0260962 0.422063 0.136874 0.66407 0.562823 
0.121798 0.873231 0.538225 0.786919 0.395612 
0.0352455 0.228431 0.979071 0.90721 0.938976 
0.656272 0.363772 0.578877 0.854564 0.788454 
0.79696 0.570156 0.138658 0.398707 0.94533 
0.462266 0.737868 0.656377 0.257623 0.861889 
0.874795 0.138097 0.946684 0.790051 0.256635 
0.929737 0.214624 0.218132 0.182652 0.201694 
0.812817 0.82883 0.286442 0.808473 0.0497259 
0.213382 0.746524 0.00820302 0.487896 0.633508 
0.826982 0.95149 0.75139 0.57179 0.821387 
0.821209 0.804352 0.432449 0.036358 0.00232598 
0.493154 0.592957 0.614571 0.12442 0.199484 
0.812004 0.535878 0.358682 0.480682 0.772257 
0.225694 0.920295 0.689092 0.613063 0.383151 
0.86544 0.766712 0.142722 0.753651 0.212134 
0.267967 0.0184767 0.107548 0.633286 0.815993 
0.194808 0.0592909 0.811495 0.800169 0.0632477 
0.89479 0.220126 0.785701 0.609208 0.67811 
0.0271405 0.848154 0.792367 0.745269 0.880768 
0.435431 0.12301 0.300884 0.962611 0.297152 
0.152841 0.72987 0.00209186 0.496764 0.711145 
0.021361 0.653937 0.891349 0.401071 0.799874 
0.12324 0.381278 0.949415 0.530708 0.120256 
0.658187 0.472329 0.31034 0.470411 0.793259 
0.516069 0.849156 0.315592 0.804029 0.46281 
0.51051 0.83218 0.544248 0.393646 0.352896 
0.425444 0.983931 0.490784 0.994796 0.640296 
0.667444 0.159735 0.244358 0.931674 0.879938 
0.879208 0.850652 0.280173 0.74374 0.123319 
0.236321 0.388866 0.200373 0.339296 0.0990245 
0.0852766 0.930255 0.105302 0.142464 0.163449 
0.154638 0.448832 0.411196 0.877603 0.785173 
0.70054 0.49209 0.370458 0.737102 0.44554 
0.55851 0.0732396 0.978222 0.416813 0.169492 
0.394367 0.461079 0.898798 0.738455 0.958221 
0.890979 0.189123 0.342249 0.172757 0.693343 
0.501263 0.558909 0.913977 0.91928 0.957701 
0.678501 0.108936 0.0119482 0.261497 0.115095 
0.486268 0.0724423 0.958355 0.536258 0.519199 
0.64842 0.563863 0.930348 0.0183255 0.298297 
0.840117 0.193534 0.285564 0.699892 0.570228 
0.788345 0.702556 0.394791 0.619589 0.608596 
0.51648 0.148636 0.293559 0.430769 0.888219 
0.960938 0.351993 0.91714 0.234464 0.626434 
0.914605 0.189518 0.104587 0.951348 0.913348 
0.544694 0.753035 0.287433 0.123446 0.814558 
0.965771 0.00758359 0.440287 0.187143 0.245053 
0.827634 0.915975 0.946125 0.587909 0.0721327 
0.757368 0.595482 0.0898094 0.289158 0.087946 
0.183785 0.536961 0.88984 0.189203 0.680047 
0.768857 0.728859 0.468095 0.881994 0.700483 
0.16089 0.625806 0.0222195 0.274803 0.514211 
0.323341 0.613198 0.966029 0.195441 0.869668 
0.679749 0.287102 0.275643 0.0510915 0.366484 
0.776054 0.269434 0.492939 0.324795 0.864256 
0.754906 0.396609 0.745971 0.434168 0.925348 
0.221816 0.933891 0.375535 0.611703 0.851048 
0.501813 0.735538 0.823125 0.307615 0.259422 
0.206922 0.802852 0.678553 0.651806 0.586225 
0.176544 0.0768793 0.0499647 0.19141 0.254308 
0.936359 0.862407 0.147095 0.0925829 0.953652 
0.70861 0.938481 0.916167 0.850714 0.172029 
0.653739 0.386327 0.413672 0.407009 0.29192 
0.305838 0.0105108 0.415817 0.524005 0.948489 
0.739461 0.206292 0.498623 0.0441022 0.0265995 
0.00964006 0.80987 0.0531617 0.861519 0.434701 
0.0708104 0.985742 0.0695672 0.373659 0.114233 
0.266226 0.283244 0.440001 0.251362 0.114749 
0.627437 0.685483 0.165997 0.55064 0.801922 
0.485856 0.717458 0.446482 0.629293 0.1821 
0.363689 0.722238 0.174791 0.131336 0.769278 
0.113589 0.078258 0.911762 0.368715 0.734367 
0.781469 0.0669409 0.112001 0.00446173 0.274741 
0.101384 0.742582 0.641073 0.240019 0.027129 
0.392285 0.297017 0.535565 0.347308 0.327233 
0.498422 0.593421 0.795139 0.658548 0.864808 
0.670931 0.771734 0.837437 0.724968 0.608085 
0.994849 0.237977 0.844724 0.863944 0.494399 
0.878825 0.876051 0.200781 0.263632 0.722453 
0.375439 0.173553 0.79787 0.846328 0.266268 
0.603193 0.206635 0.423029 0.534539 0.185664 
0.0844911 0.653706 0.839818 0.600487 0.711645 
0.924168 0.0651692 0.397261 0.288895 0.648714 
0.373024 0.281766 0.564352 0.00808621 0.240693 
0.309294 0.227974 0.164638 0.613461 0.475335 
0.930702 0.546618 0.706391 0.466244 0.556846 
0.843772 0.33025 0.932289 0.0990264 0.451506 
0.589339 0.743603 0.675554 0.982981 0.0205389 
0.689979 0.277883 0.420565 0.41544 0.280285 
0.355636 0.277972 0.084194 0.617468 0.187947 
0.50334 0.721474 0.676104 0.426118 0.108264 
0.849734 0.534334 0.425582 0.235916 0.873156 
0.622401 0.465282 0.514586 0.530823 0.676916 
0.78349 0.541051 0.553022 0.681198 0.20178 
0.806669 0.51335 0.850704 0.648998 0.733835 
0.259294 0.884353 0.362406 0.980012 0.498558 
0.147738 0.0598611 0.0182264 0.677377 0.4589 
0.254441 0.519149 0.80332 0.35664 0.783345 
0.565462 0.293038 0.603152 0.677459 0.711795 
0.669708 0.940903 0.807423 0.910016 0.147969 
0.047228 0.108133 0.727136 0.449299 0.170597 
0.482668 0.439422 0.506839 0.0482443 0.721023 
0.646987 0.295361 0.12726 0.984365 0.296216 
0.0217674 0.485358 0.237767 0.084874 0.967088 
0.886114 0.037137 0.54749 0.637788 0.569751 
0.064878 0.579239 0.701602 0.289702 0.2666 
0.924096 0.518433 0.732413 0.279611 0.454322 
0.322898 0.973066 0.454874 0.578368 0.889935 
0.257219 0.175164 0.899721 0.588817 0.613692 
0.0292823 0.435033 0.485365 0.929857 0.665966 
0.766813 0.00378038 0.193658 0.593374 0.434532 
0.512223 0.458569 0.403659 0.44579 0.355213 
0.885258 0.953132 0.291235 0.117062 0.490784 
0.922842 0.793769 0.560248 0.56167 0.198812 
0.906721 0.591818 0.192783 0.732388 0.403754 
0.818556 0.117049 0.0721375 0.163283 0.507346 
0.467131 0.942667 0.559886 0.921278 0.89724 
0.408166 0.0134292 0.0589558 0.963386 0.15228 
0.791733 0.842612 0.551793 0.8907 0.429122 
0.315655 0.422845 0.957052 0.549626 0.231412 
0.319786 0.731659 0.107233 0.843151 0.355048 
0.0683532 0.212773 0.758267 0.299412 0.647844 
0.208884 0.672055 0.361795 0.543806 0.876139 
0.550723 0.358932 0.00549323 0.454345 0.258201 
0.537505 0.185674 0.325504 0.570156 0.96323 
0.685718 0.231432 0.0138366 0.835115 0.473055 
0.391387 0.72974 0.683341 0.548803 0.552304 
0.201716 0.219139 0.797742 0.141175 0.761195 
0.321255 0.314082 0.0107109 0.775889 0.472485 
0.637734 0.177729 0.478642 0.360117 0.840897 
0.016778 0.253795 0.459439 0.308041 0.638778 
0.599005 0.449444 0.64411 0.736119 0.982948 
0.209115 0.952958 0.992208 0.858565 0.390063 
0.969277 0.112411 0.0224332 0.501075 0.236178 
0.0659854 0.414906 0.533925 0.608241 0.242556 
0.145941 0.159724 0.902808 0.68368 0.0980657 
0.246558 0.86061 0.441591 0.140019 0.549683 
0.0126238 0.0615002 0.783178 0.950731 0.0153013 
0.212314 0.534229 0.838676 0.821558 0.0283644 
0.138235 0.130506 0.317393 0.84618 0.677824 
0.39372 0.112945 0.837545 0.734093 0.227683 
0.0517957 0.212761 0.204358 0.503321 0.910649 
0.676443 0.822087 0.149326 0.29584 0.775644 
0.509642 0.851065 0.836264 0.10328 0.904172 
0.817716 0.311438 0.723469 0.993918 0.532368 
0.0187519 0.0459591 0.977096 0.859971 0.91834 
0.550963 0.158642 0.890705 0.0926144 0.703597 
0.67451 0.787486 0.0876047 0.752335 0.960545 
0.433921 0.197208 0.991939 0.516946 0.34651 
0.988866 0.474301 0.14993 0.317309 0.361966 
0.578826 0.847519 0.101658 0.777321 0.0166655 
0.00641407 0.220208 0.568154 0.00598287 0.591732 
0.418828 0.372302 0.466187 0.560677 0.319699 
0.226018 0.139219 0.741402 0.0383131 0.134393 
0.878132 0.572932 0.829838 0.90997 0.291291 
0.357438 0.252751 0.239919 0.384278 0.63638 
0.604199 0.770773 0.282595 0.0505173 0.3962 
0.721324 0.18199 0.971373 0.222636 0.506744 
0.661622 0.686775 0.646963 0.04398 0.870898 
0.495595 0.914107 0.408204 0.403767 0.262348 
0.00152656 0.0865443 0.268944 0.826189 0.512005 
0.373828 0.0431359 0.0964589 0.769075 0.312283 
0.216855 0.900179 0.279987 0.0909732 0.524544 
0.993893 0.372644 0.0612524 0.34954 0.027183 
0.781805 0.332559 0.283511 0.637345 0.582363 
0.493524 0.249143 0.105628 0.531056 0.993875 
0.537379 0.901704 0.849752 0.905607 0.715375 
0.957507 0.0388281 0.341902 0.167953 0.0797925 
0.459436 0.835787 0.980072 0.743011 0.991244 
0.298662 0.64183 0.283329 0.497254 0.0563519 
0.272709 0.74618 0.833253 0.4294 0.485141 
0.622719 0.530647 0.56145 0.852925 0.759826 
0.0859183 0.350166 0.0325191 0.446819 0.780804 
0.540829 0.461847 0.483148 0.958751 0.266536 
0.597883 0.059157 0.676944 0.483292 0.601886 
0.122796 0.709257 0.980103 0.652832 0.169268 
0.997436 0.938198 0.738635 0.626491 0.137393 
0.984549 0.207085 0.119902 0.775079 0.507231 
0.060218 0.895982 0.0907838 0.890538 0.28526 
0.730055 0.811446 0.711435 0.943456 0.660943 
0.561245 0.356515 0.252186 0.0924846 0.112065 
0.795227 0.446407 0.0723369 0.384424 0.229112 
0.80004 0.440094 0.6071 0.797549 0.287378 
0.404106 0.549985 0.382584 0.83696 0.421549 
0.55728 0.136707 0.0913882 0.00581439 0.82241 
0.701631 0.269415 0.864267 0.0710214 0.903718 
0.533199 0.80568 0.282526 0.488073 0.0768852 
0.929624 0.324242 0.879824 0.170958 0.466753 
0.806674 0.930418 0.967529 0.445774 0.544702 
0.817162 0.221435 0.938451 0.28898 0.734751 
0.426155 0.735438 0.458749 0.707515 0.0236502 
0.964243 0.138285 0.611458 0.881087 0.385271 
0.517687 0.768859 0.736026 0.211272 0.0415215 
0.103013 0.163022 0.0836803 0.143649 0.561934 
0.963561 0.579096 0.632855 0.73684 0.510217 
0.348395 0.195516 0.92313 0.235297 0.710252 
0.853381 0.609285 0.603676 0.415295 0.929327 
0.360795 0.404691 0.533557 0.0864016 0.0768696 
0.236093 0.758412 0.815991 0.526612 0.104026 
0.0386674 0.776497 0.476327 0.767938 0.688882 
0.58363 0.520874 0.0912401 0.12708 0.898718 
0.395188 0.127306 0.845365 0.885927 0.93074 
0.441297 0.213521 0.662972 0.995176 0.902395 
0.146476 0.0445318 0.848884 0.489901 0.244058 
0.274698 0.386291 0.328161 0.312912 0.0226064 
0.382559 0.832625 0.925508 0.430593 0.469604 
0.495533 0.906782 0.00757479 0.86453 0.589105 
0.293096 0.635915 0.728098 0.625882 0.895103 
0.550117 0.241042 0.870393 0.781457 0.348079 
0.800028 0.707327 0.60968 0.227638 0.629415 
0.393313 0.603992 0.561442 0.53007 0.141463 
0.782486 0.0824132 0.711813 0.354673 0.610729 
0.265832 0.569778 0.24468 0.616875 0.0241303 
0.0839307 0.427308 0.294528 0.840684 0.858515 
0.450378 0.973669 0.0687933 0.950269 0.101896 
0.620554 0.641169 0.832963 0.372579 0.492885 
0.282536 0.871218 0.984 0.177466 0.490431 
0.784019 0.454182 0.706673 0.620276 0.362246 
0.335979 0.102142 0.357999 0.83376 0.607469 
0.804254 0.277563 0.0820512 0.750936 0.13156 
0.74209 0.765964 0.0905471 0.861196 0.291205 
0.858868 0.429376 0.895507 0.568424 0.956189 
0.805038 0.653037 0.128195 0.311947 0.55453 
0.349394 0.303505 0.702874 0.844041 0.154332 
0.742197 0.489207 0.496453 0.602912 0.866951 
0.40173 0.805417 0.519689 0.0786456 0.972807 
0.46354 0.235824 0.859589 0.779101 0.252176 
0.0633908 0.856349 0.273753 0.390842 0.877189 
0.780413 0.756485 0.736086 0.112197 0.128364 
0.262781 0.25703 0.748667 0.0101521 0.120867 
0.505023 0.88382 0.269296 0.40819 0.208438 
0.514538 0.0313573 0.906928 0.123671 0.39208 
0.582013 0.688683 0.534683 0.35346 0.669266 
0.867654 0.461677 0.533829 0.213774 0.920523 
0.090914 0.452099 0.417447 0.337183 0.518321 
0.496795 0.86766 0.112988 0.0523578 0.462093 
0.782104 0.911808 0.577034 0.476203 0.399147 
0.0536997 0.837561 0.227683 0.682433 0.341706 
0.810571 0.755817 0.219305 0.27717 0.953235 
0.641549 0.910248 0.16234 0.803795 0.72792 
0.593052 0.33022 0.766203 0.0553932 0.45602 
0.513857 0.571322 0.0484763 0.630324 0.098684 
0.756909 0.353453 0.709874 0.937025 0.292791 
0.435297 0.323689 0.973713 0.272523 0.749244 
0.19295 0.392448 0.0635977 0.555942 0.0246764 
0.042977 0.299921 0.37603 0.913261 0.420358 
0.864996 0.0658815 0.690913 0.621898 0.387208 
0.56611 0.482652 0.446014 0.586535 0.375161 
0.398844 0.14594 0.186096 0.166551 0.783824 
0.645787 0.647072 0.756849 0.892537 0.549914 
0.299429 0.51147 0.534402 0.0953064 0.0791041 
0.0537546 0.587476 0.443911 0.598131 0.00296719 
0.0626884 0.673035 0.667009 0.650458 0.439784 
0.975193 0.592865 0.744329 0.962192 0.398412 
0.00257023 0.779441 0.506133 0.846344 0.117082 
0.696795 0.296346 0.506981 0.500643 0.132113 
0.0676096 0.0787915 0.688429 0.734632 0.834546 
0.596164 0.506424 0.380665 0.0215095 0.430804 
0.299368 0.071837 0.581544 0.770939 0.936398 
0.233981 0.194249 0.362044 0.817969 0.385426 
0.987977 0.377738 0.240203 0.336836 0.831324 
0.365052 0.752 0.287916 0.588763 0.660888 
0.874067 0.403537 0.17025 0.609531 0.219237 
0.688454 0.656642 0.441102 0.256964 0.1113 
0.903315 0.259644 0.416775 0.560192 0.544797 
0.538679 0.692846 0.0578454 0.475809 0.485067 
0.43937 0.444699 0.0687402 0.349484 0.867202 
0.877426 0.84092 0.773148 0.999456 0.207799 
0.434003 0.044212 0.350721 0.731817 0.454784 
0.00856667 0.153607 0.752422 0.051069 0.473903 
0.838777 0.104792 0.822383 0.333427 0.472768 
0.733416 0.238977 0.230038 0.16861 0.621634 
0.40513 0.589054 0.889302 0.441785 0.637441 
0.144299 0.103792 0.264732 0.660826 0.85859 
0.460206 0.693825 0.588409 0.791839 0.272883 
0.608573 0.766323 0.231431 0.338897 0.981904 
0.0655827 0.361068 0.338818 0.397527 0.548029 
0.931122 0.607948 0.0876465 0.0952326 0.146074 
0.250475 0.698813 0.85857 0.234186 0.883101 
0.294944 0.807561 0.885915 0.370705 0.105862 
0.119507 0.96838 0.26226 0.939194 0.406881 
0.0528811 0.628969 0.224768 0.835174 0.0636075 
0.603003 0.847272 0.61553 0.969351 0.0984952 
0.551455 0.439263 0.793115 0.306515 0.821358 
0.549607 0.945735 0.147421 0.707276 0.621713 
0.124191 0.384809 0.951055 0.0718822 0.530452 
0.477638 0.973244 0.234133 0.527684 0.425086 
0.543986 0.323057 0.111235 0.946693 0.0110338 
0.999694 0.0841954 0.376799 0.120614 0.815688 
0.296822 0.834102 0.943027 0.363736 0.429406 
0.597639 0.797369 0.836599 0.0943744 0.196703 
0.326555 0.1222 0.263661 0.200715 0.560777 
0.448481 0.401253 0.70617 0.318919 0.954187 
0.379243 0.564922 0.255582 0.962248 0.00489452 
0.838679 0.0661214 0.68715 0.407206 0.65685 
0.125377 0.891326 0.224855 0.973036 0.519449 
0.545033 0.133365 0.411361 0.595069 0.889835 
0.378908 0.100201 0.988565 0.872188 0.201295 
0.430846 0.499981 0.251456 0.0695614 0.733551 
0.362061 0.418408 0.196418 0.189956 0.61602 
0.93115 0.524757 0.0591434 0.0963236 0.710724 
0.973742 0.911055 0.0549204 0.409297 0.921848 
0.774974 0.808577 0.595498 0.60426 0.881946 
0.0196808 0.617546 0.418665 0.965159 0.676685 
0.175738 0.276641 0.0107654 0.310592 0.00465024 
0.367968 0.0463464 0.424483 0.288133 0.782789 
0.792577 0.201687 0.327546 0.735192 0.000316635 
0.804398 0.228573 0.62525 0.66659 0.851821 
0.962976 0.867635 0.201406 0.117457 0.113454 
0.610275 0.759964 0.0810144 0.889394 0.617603 
0.389639 0.287425 0.0738592 0.785669 0.713268 
0.0566813 0.936771 0.74178 0.642229 0.14972 
0.858104 0.459678 0.737257 0.669282 0.139444 
0.694754 0.313706 0.355239 0.265722 0.094634 
0.106606 0.932102 0.509013 0.692441 0.0560351 
0.420122 0.259232 0.0347634 0.398416 0.628865 
0.541647 0.957208 0.887697 0.846804 0.979247 
0.586119 0.377081 0.416097 0.344026 0.350733 
0.557291 0.661794 0.410334 0.874233 0.430993 
0.840925 0.10589 0.67292 0.626265 0.320305 
0.938423 0.22653 0.0412685 0.0778449 0.395611 
0.296378 0.0451297 0.554798 0.741739 0.291901 
0.130513 0.467671 0.212426 0.203654 0.730121 
0.472852 0.227847 0.837339 0.261338 0.000245437 
0.314927 0.747708 0.778858 0.977459 0.453769 
0.213677 0.0247688 0.750281 0.453908 0.567721 
0.514204 0.202683 0.859763 0.698499 0.044744 
0.932702 0.118879 0.0277141 0.0747486 0.625987 
0.64931 0.940229 0.739744 0.164081 0.848951 
0.197343 0.786968 0.0210769 0.551235 0.942261 
0.422313 0.268793 0.000593082 0.729233 0.262902 
0.44198 0.653023 0.0207847 0.814407 0.00872766 
0.179056 0.696207 0.948386 0.640464 0.117372 
0.949192 0.66803 0.60217 0.146502 0.429946 
0.589142 0.327645 0.915697 0.806261 0.886905 
0.172671 0.933709 0.247676 0.704042 0.247447 
0.770035 0.519415 0.863889 0.612899 0.316177 
0.148428 0.49875 0.302619 0.485859 0.670949 
0.674115 0.699338 0.317774 0.374483 0.798911 
0.103535 0.473651 0.908407 0.299772 0.865654 
0.241508 0.645779 0.359194 0.197408 0.764788 
0.669082 0.840538 0.840835 0.28696 0.109274 
0.379882 0.370879 0.929498 0.642492 0.357198 
0.092185 0.53252 0.393553 0.821035 0.617348 
0.92528 0.757246 0.649864 0.327453 0.51811 
0.303638 0.846006 0.493099 0.312849 0.723004 
0.529941 0.309202 0.00591566 0.393561 0.653843 
0.166858 0.169813 0.659153 0.219013 0.236735 
0.078611 0.442967 0.49421 0.221883 0.738073 
0.27561 0.10623 0.61605 0.628096 0.686878 
0.496296 0.499581 0.857457 0.886143 0.531508 
0.844936 0.117215 0.0252877 0.60003 0.31063 
0.613127 0.50165 0.304588 0.617392 0.503389 
0.698734 0.956246 0.0276998 0.290514 0.139232 
0.0140651 0.987383 0.326202 0.792421 0.885776 
0.94149 0.0597808 0.484234 0.234189 0.778985 
0.876973 0.290532 0.0656189 0.536944 0.094628 
0.151383 0.73363 0.850097 0.130921 0.769499 
0.294841 0.930115 0.576266 0.431538 0.799904 
0.625856 0.696368 0.672104 0.454394 0.849518 
0.0685363 0.682509 0.420807 0.799398 0.761832 
0.440764 0.921262 0.334087 0.0176908 0.783576 
0.537879 0.0495674 0.964374 0.752677 0.072588 
0.918975 0.35369 0.803608 0.528877 0.189108 
0.264874 0.394184 0.859386 0.57246 0.402213 
0.253258 0.0756455 0.234145 0.438681 0.93143 
0.792776 0.784738 0.041914 0.802851 0.28123 
0.0491361 0.0556993 0.848022 0.41989 0.418907 
0.14643 0.484125 0.246541 0.510228 0.0645327 
0.472651 0.0190096 0.894865 0.0470516 0.339553 
0.192323 0.412784 0.660993 0.571606 0.53109 
0.264223 0.648782 0.406811 0.956216 0.0271609 
0.152867 0.411602 0.46827 0.747364 0.36939 
0.269902 0.00918329 0.837316 0.516293 0.0499736 
0.826461 0.542601 0.424301 0.261406 0.41597 
0.62703 0.802484 0.81937 0.708067 0.179068 
0.326237 0.216886 0.401094 0.275965 0.899618 
0.929532 0.184894 0.854626 0.41776 0.163868 
0.829242 0.977836 0.768703 0.0788989 0.316832 
0.465432 0.733358 0.0891458 0.780712 0.316724 
0.488965 0.896048 0.195247 0.228547 0.425851 
0.283949 0.928344 0.176175 0.482438 0.296008 
0.850574 0.660827 0.87754 0.519946 0.933532 
0.0441533 0.98505 0.402257 0.0612472 0.845497 
0.927491 0.751915 0.511843 0.023117 0.471946 
0.785281 0.879586 0.52557 0.59324 0.365125 
0.195049 0.861117 0.624814 0.529846 0.540133 
0.698057 0.0419349 0.27461 0.949692 0.906894 
0.907072 0.858775 0.914735 0.802885 0.302269 
0.468243 0.442154 0.211497 0.461303 0.799141 
0.793533 0.885075 0.967642 0.512507 0.753322 
0.777805 0.973891 0.807569 0.237565 0.0274441 
0.335463 0.325075 0.66425 0.198239 0.0763265 
0.15851 0.544454 0.696378 0.925562 0.231772 
0.591756 0.0200204 0.91806 0.526591 0.34151 
0.534027 0.761401 0.432577 0.647167 0.728008 
0.214444 0.663596 0.187775 0.197905 0.22564 
0.0813702 0.327802 0.788261 0.195217 0.916382 
0.00920108 0.948287 0.472471 0.141101 0.253608 
0.889337 0.232858 0.897447 0.912338 0.413525 
0.0121225 0.0136814 0.50473 0.870712 0.955078 
0.21958 0.531437 0.114099 0.182 0.644772 
0.631031 0.858752 0.981578 0.392956 0.625899 
0.701853 0.979824 0.594382 0.576676 0.881495 
0.537158 0.0987987 0.0600666 0.145658 0.36707 
0.566656 0.988964 0.129365 0.212436 0.22316 
0.74009 0.806444 0.0243649 0.874323 0.827242 
0.661438 0.517566 0.411097 0.376692 0.565335 
0.881536 0.137148 0.278296 0.31623 0.109554 
0.830864 0.591637 0.685857 0.4946 0.303477 
0.0741273 0.800951 0.46812 0.206752 0.156155 
0.440204 0.553626 0.843783 0.283863 0.800081 
0.517508 0.85154 0.465942 0.616982 0.88152 
0.724268 0.596077 0.464173 0.0239243 0.761849 
0.113262 0.154001 0.431381 0.758206 0.956542 
0.0420613 0.605246 0.785021 0.272715 0.473038 
0.201482 0.0249236 0.609723 0.198961 0.870102 
0.672518 0.594853 0.440307 0.973228 0.943562 
0.0737862 0.726102 0.40222 0.583855 0.216269 
0.520273 0.399428 0.00793544 0.556077 0.465819 
0.676818 0.880858 0.904003 0.750829 0.999597 
0.572538 0.811795 0.171586 0.979067 0.0831323 
0.174004 0.209095 0.561056 0.433134 0.64569 
0.0428287 0.43114 0.0301122 0.634376 0.158747 
0.592472 0.437569 0.9231 0.514919 0.154245 
0.221383 0.567652 0.0157592 0.0683022 0.64426 
0.985095 0.824791 0.255274 0.231147 0.657658 
0.364933 0.477743 0.911365 0.644869 0.764382 
0.187522 0.715214 0.000125123 0.789986 0.548421 
0.732043 0.336485 0.127588 0.781143 0.97098 
0.564441 0.898058 0.762562 0.199448 0.903093 
0.784399 0.938467 0.889335 0.676647 0.703509 
0.485429 0.108684 0.717097 0.544477 0.312662 
0.26859 0.974796 0.289966 0.347142 0.972306 
0.713285 0.288023 0.147863 0.599949 0.370996 
0.988316 0.149487 0.483294 0.978073 0.500153 
0.746994 0.508793 0.110837 0.744114 0.683644 
0.932793 0.779201 0.772249 0.977027 0.888967 
0.288768 0.723447 0.653443 0.126869 0.385016 
0.234169 0.650345 0.591222 0.385018 0.815212 
0.550136 0.365727 0.368377 0.952769 0.190854 
0.120182 0.92229 0.0110396 0.490737 0.335549 
0.926328 0.957328 0.522764 0.523125 0.102478 
0.639701 0.309884 0.0989175 0.569512 0.770126 
0.417398 0.777316 0.933478 0.725715 0.314598 
0.532354 0.0954819 0.854492 0.9009 0.478628 
0.580432 0.552814 0.00492144 0.259997 0.841568 
0.166166 0.169534 0.333959 0.888428 0.450909 
0.856953 0.36971 0.325742 0.256518 0.413057 
0.916406 0.397227 0.981738 0.240221 0.865805 
0.54325 0.803241 0.116418 0.628828 0.653517 
0.0844898 0.498491 0.0918791 0.396879 0.229578 
0.543233 0.485801 0.408731 0.265812 0.480554 
0.824497 0.57866 0.34988 0.291755 0.0155996 
0.337878 0.284707 0.390326 0.279 0.0929809 
0.189498 0.480649 0.0859099 0.484375 0.0511818 
0.466853 0.952488 0.465307 0.950571 0.472095 
0.819366 0.0248962 0.112016 0.237014 0.246115 
0.766205 0.952107 0.307475 0.139744 0.573621 
0.686464 0.899976 0.567644 0.9771 0.886746 
0.190004 0.338922 0.253138 0.157639 0.41544 
0.471921 0.948916 0.894842 0.0509674 0.499033 
0.0714994 0.986372 0.724453 0.233339 0.537951 
0.0794056 0.595479 0.352488 0.572651 0.631035 
0.326256 0.276845 0.507181 0.902676 0.308657 
0.907654 0.31499 0.491272 0.671862 0.195933 
0.49386 0.389603 0.916676 0.287316 0.231464 
0.781633 0.199053 0.0446625 0.851409 0.879663 
0.701195 0.587619 0.246933 0.908375 0.371706 
0.465778 0.818828 0.79666 0.00147789 0.420185 
0.171783 0.64393 0.660104 0.581821 0.588578 
0.0552481 0.84642 0.322804 0.162819 0.0341028 
0.0678777 0.728071 0.899963 0.843838 0.079617 
0.92654 0.263594 0.938947 0.519029 0.0506153 
0.983384 0.514254 0.903915 0.922882 0.725156 
0.988921 0.305192 0.236873 0.428532 0.120255 
0.218275 0.651133 0.0818362 0.622688 0.508865 
0.573951 0.277668 0.854587 0.386047 0.0846005 
0.819599 0.643107 0.700487 0.529117 0.0958158 
0.445811 0.756695 0.379141 0.0947398 0.0488841 
0.951153 0.584733 0.850757 0.401849 0.696522 
0.589342 0.434874 0.860215 0.931383 0.782267 
0.624344 0.47991 0.795501 0.14144 0.78028 
0.366998 0.782083 0.274219 0.224285 0.313345 
0.712645 0.60343 0.777394 0.658204 0.73085 
0.638907 0.743308 0.0714083 0.500039 0.344045 
0.451796 0.0251661 0.417134 0.37515 0.930401 
0.0675878 0.295815 0.0592148 0.623411 0.700126 
0.654911 0.475088 0.339146 0.755445 0.572747 
0.608192 0.956226 0.388969 0.0921505 0.564202 
0.103958 0.449967 0.412871 0.0112873 0.307071 
0.610351 0.248738 0.441684 0.0938155 0.369122 
0.145055 0.818375 0.68056 0.532553 0.678068 
0.574361 0.94995 0.867872 0.664831 0.782972 
0.80522 0.69092 0.975059 0.185313 0.869186 
0.533316 0.893866 0.687371 0.041554 0.174774 
0.0365628 0.6749 0.981264 0.446227 0.198147 
0.483847 0.938005 0.239237 0.692076 0.874165 
0.663081 0.0648689 0.0533915 0.949341 0.438037 
0.512967 0.528271 0.226922 0.067513 0.932571 
0.511824 0.926442 0.54986 0.416128 0.939163 
0.57506 0.356891 0.0969044 0.998917 0.658499 
0.723364 0.892987 0.0058182 0.117283 0.216005 
0.298494 0.799968 0.169886 0.0803077 0.973325 
0.736179 0.201509 0.254128 0.35553 0.166274 
0.0767692 0.0578567 0.564401 0.870495 0.52978 
0.484474 0.712711 0.0174492 0.0928771 0.167269 
0.128154 0.753847 0.821061 0.194224 0.999038 
0.519449 0.531621 0.241921 0.306231 0.0918156 
0.726175 0.321396 0.976609 0.741942 0.0429042 
0.579523 0.661796 0.935958 0.979992 0.807346 
0.143663 0.601065 0.64696 0.767218 0.880692 
0.161349 0.0575986 0.351673 0.587074 0.38747 
0.723762 0.0446595 0.735113 0.737374 0.375388 
0.228398 0.893281 0.677931 0.158415 0.772357 
0.395448 0.689618 0.123471 0.929227 0.493767 
0.85358 0.25368 0.823699 0.199626 0.942001 
0.435512 0.343801 0.259508 0.700803 0.118105 
0.0777871 0.25378 0.196564 0.0761207 0.560613 
0.658175 0.653942 0.125664 0.945803 0.205641 
0.225576 0.174622 0.161551 0.968381 0.531645 
0.659339 0.210125 0.939246 0.742905 0.143868 
0.18873 0.684766 0.679229 0.67532 0.509431 
0.391354 0.0233825 0.972671 0.872227 0.234814 
0.71054 0.71356 0.358991 0.269519 0.800772 
0.346736 0.719257 0.389873 0.395732 0.611335 
0.982995 0.874072 0.0817309 0.0194811 0.596448 
0.48323 0.230766 0.863434 0.61048 0.564146 
0.807192 0.957072 0.441225 0.212596 0.548042 
0.340726 0.54871 0.731215 0.357905 0.264134 
0.760357 0.967188 0.445267 0.608884 0.0229847 
0.212468 0.0959888 0.499404 0.277546 0.531093 
0.843739 0.375184 0.372456 0.250775 0.312671 
0.724011 0.927908 0.99393 0.526473 0.218834 
