2800 5
0.721991 0.347615 0.476287 0.463424 0.122849 
0.736728 0.644925 0.493052 0.937615 0.708175 
0.89551 0.13745 0.575927 0.989475 0.35193 
0.898707 0.395856 0.633332 0.111098 0.268242 
0.948609 0.461093 0.16184 0.420892 0.327372 
0.29873 0.0356705 0.786858 0.230844 0.919919 
0.604463 0.0224703 0.176864 0.778368 0.199058 
0.530647 0.811744 0.357755 0.779069 0.763507 
0.103833 0.354953 0.681749 0.376231 0.2181 
0.541042 0.342762 0.905625 0.281631 0.0340568 
0.516796 0.0133245 0.768132 0.304298 0.907733 
0.79846 0.0331316 0.681016 0.285215 0.10899 
0.418225 0.586691 0.326705 0.641233 0.614494 
0.953479 0.938131 0.557431 0.342763 0.450455 
0.856789 0.570762 0.0357684 0.167644 0.189536 
0.491721 0.566231 0.500149 0.583171 0.765586 
0.852262 0.971934 0.0061114 0.225576 0.306413 
0.146126 0.949975 0.464057 0.0223737 0.897965 
0.636576 0.18474 0.924404 0.127595 0.411485 
0.013678 0.0573071 0.487928 0.150942 0.0608397 
0.358215 0.590259 0.0617535 0.162475 0.228094 
0.0814997 0.230379 0.926427 0.653204 0.840298 
0.708942 0.052759 0.974622 0.748997 0.597624 
0.388582 0.357707 0.463867 0.544091 0.636104 
0.147988 0.992898 0.286963 0.456974 0.932876 
0.945354 0.667589 0.717529 0.2792 0.977119 
0.911926 0.156642 0.819832 0.108192 0.227645 
0.300024 0.97925 0.61772 0.30579 0.803684 
0.33437 0.973628 0.0787309 0.512253 0.412695 
0.114704 0.0602817 0.4748 0.128067 0.466229 
0.129075 0.994229 0.761717 0.656294 0.288675 
0.298079 0.231264 0.748633 0.317122 0.724532 
0.484713 0.18375 0.313752 0.397321 0.60866 
0.953488 0.536866 0.577148 0.973108 0.684189 
0.773161 0.436216 0.440249 0.474609 0.730043 
0.313981 0.479046 0.217515 0.762301 0.000290363 
0.686269 0.654406 0.515892 0.281162 0.891572 
0.625909 0.393118 0.581971 0.395026 0.0179043 
0.66634 0.605569 0.529384 0.287206 0.531175 
0.129323 0.662513 0.352272 0.128868 0.607896 
0.493349 0.509166 0.247093 0.853936 0.829845 
0.421253 0.888208 0.722691 0.573961 0.875956 
0.471506 0.663396 0.254949 0.312287 0.903338 
0.396259 0.151239 0.400504 0.132297 0.376457 
0.0493378 0.258952 0.845832 0.621039 0.034763 
0.242627 0.441542 0.159489 0.215832 0.46529 
0.350893 0.860265 0.355025 0.476968 0.888783 
0.347638 0.341929 0.190258 0.753386 0.969107 
0.736958 0.440596 0.166747 0.408011 0.177272 
0.711682 0.175038 0.681396 0.617717 0.910452 
0.72046 0.870227 0.503749 0.569343 0.221757 
0.724933 0.313413 0.936516 0.737789 0.202565 
0.0460551 0.718362 0.488086 0.507445 0.494533 
0.423718 0.147522 0.597554 0.785957 0.0216376 
0.687464 0.137464 0.884792 0.2579 0.787928 
0.872924 0.928331 0.902554 0.66407 0.947302 
0.272791 0.436803 0.966999 0.967402 0.497335 
0.554405 0.563986 0.870171 0.596268 0.290453 
0.333543 0.169547 0.809576 0.388449 0.439941 
0.576923 0.498413 0.235736 0.244859 0.67169 
0.265837 0.0956832 0.733932 0.584328 0.537806 
0.617918 0.199315 0.514688 0.0938373 0.12644 
0.461186 0.490681 0.787345 0.858714 0.779499 
0.502028 0.845561 0.517685 0.99124 0.763159 
0.626136 0.482626 0.157835 0.409244 0.837089 
0.103317 0.336307 0.488777 0.848539 0.408646 
0.554254 0.462615 0.545775 0.484491 0.545068 
0.927946 0.523017 0.611509 0.934078 0.767609 
0.710098 0.57798 0.248331 0.734643 0.0145867 
0.69123 0.898718 0.286691 0.882312 0.88085 
0.120287 0.212081 0.724071 0.860225 0.095602 
0.791624 0.835788 0.386253 0.566579 0.793855 
0.701302 0.345843 0.339624 0.796038 0.902424 
0.306207 0.927054 0.734427 0.968036 0.176231 
0.202803 0.0461588 0.249447 0.0849027 0.184332 
0.567304 0.313826 0.99333 0.519394 0.202757 
0.895938 0.59597 0.373778 0.306238 0.775174 
0.623325 0.348217 0.108985 0.774526 0.188528 
0.40478 0.878861 0.540219 0.499225 0.978733 
0.800387 0.252297 0.505679 0.649769 0.88165 
0.506805 0.0455776 0.877515 0.543663 0.768507 
0.73397 0.921778 0.759338 0.987802 0.712653 
0.125695 0.496612 0.959399 0.50582 0.576001 
0.77736 0.977408 0.419269 0.716082 0.707521 
0.998508 0.250527 0.457917 0.531447 0.857358 
0.691335 0.860448 0.182165 0.00181991 0.88199 
0.0336644 0.0975329 0.634551 0.55745 0.784649 
0.0789976 0.675046 0.436656 0.562673 0.65467 
0.846388 0.664707 0.958679 0.104199 0.303115 
0.448879 0.51912 0.948918 0.675632 0.916447 
0.509075 0.84843 0.634684 0.275377 0.425724 
0.331119 0.436773 0.26516 0.253509 0.975948 
0.895675 0.487809 0.196911 0.643711 0.0413024 
0.6918 0.128961 0.439483 0.925538 0.233952 
0.228606 0.718666 0.236268 0.624159 0.0940756 
0.690999 0.866438 0.388129 0.446309 0.0797205 
0.237595 0.876758 0.267389 0.240351 0.737258 
0.225864 0.35104 0.131395 0.0143457 0.120547 
0.241725 0.451566 0.217215 0.728964 0.116378 
0.64814 0.988355 0.64039 0.280608 0.350142 
0.467611 0.332318 0.910149 0.211811 0.880577 
0.383755 0.573838 0.827007 0.318221 0.289814 
0.572422 0.960564 0.226952 0.045818 0.809842 
0.990889 0.395692 0.013891 0.0433558 0.422165 
0.043347 0.210413 0.368334 0.888356 0.73567 
0.622936 0.169901 0.82716 0.177463 0.261489 
0.994084 0.440646 0.261015 0.297498 0.950128 
0.000129085 0.788142 0.539133 0.0510083 0.213449 
0.220296 0.281999 0.475919 0.296081 0.48984 
0.0880451 0.311034 0.595814 0.8868 0.354658 
0.873583 0.950225 0.7869 0.781339 0.715392 
0.151711 0.097191 0.978702 0.590794 0.943137 
0.681591 0.91786 0.985525 0.671008 0.517186 
0.894805 0.162365 0.351195 0.394249 0.421328 
0.546287 0.0494639 0.83379 0.893359 0.587745 
0.561551 0.533245 0.362912 0.196063 0.568232 
0.553376 0.842052 0.279016 0.194678 0.746417 
0.49011 0.649498 0.0256887 0.753741 0.355231 
0.0346044 0.941365 0.0755949 0.206057 0.704658 
0.686502 0.962036 0.292498 0.371716 0.908188 
0.760408 0.835666 0.664948 0.46907 0.426366 
0.622167 0.0965197 0.723828 0.171345 0.112364 
0.80228 0.766284 0.185095 0.540416 0.372579 
0.0905374 0.900492 0.430284 0.194301 0.627549 
0.387633 0.811308 0.818095 0.404968 0.777652 
0.0950865 0.287529 0.0307474 0.271052 0.474653 
0.421203 0.706773 0.842798 0.18171 0.255808 
0.866321 0.95716 0.171827 0.277485 0.235172 
0.785129 0.982654 0.849037 0.66962 0.714311 
0.0197149 0.543689 0.770546 0.437392 0.549863 
0.70897 0.716693 0.503596 0.163109 0.0397466 
0.931512 0.588586 0.212779 0.562454 0.947246 
0.114095 0.0168298 0.228739 0.126873 0.325 
0.406493 0.693543 0.0724367 0.0997809 0.844714 
0.108284 0.366521 0.603451 0.484159 0.81789 
0.10676 0.398045 0.813219 0.263221 0.134107 
0.228967 0.390242 0.885474 0.710908 0.136473 
0.227903 0.0926158 0.246869 0.227379 0.396304 
0.47747 0.0226532 0.159098 0.0108827 0.267795 
0.627682 0.277381 0.834535 0.969149 0.16455 
0.0912608 0.23078 0.386412 0.997093 0.298612 
0.458674 0.17888 0.855422 0.882898 0.0723067 
0.423209 0.351354 0.4957 0.622705 0.504249 
0.000355461 0.882623 0.757925 0.671398 0.981666 
0.713377 0.16054 0.12906 0.134706 0.35602 
0.69611 0.184471 0.0288278 0.646438 0.48587 
0.766831 0.746817 0.861005 0.720269 0.50034 
0.597087 0.509568 0.640758 0.369276 0.110317 
0.377326 0.0234581 0.970654 0.686738 0.0997074 
0.564501 0.907356 0.393455 0.951761 0.587522 
0.338212 0.350934 0.246182 0.603529 0.398377 
0.652196 0.872575 0.370659 0.486094 0.961052 
0.962297 0.0484838 0.741112 0.535189 0.0816262 
0.49386 0.818104 0.891341 0.865691 0.172351 
0.0331644 0.137329 0.731469 0.640455 0.260751 
0.911388 0.571431 0.739371 0.207603 0.293516 
0.335532 0.442589 0.133434 0.829269 0.60731 
0.54991 0.577782 0.309427 0.529239 0.740387 
0.661629 0.307852 0.404375 0.677672 0.55994 
0.483123 0.989341 0.937052 0.678854 0.358833 
0.666812 0.258561 0.0268462 0.820055 0.067418 
0.591095 0.756782 0.261241 0.0279868 0.484872 
0.819112 0.722286 0.11857 0.379862 0.878308 
0.462756 0.781601 0.102953 0.229975 0.365702 
0.238694 0.0322813 0.0336602 0.867687 0.577106 
0.0989982 0.265659 0.413571 0.816249 0.851131 
0.554204 0.264462 0.845558 0.920984 0.883047 
0.0724656 0.351702 0.0142754 0.948504 0.240164 
0.618865 0.392236 0.552335 0.0757419 0.792973 
0.669012 0.354472 0.77229 0.674322 0.0607326 
0.306763 0.294273 0.864456 0.376671 0.766105 
0.641154 0.362162 0.47024 0.0974587 0.0227024 
0.909546 0.286135 0.444872 0.656265 0.769506 
0.15074 0.409831 0.97365 0.31641 0.422028 
0.0613767 0.725592 0.482171 0.786567 0.528985 
0.0952123 0.780136 0.814545 0.606375 0.206775 
0.76128 0.62703 0.678432 0.27746 0.815036 
0.884645 0.925321 0.816849 0.0692448 0.861318 
0.26074 0.909269 0.531926 0.264547 0.199215 
0.631015 0.385326 0.0880797 0.520081 0.115292 
0.555775 0.454556 0.946159 0.241088 0.921425 
0.537626 0.584549 0.433747 0.0885188 0.839111 
0.553751 0.802243 0.955321 0.140105 0.0425472 
0.953697 0.557453 0.550431 0.0437755 0.144827 
0.0362346 0.207838 0.170515 0.639659 0.0644991 
0.611531 0.905887 0.115736 0.280839 0.502858 
0.576041 0.739206 0.36592 0.905387 0.706797 
0.539503 0.380371 0.127082 0.638875 0.847255 
0.393354 0.963497 0.0686204 0.796768 0.281235 
0.570519 0.918429 0.531101 0.55791 0.149529 
0.821922 0.202066 0.0393891 0.767282 0.855073 
0.707851 0.216516 0.92078 0.0970987 0.235949 
0.590293 0.774131 0.0564624 0.167901 0.359312 
0.153851 0.0380873 0.224133 0.0168999 0.156093 
0.443775 0.956155 0.920936 0.0943467 0.128999 
0.866371 0.430967 0.991854 0.544229 0.733969 
0.29861 0.519482 0.695775 0.282115 0.530162 
0.673755 0.0874269 0.953732 0.648372 0.675458 
0.0949726 0.0634571 0.805915 0.864893 0.951412 
0.637067 0.118426 0.658311 0.519757 0.776695 
0.341313 0.00793438 0.660714 0.315912 0.883715 
0.206093 0.377927 0.915901 0.268226 0.979457 
0.957737 0.149549 0.362683 0.0465167 0.54396 
0.333334 0.210556 0.570013 0.318769 0.769563 
0.0148481 0.0783926 0.274629 0.0319472 0.768892 
0.372403 0.910894 0.749989 0.291398 0.993419 
0.0559317 0.456512 0.207077 0.43143 0.462319 
0.520275 0.588794 0.955954 0.65795 0.346417 
0.142752 0.228786 0.543259 0.912839 0.140646 
0.0842546 0.606215 0.0524923 0.0294087 0.603951 
0.867056 0.696197 0.780647 0.690519 0.555913 
0.928159 0.715622 0.1512 0.23884 0.632135 
0.830092 0.623339 0.806301 0.0551988 0.624231 
0.797189 0.252632 0.373577 0.920037 0.75438 
0.928854 0.627931 0.0515208 0.0541269 0.0430877 
0.381005 0.61738 0.501998 0.417774 0.258934 
0.139221 0.561093 0.999055 0.623728 0.0675075 
0.740731 0.222656 0.589003 0.850091 0.428955 
0.450846 0.622328 0.483198 0.394722 0.761288 
0.304747 0.787247 0.148058 0.318494 0.00270068 
0.297482 0.273363 0.39014 0.920747 0.493758 
0.321434 0.736403 0.0178993 0.136683 0.851593 
0.928777 0.969004 0.718781 0.687 0.10964 
0.340867 0.781797 0.687913 0.228362 0.688994 
0.33356 0.870649 0.467901 0.248076 0.6281 
0.290117 0.413056 0.0550874 0.152381 0.920566 
0.613677 0.904189 0.0610838 0.906662 0.441516 
0.160241 0.787983 0.664785 0.479027 0.515083 
0.8406 0.747767 0.0415588 0.079782 0.201329 
0.850939 0.864596 0.582675 0.448071 0.564077 
0.631043 0.685232 0.284394 0.787219 0.494047 
0.0956182 0.172932 0.21801 0.391188 0.264486 
0.0590231 0.605999 0.55146 0.252385 0.980363 
0.931835 0.277602 0.285582 0.539029 0.771768 
0.757481 0.672333 0.949438 0.407963 0.351462 
0.466847 0.844519 0.224653 0.602345 0.798761 
0.411658 0.214159 0.26041 0.724653 0.422591 
0.0401679 0.578301 0.716795 0.785702 0.455901 
0.651867 0.823183 0.0352979 0.0376933 0.521322 
0.981665 0.0340481 0.545108 0.406713 0.499679 
0.760029 0.079957 0.874216 0.547622 0.418158 
0.0985001 0.788925 0.717103 0.424205 0.630058 
0.768702 0.954395 0.845175 0.411944 0.541604 
0.412796 0.56188 0.553851 0.890185 0.842186 
0.751456 0.760945 0.222978 0.519654 0.347278 
0.668614 0.930924 0.476086 0.381445 0.09668 
0.295834 0.809336 0.688076 0.0253424 0.336663 
0.799316 0.905843 0.728834 0.586039 0.381701 
0.10349 0.60233 0.464969 0.531806 0.489171 
0.966786 0.67106 0.763282 0.59625 0.64551 
0.0566783 0.754875 0.703046 0.493782 0.259739 
0.191959 0.278736 0.440573 0.495166 0.872606 
0.5634 0.0522734 0.0903853 0.105141 0.618461 
0.320722 0.450296 0.0159293 0.858201 0.405914 
0.111562 0.979086 0.655754 0.197084 0.162716 
0.9478 0.0317561 0.578614 0.546815 0.372083 
0.470758 0.0315661 0.852096 0.962261 0.932253 
0.580267 0.0330051 0.685935 0.0839349 0.928546 
0.167195 0.536246 0.57136 0.663561 0.479612 
0.988772 0.608732 0.612909 0.66529 0.135699 
0.675112 0.38464 0.392563 0.978473 0.488486 
0.955477 0.663093 0.675824 0.726909 0.652153 
0.335059 0.166109 0.00342541 0.605831 0.115482 
0.394834 0.397285 0.534626 0.951603 0.401407 
0.88103 0.385215 0.787575 0.694747 0.0421055 
0.84734 0.700775 0.710344 0.25934 0.30764 
0.534114 0.288532 0.91188 0.442949 0.152745 
0.171756 0.751447 0.87116 0.848549 0.866031 
0.874855 0.981477 0.525694 0.886435 0.562616 
0.761491 0.937845 0.290817 0.250098 0.842105 
0.506329 0.983437 0.398593 0.699873 0.121207 
0.838962 0.112297 0.622428 0.876241 0.945305 
0.5639 0.905421 0.674866 0.699499 0.125824 
0.384929 0.312613 0.302336 0.817179 0.241659 
0.964243 0.103081 0.214 0.618595 0.0350668 
0.418745 0.938159 0.920514 0.657492 0.647277 
0.369754 0.161138 0.197745 0.716346 0.820542 
0.472763 0.313783 0.763887 0.280786 0.654265 
0.66985 0.426129 0.784004 0.425002 0.355138 
0.559589 0.0869844 0.851444 0.124128 0.793338 
0.0615776 0.353743 0.948284 0.525124 0.47752 
0.793002 0.961129 0.778148 0.618407 0.012219 
0.476605 0.246117 0.489123 0.503837 0.904658 
0.0644563 0.658046 0.0864709 0.718352 0.195886 
0.348395 0.811432 0.841594 0.896835 0.784683 
0.845126 0.0687022 0.577551 0.0296976 0.303298 
0.981732 0.736542 0.0972922 0.958174 0.41538 
0.992057 0.0199888 0.637655 0.639762 0.978995 
0.298667 0.414025 0.166114 0.452911 0.444729 
0.555508 0.232064 0.805224 0.846022 0.589976 
0.625319 0.0302661 0.973864 0.60874 0.155146 
0.638806 0.64129 0.342709 0.242581 0.251688 
0.894447 0.795494 0.860223 0.496556 0.802918 
0.709534 0.652702 0.676638 0.241295 0.105896 
0.0818163 0.889457 0.402332 0.31296 0.233369 
0.842151 0.775714 0.117823 0.403857 0.756328 
0.822854 0.271483 0.0898644 0.422293 0.354376 
0.6859 0.140226 0.193231 0.559556 0.6981 
0.233186 0.430921 0.903453 0.44629 0.379146 
0.83005 0.138778 0.350158 0.229189 0.0938115 
0.35746 0.417182 0.489383 0.997625 0.952534 
0.709754 0.855507 0.448708 0.584763 0.757374 
0.371266 0.0872755 0.544694 0.474922 0.562135 
0.0238818 0.683973 0.902971 0.967342 0.0668769 
0.383337 0.668011 0.470394 0.66629 0.375731 
0.315691 0.918227 0.245132 0.891504 0.0125348 
0.464802 0.716236 0.982966 0.162302 0.672538 
0.843083 0.218326 0.186518 0.203214 0.568433 
0.01486 0.933876 0.55892 0.944747 0.178731 
0.288363 0.698226 0.695934 0.220367 0.98213 
0.336334 0.21809 0.280555 0.335145 0.738604 
0.101546 0.471977 0.368259 0.0635591 0.896262 
0.547373 0.814566 0.26954 0.953701 0.524593 
0.633808 0.673621 0.768642 0.556281 0.168839 
0.587936 0.089401 0.602413 0.0317772 0.135621 
0.426043 0.0742176 0.327415 0.862644 0.668071 
0.791083 0.70942 0.623599 0.685831 0.873443 
0.747766 0.827304 0.342609 0.205002 0.213173 
0.384408 0.560187 0.472886 0.159727 0.894133 
0.022512 0.237108 0.952656 0.879365 0.79014 
0.392945 0.463898 0.812775 0.317607 0.442346 
0.546454 0.0395872 0.0887496 0.250714 0.91674 
0.231078 0.618666 0.411517 0.592715 0.00899309 
0.547786 0.116401 0.647339 0.30686 0.244976 
0.0965111 0.0484076 0.350788 0.0688517 0.19897 
0.404956 0.308505 0.332249 0.479772 0.0139542 
0.177481 0.745957 0.0796073 0.189891 0.0541531 
0.833481 0.00512172 0.88817 0.816361 0.713703 
0.0337982 0.880155 0.0289867 0.576327 0.0226794 
0.876075 0.730436 0.484283 0.363648 0.338867 
0.091849 0.419098 0.542676 0.76557 0.368618 
0.803011 0.69827 0.0847787 0.215722 0.811075 
0.500411 0.869295 0.915426 0.62962 0.143769 
0.907042 0.665613 0.426433 0.495413 0.768389 
0.41904 0.198516 0.150417 0.458947 0.425567 
0.707711 0.141361 0.628863 0.766754 0.706776 
0.244819 0.183972 0.45601 0.282669 0.189365 
0.285595 0.787036 0.564265 0.112998 0.116011 
0.284087 0.723411 0.94537 0.904533 0.0358621 
0.212879 0.698477 0.671028 0.385775 0.368707 
0.886974 0.281034 0.0771215 0.153074 0.0785375 
0.533373 0.157768 0.753068 0.594061 0.381707 
0.0280426 0.747805 0.51161 0.0686068 0.354655 
0.921119 0.416357 0.71697 0.92618 0.872496 
0.467199 0.30415 0.43574 0.37201 0.0439589 
0.759003 0.738226 0.750195 0.666699 0.0123839 
0.479056 0.205594 0.330855 0.0326184 0.407225 
0.707269 0.956449 0.229714 0.271823 0.35684 
0.410857 0.758913 0.955197 0.815924 0.870086 
0.0700883 0.937539 0.00909045 0.129237 0.0802559 
0.0588664 0.883737 0.654406 0.700407 0.587927 
0.417536 0.7304 0.273575 0.465887 0.402336 
0.255958 0.455138 0.710293 0.20276 0.767486 
0.293788 0.22202 0.466737 0.188217 0.289406 
0.886104 0.759895 0.917826 0.611102 0.717127 
0.613919 0.0217683 0.61849 0.0430671 0.971078 
0.825672 0.452475 0.435953 0.961617 0.847178 
0.922342 0.256609 0.407007 0.525791 0.244044 
0.508824 0.948274 0.0161652 0.498467 0.820077 
0.977935 0.139024 0.541298 0.747715 0.74781 
0.943525 0.587326 0.631355 0.650624 0.854882 
0.0336272 0.443396 0.682877 0.510649 0.0342739 
0.111376 0.660985 0.58548 0.406039 0.384757 
0.287233 0.749567 0.320055 0.0540431 0.257318 
0.74179 0.0883724 0.544462 0.620586 0.509517 
0.164788 0.0799936 0.749346 0.224473 0.689921 
0.220271 0.407566 0.648058 0.739752 0.751114 
0.0940177 0.778327 0.738432 0.2726 0.564504 
0.577059 0.517447 0.4076 0.618348 0.0417027 
0.137416 0.110146 0.921804 0.328806 0.136396 
0.901273 0.266981 0.107216 0.552618 0.544216 
0.391501 0.328489 0.0886999 0.591965 0.423876 
0.742526 0.553091 0.0423528 0.543759 0.397327 
0.480819 0.0514122 0.282475 0.365126 0.959254 
0.752127 0.444346 0.44285 0.0767964 0.966336 
0.0742055 0.0267432 0.0965634 0.947802 0.66958 
0.0939984 0.429424 0.811891 0.101988 0.909421 
0.850651 0.183747 0.972702 0.141421 0.0937424 
0.193096 0.711162 0.40607 0.0978273 0.63012 
0.472408 0.69702 0.756911 0.372436 0.0098013 
0.443757 0.658101 0.447393 0.144063 0.353176 
0.228769 0.192731 0.614698 0.146597 0.224839 
0.744288 0.866827 0.867272 0.358631 0.920902 
0.658736 0.206893 0.197251 0.76642 0.674239 
0.710996 0.852892 0.778882 0.64693 0.403441 
0.270876 0.294888 0.434446 0.342945 0.542814 
0.746332 0.697838 0.151531 0.861511 0.673001 
0.0344964 0.665089 0.31566 0.119338 0.281731 
0.802361 0.589455 0.413028 0.35654 0.490801 
0.30844 0.138546 0.192818 0.469522 0.876608 
0.370217 0.813351 0.20085 0.697301 0.29224 
0.588016 0.0731968 0.950815 0.808276 0.272776 
0.177688 0.375643 0.604893 0.119204 0.561934 
0.517463 0.314412 0.55334 0.844664 0.310277 
0.772585 0.9439 0.185549 0.333238 0.526899 
0.50707 0.5386 0.749988 0.664089 0.949802 
0.991956 0.647837 0.14016 0.991157 0.575536 
0.355191 0.187619 0.718257 0.815245 0.0637312 
0.557569 0.437183 0.30437 0.346725 0.536807 
0.129367 0.735758 0.121217 0.0921336 0.940381 
0.415205 0.595087 0.566523 0.0223138 0.758159 
0.392798 0.636067 0.670558 0.552534 0.632554 
0.939 0.144804 0.610057 0.0821768 0.61303 
0.881117 0.134054 0.179114 0.969529 0.775417 
0.181637 0.1521 0.19896 0.559117 0.413372 
0.86605 0.432975 0.102776 0.406858 0.556188 
0.836153 0.0364319 0.831781 0.0310334 0.236819 
0.0107677 0.808182 0.568437 0.0630828 0.450626 
0.740256 0.402365 0.0985463 0.592278 0.789062 
0.651479 0.756988 0.340294 0.220769 0.36349 
0.529365 0.496553 0.269813 0.918944 0.328393 
0.544879 0.627539 0.965882 0.168605 0.401084 
0.242112 0.240823 0.061189 0.689948 0.398571 
0.290223 0.851801 0.724508 0.143352 0.219324 
0.459792 0.891848 0.69541 0.744641 0.0826736 
0.014559 0.450902 0.871946 0.263676 0.0653741 
0.651594 0.902697 0.209888 0.515281 0.156854 
0.516357 0.249813 0.304112 0.517524 0.176974 
0.899666 0.181926 0.289984 0.594762 0.619179 
0.574498 0.247606 0.213842 0.921377 0.294171 
0.817431 0.215159 0.535804 0.21412 0.510452 
0.28999 0.504148 0.197384 0.066106 0.00871748 
0.39049 0.4699 0.381065 0.86262 0.561342 
0.342426 0.558922 0.538164 0.817965 0.28986 
0.738864 0.941845 0.225715 0.954285 0.723697 
0.2229 0.683826 0.173749 0.130225 0.930547 
0.192854 0.771429 0.352887 0.0323123 0.334088 
0.630008 0.674574 0.431234 0.763943 0.145227 
0.566997 0.579164 0.124038 0.0359524 0.565504 
0.0336299 0.347758 0.230615 0.0614482 0.579998 
0.22649 0.961868 0.240243 0.905676 0.532923 
0.544165 0.0973102 0.10873 0.51291 0.816747 
0.786384 0.132519 0.371906 0.963763 0.887477 
0.0959275 0.121783 0.543453 0.0186568 0.655562 
0.551521 0.897059 0.197107 0.132199 0.864137 
0.536964 0.426239 0.272469 0.142449 0.674538 
0.757352 0.558538 0.0668154 0.423968 0.826192 
0.22858 0.463135 0.0869612 0.971379 0.0644019 
0.496248 0.782668 0.47307 0.315258 0.82126 
0.876194 0.960298 0.352203 0.821128 0.735016 
0.913486 0.949772 0.697711 0.866751 0.322672 
0.265033 0.515108 0.727978 0.324905 0.264336 
0.937334 0.997939 0.297136 0.299373 0.464272 
0.840831 0.766791 0.271462 0.741303 0.930043 
0.254889 0.715503 0.817665 0.565367 0.861751 
0.518404 0.0232966 0.107717 0.819365 0.537028 
0.801024 0.169132 0.577073 0.430096 0.758122 
0.480205 0.0778487 0.232822 0.119253 0.506744 
0.139121 0.634656 0.693451 0.0510021 0.059005 
0.343996 0.845465 0.182643 0.428628 0.911952 
0.138479 0.850317 0.977047 0.416122 0.601473 
0.416048 0.257555 0.819455 0.0619368 0.798678 
0.0998614 0.754376 0.322207 0.525697 0.796099 
0.431966 0.494377 0.459298 0.110571 0.565247 
0.229372 0.967349 0.22212 0.595131 0.761949 
0.570283 0.767568 0.0910324 0.13089 0.98218 
0.892206 0.365673 0.361129 0.817526 0.964921 
0.914837 0.555835 0.508735 0.621827 0.088977 
0.97627 0.483996 0.79214 0.522204 0.270978 
0.547207 0.15544 0.810057 0.0618607 0.758678 
0.754434 0.614574 0.402514 0.0896837 0.221762 
0.224702 0.990832 0.544068 0.699975 0.459756 
0.502175 0.820154 0.0631925 0.563586 0.860976 
0.225432 0.00685108 0.718575 0.823167 0.614857 
0.472587 0.163018 0.532343 0.722574 0.0498114 
0.951363 0.230261 0.0807392 0.597715 0.820502 
0.736343 0.295774 0.035652 0.2707 0.957777 
0.8705 0.683735 0.900672 0.795857 0.708459 
0.913698 0.351623 0.426685 0.229672 0.0938123 
0.444644 0.931568 0.9953 0.535245 0.367637 
0.141679 0.721162 0.854202 0.758314 0.392562 
0.920577 0.178658 0.110638 0.371393 0.712683 
0.407992 0.463105 0.546295 0.23698 0.0810433 
0.0781595 0.34551 0.516306 0.599896 0.223461 
0.85678 0.908211 0.208531 0.202051 0.746526 
0.4409 0.975458 0.876511 0.441935 0.846475 
0.194775 0.378991 0.822944 0.0700809 0.136579 
0.986884 0.379451 0.9838 0.341506 0.289558 
0.360319 0.235623 0.741751 0.524046 0.192518 
0.696554 0.681705 0.0949515 0.540292 0.472278 
0.114758 0.237761 0.780561 0.655307 0.32221 
0.483806 0.119538 0.387273 0.499058 0.851673 
0.805598 0.539823 0.602027 0.191019 0.181153 
0.708826 0.205701 0.595449 0.831449 0.0126893 
0.503727 0.607895 0.689871 0.643565 0.0411727 
0.0522246 0.201781 0.286563 0.785644 0.454343 
0.938555 0.187207 0.837262 0.959465 0.948134 
0.499368 0.0973486 0.99285 0.994029 0.728089 
0.511972 0.751935 0.323343 0.750939 0.0892326 
0.900672 0.0510981 0.153546 0.398235 0.931701 
0.450425 0.517578 0.166797 0.328639 0.298084 
0.914126 0.172562 0.448664 0.739344 0.291168 
0.376399 0.934324 0.0620265 0.764195 0.711992 
0.719204 0.541671 0.170105 0.121347 0.895738 
0.00348618 0.0613331 0.951522 0.578369 0.183632 
0.499424 0.58058 0.933222 0.52309 0.856209 
0.658231 0.063207 0.970626 0.119175 0.734292 
0.485793 0.298136 0.235841 0.792804 0.736944 
0.694584 0.603035 0.581944 0.990262 0.707524 
0.919336 0.3728 0.532925 0.767734 0.364023 
0.405816 0.701646 0.386841 0.208788 0.412793 
0.741503 0.282045 0.913255 0.509984 0.214221 
0.0319162 0.448115 0.741141 0.930135 0.115993 
0.48102 0.0885307 0.0960633 0.686919 0.908506 
0.000544875 0.925928 0.514738 0.699463 0.782932 
0.370823 0.49799 0.102925 0.318653 0.684718 
0.781803 0.150015 0.22101 0.160082 0.562017 
0.07271 0.135011 0.464172 0.521195 0.5125 
0.639446 0.189316 0.405126 0.690715 0.167507 
0.213208 0.676751 0.152162 0.837001 0.122691 
0.0746926 0.856598 0.432398 0.600195 0.982938 
0.491536 0.780887 0.867594 0.0905112 0.800709 
0.95272 0.4317 0.385342 0.853718 0.921415 
0.472678 0.191299 0.993586 0.261553 0.821643 
0.462489 0.646641 0.965001 0.124939 0.681845 
0.555602 0.367847 0.916389 0.820458 0.95785 
0.838155 0.432673 0.788766 0.7282 0.348272 
0.227517 0.0959418 0.843284 0.144101 0.842515 
0.0937622 0.834936 0.382521 0.543224 0.449642 
0.236873 0.439115 0.196407 0.442346 0.019622 
0.275925 0.0390714 0.685466 0.480042 0.258623 
0.380762 0.289246 0.533802 0.204176 0.867311 
0.515351 0.133709 0.614918 0.976351 0.288249 
0.507386 0.428846 0.644663 0.10801 0.738671 
0.370413 0.672641 0.726551 0.996911 0.786162 
0.353922 0.655048 0.732564 0.546922 0.602425 
0.916161 0.0897012 0.541207 0.349725 0.54249 
0.199955 0.482635 0.764764 0.97621 0.216234 
0.820562 0.859687 0.552364 0.329382 0.659559 
0.0874505 0.476311 0.0146845 0.351345 0.611787 
0.109737 0.911481 0.752162 0.347938 0.090081 
0.616147 0.539545 0.642577 0.507664 0.741802 
0.0567622 0.835814 0.431871 0.0442254 0.839591 
0.469117 0.0962528 0.608591 0.333171 0.0919282 
0.463706 0.165915 0.437942 0.26621 0.858619 
0.171485 0.533132 0.510906 0.355551 0.182315 
0.0493653 0.844612 0.388196 0.0410133 0.721175 
0.995776 0.000509904 0.654815 0.288119 0.147401 
0.19173 0.966216 0.119186 0.707647 0.601334 
0.718924 0.648788 0.750489 0.249002 0.488042 
0.66184 0.765044 0.471955 0.599649 0.514213 
0.453886 0.431913 0.273553 0.888402 0.584436 
0.348718 0.4602 0.964707 0.553718 0.230468 
0.507536 0.715698 0.286646 0.72274 0.718443 
0.676655 0.643517 0.375684 0.522418 0.784454 
0.853999 0.734884 0.442073 0.467667 0.772976 
0.044808 0.182794 0.894594 0.258071 0.660512 
0.605966 0.165624 0.893419 0.315411 0.562267 
0.181152 0.0865731 0.638102 0.730195 0.102644 
0.00366256 0.536622 0.996098 0.88726 0.253174 
0.68336 0.251653 0.697367 0.186573 0.93819 
0.894874 0.133757 0.943783 0.244204 0.624196 
0.621731 0.599662 0.224014 0.525377 0.754712 
0.903544 0.247244 0.633631 0.751852 0.11381 
0.569898 0.716145 0.300857 0.218691 0.708992 
0.341167 0.0472515 0.650182 0.454028 0.514705 
0.538178 0.528187 0.545368 0.294278 0.844355 
0.28638 0.691804 0.217708 0.330823 0.57283 
0.877367 0.132111 0.673659 0.658731 0.249622 
0.63397 0.650953 0.83399 0.129058 0.628354 
0.521537 0.795712 0.168124 0.304914 0.496385 
0.150509 0.42701 0.491344 0.97886 0.470147 
0.330435 0.877116 0.47851 0.446348 0.492182 
0.668613 0.332037 0.197752 0.0260425 0.636711 
0.946819 0.300884 0.429546 0.654742 0.772385 
0.209984 0.769169 0.448825 0.378369 0.435979 
0.366588 0.0711804 0.262591 0.819566 0.893213 
0.361686 0.630171 0.226704 0.085241 0.367714 
0.102946 0.167456 0.675324 0.611404 0.700625 
0.0252699 0.424077 0.267662 0.172147 0.897017 
0.398658 0.419017 0.0605463 0.334313 0.653394 
0.1222 0.0601541 0.680749 0.535418 0.546966 
0.91337 0.150302 0.088841 0.772697 0.968813 
0.882374 0.794024 0.713637 0.320001 0.92485 
0.269537 0.771911 0.851673 0.130907 0.0831262 
0.28471 0.461717 0.147007 0.133563 0.847045 
0.0669033 0.608176 0.142592 0.55057 0.681157 
0.364451 0.00723914 0.110855 0.0752004 0.898524 
0.04061 0.106206 0.337625 0.617503 0.0254749 
0.203024 0.853487 0.137038 0.706231 0.0581126 
0.997509 0.307916 0.912561 0.956519 0.71633 
0.364978 0.652706 0.232761 0.852549 0.158495 
0.858378 0.507384 0.942329 0.0426037 0.485037 
0.310681 0.0944596 0.224313 0.683828 0.490026 
0.0230714 0.48186 0.830331 0.480625 0.0132683 
0.72821 0.801225 0.694365 0.000577672 0.219449 
0.984615 0.513012 0.919872 0.612154 0.243625 
0.290789 0.317783 0.14884 0.607992 0.280679 
0.874967 0.291911 0.56856 0.972955 0.428991 
0.73788 0.0795607 0.691522 0.233377 0.572245 
0.319638 0.92558 0.970641 0.807594 0.014401 
0.47614 0.618602 0.274868 0.983474 0.468766 
0.228404 0.913332 0.732368 0.459507 0.224724 
0.215525 0.430701 0.738526 0.237926 0.590028 
0.00306964 0.640457 0.427388 0.595033 0.55847 
0.608334 0.950482 0.263931 0.856049 0.217106 
0.10265 0.273136 0.124459 0.858319 0.548327 
0.201026 0.395075 0.469821 0.0682804 0.976452 
0.835738 0.476147 0.395823 0.522904 0.0623276 
0.408125 0.163881 0.759744 0.987719 0.340901 
0.812489 0.173032 0.115766 0.918616 0.256356 
0.0446496 0.995907 0.501552 0.221121 0.0731907 
0.240342 0.227172 0.505124 0.0154743 0.305539 
0.967308 0.206679 0.042461 0.777374 0.151621 
0.301286 0.839728 0.42689 0.654983 0.957354 
0.977823 0.164341 0.501994 0.0649391 0.586869 
0.33894 0.0930902 0.808887 0.937547 0.463743 
0.268221 0.56519 0.884305 0.313876 0.295094 
0.210536 0.820392 0.0277007 0.652365 0.678355 
0.914754 0.298717 0.867471 0.7243 0.0022661 
0.789774 0.197228 0.949674 0.685269 0.135991 
0.153575 0.109556 0.453926 0.450788 0.856467 
0.0756443 0.516505 0.846838 0.791146 0.938421 
0.599744 0.456829 0.379034 0.6928 0.0716292 
0.474105 0.153029 0.118911 0.299462 0.484663 
0.127815 0.166401 0.634931 0.618504 0.0562956 
0.130881 0.517475 0.225789 0.416937 0.179052 
0.912015 0.648818 0.869246 0.357857 0.841676 
0.9187 0.193348 0.712392 0.801784 0.749723 
0.492416 0.7877 0.928917 0.426026 0.566887 
0.00280379 0.545169 0.325676 0.69491 0.84707 
0.716968 0.567496 0.0988727 0.5693 0.102498 
0.980635 0.614346 0.605405 0.579748 0.898868 
0.105329 0.734394 0.851381 0.354712 0.881371 
0.61649 0.614158 0.901623 0.980993 0.601391 
0.993722 0.811814 0.504817 0.468968 0.318046 
0.302706 0.698321 0.473091 0.325971 0.452455 
0.367653 0.0572792 0.562436 0.600161 0.908299 
0.417575 0.313059 0.802181 0.889515 0.610138 
0.917517 0.553881 0.181447 0.549631 0.594636 
0.759546 0.0142982 0.687649 0.937462 0.10423 
0.773211 0.055088 0.856988 0.559739 0.488348 
0.207956 0.492618 0.460002 0.480793 0.810815 
0.491505 0.82813 0.135629 0.450589 0.745278 
0.862513 0.197986 0.185774 0.988977 0.81712 
0.798875 0.787731 0.993454 0.0677373 0.314482 
0.823739 0.159626 0.785732 0.884036 0.170667 
0.830285 0.37542 0.181858 0.424914 0.686039 
0.487547 0.311136 0.173132 0.126611 0.603238 
0.0536786 0.450383 0.0657762 0.393939 0.734988 
0.889592 0.125604 0.306862 0.670616 0.0360224 
0.278637 0.220514 0.143007 0.257588 0.430006 
0.00690047 0.553819 0.271891 0.272517 0.102676 
0.117098 0.37962 0.886464 0.508454 0.266221 
0.262872 0.284872 0.10634 0.669749 0.297414 
0.627808 0.772227 0.124014 0.696904 0.84881 
0.25467 0.143444 0.117816 0.0694065 0.633088 
0.861172 0.794369 0.999166 0.220916 0.449159 
0.187434 0.0398699 0.975134 0.906663 0.756784 
0.224354 0.0595243 0.773359 0.490852 0.568037 
0.651705 0.0663462 0.181437 0.815315 0.779813 
0.389007 0.534366 0.479743 0.74689 0.613873 
0.10925 0.058493 0.0896788 0.904745 0.0608731 
0.499642 0.810245 0.30768 0.856391 0.01275 
0.371854 0.228572 0.818611 0.613761 0.345417 
0.760617 0.680218 0.904199 0.243369 0.813858 
0.0520261 0.204042 0.0841311 0.741455 0.190292 
0.369164 0.686222 0.631138 0.0875516 0.945783 
0.222272 0.601658 0.166695 0.943557 0.533404 
0.171773 0.434666 0.886231 0.289744 0.300742 
0.725801 0.890208 0.407003 0.192581 0.687445 
0.609432 0.990439 0.00533386 0.160105 0.680815 
0.297399 0.146104 0.0774451 0.485235 0.42478 
0.412593 0.210685 0.573093 0.0393787 0.97996 
0.72327 0.614593 0.271056 0.68756 0.218201 
0.864436 0.783778 0.26443 0.504369 0.69003 
0.567439 0.479518 0.988747 0.53447 0.792796 
0.605767 0.344201 0.905961 0.397874 0.589716 
0.47979 0.329287 0.31628 0.503103 0.287278 
0.339993 0.352936 0.900607 0.221107 0.899969 
0.799273 0.341284 0.734091 0.0890747 0.894688 
0.223066 0.309999 0.0149704 0.236144 0.993314 
0.547324 0.430381 0.259935 0.187521 0.599914 
0.620438 0.91449 0.0121651 0.945965 0.163482 
0.863763 0.43877 0.284688 0.97405 0.600466 
0.976126 0.656129 0.758413 0.244358 0.760737 
0.366258 0.863601 0.804801 0.408165 0.660866 
0.0331002 0.491888 0.174388 0.707798 0.672364 
0.421028 0.445884 0.625649 0.787475 0.295681 
0.757676 0.740548 0.728916 0.829699 0.187123 
0.709038 0.213285 0.902277 0.188893 0.157679 
0.508268 0.398512 0.383496 0.833673 0.681624 
0.032623 0.360722 0.878993 0.176241 0.384518 
0.512832 0.0172055 0.466827 0.333522 0.795508 
0.443029 0.27657 0.53055 0.262391 0.217107 
0.483343 0.746308 0.49747 0.112998 0.449328 
0.772475 0.275851 0.932099 0.601032 0.561333 
0.385768 0.401151 0.277749 0.320427 0.867353 
0.99866 0.284287 0.342632 0.734567 0.871378 
0.106169 0.699149 0.257508 0.413375 0.824394 
0.231621 0.288917 0.925069 0.626355 0.869102 
0.728276 0.246784 0.424716 0.209915 0.915904 
0.739385 0.934315 0.818977 0.210118 0.206767 
0.582661 0.833393 0.871279 0.42224 0.45141 
0.590822 0.549173 0.227473 0.986466 0.0787826 
0.648352 0.515647 0.127605 0.751304 0.22637 
0.697347 0.126467 0.267563 0.400538 0.588227 
0.936411 0.404134 0.818268 0.00481744 0.0420264 
0.0865252 0.835159 0.0177383 0.173447 0.805336 
0.311394 0.940836 0.823269 0.923918 0.588994 
0.0677074 0.304167 0.653566 0.791153 0.0222845 
0.638312 0.884188 0.603251 0.533833 0.595053 
0.673051 0.973794 0.0507755 0.73997 0.595803 
0.302086 0.28875 0.244156 0.85887 0.145004 
0.0759418 0.0895565 0.323357 0.402884 0.773574 
0.303971 0.915193 0.90598 0.812403 0.899751 
0.386108 0.0844834 0.153035 0.0170196 0.210375 
0.23166 0.43034 0.430952 0.338882 0.340592 
0.625463 0.158209 0.466713 0.497535 0.58013 
0.117082 0.108456 0.303839 0.0533742 0.707746 
0.247272 0.371669 0.850958 0.791318 0.93984 
0.333131 0.46749 0.667116 0.835211 0.774605 
0.645917 0.99113 0.00148823 0.23086 0.463068 
0.209733 0.879401 0.742854 0.541132 0.53418 
0.133644 0.130576 0.968366 0.677127 0.584835 
0.851637 0.726541 0.186436 0.0473386 0.0479427 
0.213057 0.51895 0.234959 0.592141 0.28943 
0.514435 0.140186 0.932619 0.423322 0.319698 
0.595327 0.94867 0.945485 0.548631 0.642743 
0.801472 0.226547 0.628044 0.236866 0.222552 
0.942553 0.120008 0.15444 0.877911 0.820825 
0.577611 0.486343 0.428778 0.822577 0.497977 
0.148345 0.847185 0.770448 0.0755412 0.410488 
0.0738257 0.0513373 0.386212 0.894877 0.414274 
0.897053 0.604201 0.494352 0.467902 0.827505 
0.692429 0.795378 0.489181 0.936616 0.427188 
0.493271 0.582338 0.749065 0.933622 0.115935 
0.0295271 0.503603 0.115681 0.320704 0.0658901 
0.184954 0.182415 0.797876 0.149092 0.911127 
0.476616 0.775902 0.20879 0.901147 0.997535 
0.451834 0.00416898 0.190475 0.662165 0.32235 
0.211787 0.756723 0.67357 0.0847611 0.155948 
0.13698 0.652558 0.907085 0.824787 0.25614 
0.778531 0.0350857 0.573315 0.542258 0.889114 
0.81866 0.124712 0.0430364 0.14352 0.418194 
0.695247 0.995266 0.816577 0.78223 0.785926 
0.052618 0.691351 0.651044 0.969732 0.755469 
0.312965 0.4519 0.966806 0.368187 0.405083 
0.234029 0.623224 0.297347 0.424214 0.11657 
0.649932 0.215429 0.274785 0.505262 0.0788937 
0.784167 0.311788 0.898254 0.482605 0.166865 
0.98233 0.218515 0.536329 0.849724 0.462543 
0.379605 0.283864 0.196396 0.134994 0.678093 
0.364204 0.131608 0.0800776 0.113399 0.15001 
0.805104 0.469158 0.139746 0.546552 0.981317 
0.75956 0.0804988 0.970742 0.847839 0.327496 
0.765438 0.00235423 0.950823 0.924291 0.564934 
0.668166 0.537082 0.199233 0.193261 0.959725 
0.374733 0.467756 0.843235 0.221864 0.691223 
0.659726 0.932414 0.844741 0.251942 0.809428 
0.0157548 0.167504 0.0669451 0.381744 0.112455 
0.323521 0.464342 0.645585 0.708151 0.870515 
0.482133 0.37638 0.124783 0.0988814 0.186404 
0.56802 0.332532 0.0794782 0.467292 0.629643 
0.573715 0.413966 0.567032 0.869259 0.321551 
0.895652 0.964175 0.536181 0.774755 0.500164 
0.998501 0.56636 0.617235 0.537181 0.623882 
0.68494 0.630701 0.484876 0.810684 0.19838 
0.627207 0.593247 0.140818 0.875715 0.534972 
0.545205 0.11358 0.722214 0.0321065 0.464848 
0.160656 0.684675 0.116897 0.783484 0.965638 
0.0725026 0.869981 0.0356981 0.284679 0.429083 
0.586613 0.0336932 0.321972 0.176492 0.848708 
0.13757 0.679027 0.937808 0.631225 0.262084 
0.448872 0.0251957 0.702676 0.900228 0.0907206 
0.675942 0.563835 0.744885 0.688069 0.00133043 
0.183882 0.859162 0.863559 0.589636 0.505801 
0.302279 0.766791 0.761031 0.835753 0.0699972 
0.315634 0.309407 0.964402 0.886536 0.642543 
0.500479 0.638785 0.131053 0.511337 0.270776 
0.836049 0.961026 0.681609 0.942917 0.180367 
0.185549 0.265828 0.46104 0.858089 0.616799 
0.814607 0.320845 0.371625 0.172461 0.871454 
0.883928 0.884427 0.648116 0.297893 0.744285 
0.458708 0.751867 0.270488 0.284397 0.126718 
0.654383 0.552218 0.674308 0.00204638 0.586141 
0.756855 0.217747 0.0712096 0.32452 0.564272 
0.451518 0.674813 0.520904 0.00522255 0.0452954 
0.671281 0.744635 0.59153 0.95129 0.726089 
0.570447 0.982459 0.0629436 0.165704 0.563224 
0.599537 0.959992 0.488861 0.557821 0.340608 
0.160785 0.841633 0.528565 0.0435306 0.483893 
0.230857 0.180468 0.429082 0.359464 0.958653 
0.318367 0.525079 0.0588126 0.548329 0.00190935 
0.29847 0.580774 0.318459 0.909824 0.18486 
0.895654 0.851062 0.178865 0.496833 0.544715 
0.567315 0.656852 0.142451 0.101745 0.988751 
0.44658 0.950443 0.0372583 0.138366 0.597716 
0.0900296 0.433868 0.291607 0.238049 0.062189 
0.599268 0.931294 0.511994 0.0511255 0.406701 
0.432839 0.207554 0.444353 0.857995 0.350008 
0.659123 0.401635 0.797066 0.389468 0.962591 
0.197742 0.293337 0.411185 0.037669 0.40306 
0.905682 0.0296095 0.393503 0.806719 0.92346 
0.525519 0.15285 0.4872 0.0339522 0.250858 
0.317414 0.55557 0.30372 0.988183 0.38136 
0.537179 0.100023 0.309424 0.444218 0.477249 
0.904006 0.812214 0.438906 0.828001 0.826953 
0.629591 0.270905 0.808144 0.837529 0.724987 
0.186802 0.391792 0.592611 0.708428 0.998065 
0.0151137 0.676587 0.389354 0.590635 0.283927 
0.48096 0.938439 0.953523 0.69511 0.661598 
0.515234 0.872732 0.491883 0.6195 0.0438424 
0.969639 0.52496 0.851605 0.804742 0.606167 
0.99857 0.679118 0.932771 0.0111096 0.525539 
0.672945 0.103169 0.310516 0.414742 0.546694 
0.58423 0.685728 0.371322 0.423604 0.263558 
0.659441 0.471767 0.136178 0.106582 0.0762035 
0.070449 0.395785 0.319294 0.354536 0.0440991 
0.946067 0.494682 0.300924 0.63056 0.397429 
0.130977 0.648828 0.55983 0.349166 0.545857 
0.762464 0.0194651 0.766834 0.101097 0.0168989 
0.0420734 0.489854 0.479134 0.203901 0.323624 
0.418994 0.0780701 0.204252 0.0137504 0.683328 
0.0184491 0.0117676 0.722773 0.76988 0.814156 
0.74192 0.799101 0.205225 0.204879 0.0383197 
0.423074 0.305143 0.051125 0.626372 0.144359 
0.902776 0.803158 0.771376 0.402345 0.549399 
0.415701 0.185697 0.855629 0.525887 0.0668983 
0.00943523 0.852004 0.526371 0.497985 0.66024 
0.772509 0.846327 0.629772 0.490475 0.710341 
0.026928 0.403112 0.244069 0.713934 0.690486 
0.804379 0.0907033 0.723356 0.326947 0.658428 
0.421959 0.869638 0.362165 0.979558 0.968957 
0.856316 0.57333 0.581276 0.0159113 0.54936 
0.921215 0.49357 0.837447 0.487002 0.890763 
0.472774 0.040639 0.887627 0.219523 0.990066 
0.698491 0.690039 0.805068 0.185923 0.213927 
0.30361 0.506968 0.957841 0.24257 0.565711 
0.0880785 0.802057 0.324687 0.0979979 0.224705 
0.683052 0.584509 0.849153 0.817358 0.673923 
0.852121 0.739536 0.123328 0.24735 0.821345 
0.697952 0.605929 0.97768 0.555086 0.44981 
0.183162 0.389372 0.446518 0.530774 0.111349 
0.686907 0.815766 0.193968 0.686819 0.119374 
0.849578 0.490718 0.677562 0.0148757 0.661769 
0.540478 0.586977 0.0462967 0.879453 0.26772 
0.396362 0.340241 0.690554 0.868401 0.862572 
0.0447435 0.0354429 0.255859 0.388848 0.4674 
0.939671 0.38253 0.631497 0.907558 0.315424 
0.365368 0.401163 0.940018 0.248681 0.97913 
0.275825 0.387802 0.730638 0.251096 0.842069 
0.840064 0.366605 0.539521 0.866257 0.0124495 
0.485178 0.61484 0.418659 0.189332 0.206616 
0.893853 0.606602 0.514004 0.0887743 0.982081 
0.514855 0.326763 0.0183311 0.409934 0.262044 
0.910121 0.955362 0.666895 0.463955 0.121253 
0.0262582 0.376483 0.763483 0.0716898 0.48784 
0.262059 0.343672 0.955364 0.247089 0.298994 
0.392697 0.202328 0.437938 0.385697 0.277711 
0.168705 0.837348 0.656562 0.198313 0.651472 
0.466418 0.544038 0.160832 0.116812 0.594347 
0.310354 0.237896 0.36454 0.861661 0.190028 
0.402645 0.718621 0.0858167 0.378092 0.579861 
0.675189 0.733204 0.0845961 0.0570943 0.284279 
0.0184302 0.143075 0.143094 0.722139 0.558035 
0.933084 0.466412 0.198848 0.512742 0.0115371 
0.37851 0.638077 0.243179 0.0204198 0.633205 
0.525839 0.755233 0.171846 0.295159 0.711544 
0.195421 0.587931 0.62338 0.700107 0.821823 
0.0916658 0.33026 0.820567 0.785416 0.918119 
0.93302 0.486275 0.880802 0.465429 0.827577 
0.204592 0.651324 0.288019 0.367419 0.472411 
0.863084 0.0176282 0.830382 0.654309 0.816898 
0.959981 0.63737 0.246433 0.112122 0.283564 
0.95779 0.876467 0.124205 0.244613 0.669782 
0.187083 0.380642 0.0688249 0.551518 0.034066 
0.447616 0.755792 0.0104102 0.904643 0.983263 
0.264498 0.209881 0.876517 0.987329 0.765985 
0.834684 0.283781 0.118264 0.0837034 0.728423 
0.962404 0.940399 0.489089 0.193995 0.791789 
0.0792416 0.410815 0.72805 0.599859 0.465246 
0.0470162 0.242747 0.683505 0.963544 0.11533 
0.0476133 0.256201 0.799526 0.251304 0.384404 
0.467039 0.856108 0.979966 0.114092 0.00490359 
0.251548 0.328204 0.911458 0.133398 0.702764 
0.432891 0.12337 0.0663717 0.539676 0.589605 
0.64763 0.162466 0.0712786 0.545788 0.131114 
0.853987 0.695682 0.648056 0.193085 0.348733 
0.583694 0.333912 0.260873 0.0239979 0.335353 
0.881074 0.676849 0.769173 0.926306 0.985748 
0.254924 0.0229143 0.580203 0.578109 0.999653 
0.133099 0.0550639 0.701178 0.255432 0.60831 
0.657023 0.614313 0.949383 0.775536 0.239904 
0.881618 0.488213 0.789266 0.148882 0.1537 
0.76193 0.598823 0.466347 0.711847 0.416835 
0.844952 0.911758 0.639357 0.143684 0.820157 
0.930641 0.0239658 0.892663 0.116942 0.630157 
0.192127 0.0445266 0.442525 0.435434 0.856553 
0.950338 0.632605 0.934229 0.24838 0.167002 
0.176698 0.679496 0.769731 0.198652 0.00668027 
0.664895 0.665549 0.473069 0.483565 0.598409 
0.176565 0.613978 0.0803661 0.747888 0.184167 
0.575259 0.61813 0.507047 0.578587 0.468384 
0.924663 0.938893 0.929642 0.692447 0.312005 
0.842909 0.789056 0.822059 0.537059 0.500037 
0.0607662 0.0190748 0.400937 0.949505 0.695309 
0.263609 0.914324 0.134925 0.770669 0.679285 
0.654555 0.628505 0.546306 0.475469 0.748286 
0.8967 0.667492 0.519513 0.0663721 0.0264873 
0.077395 0.849181 0.491781 0.794741 0.997676 
0.20483 0.797167 0.399589 0.425899 0.314344 
0.199383 0.332429 0.71792 0.471126 0.0881094 
0.810174 0.100474 0.858294 0.591116 0.262098 
0.821746 0.0552427 0.234663 0.94593 0.0633198 
0.336975 0.690011 0.529236 0.0944779 0.45047 
0.916436 0.790731 0.221422 0.817722 0.49149 
0.935079 0.653124 0.683651 0.481558 0.421749 
0.309627 0.52429 0.304962 0.267138 0.336218 
0.937693 0.732067 0.267481 0.00674391 0.92068 
0.598151 0.842279 0.695159 0.375069 0.0137136 
0.164735 0.642768 0.180032 0.339456 0.841395 
0.545405 0.457327 0.207856 0.26931 0.419514 
0.519411 0.96775 0.889968 0.104991 0.926772 
0.756822 0.42048 0.518986 0.694577 0.335045 
0.593962 0.142261 0.250151 0.823318 0.357103 
0.597559 0.987532 0.986402 0.445513 0.138654 
0.625337 0.380189 0.0753431 0.632338 0.307125 
0.477593 0.818707 0.70507 0.647435 0.545388 
0.502103 0.548126 0.827691 0.223818 0.346452 
0.805448 0.971429 0.0528107 0.108193 0.355304 
0.637268 0.578878 0.275151 0.607956 0.173983 
0.632843 0.601196 0.0796584 0.657933 0.572077 
0.335043 0.556394 0.956022 0.568545 0.641503 
0.550081 0.834969 0.924032 0.721793 0.996656 
0.236951 0.897746 0.191997 0.298653 0.0952349 
0.193448 0.0548761 0.174511 0.0765758 0.322782 
0.690651 0.262525 0.852226 0.377707 0.0860816 
0.980281 0.059386 0.921242 0.311966 0.0667692 
0.966687 0.114866 0.0681531 0.289583 0.467222 
0.480998 0.741957 0.328734 0.227249 0.884138 
0.54362 0.69511 0.654688 0.181631 0.531977 
0.455843 0.148874 0.0168065 0.57337 0.52725 
0.687943 0.77189 0.231818 0.100381 0.720878 
0.0623302 0.825269 0.0634517 0.616045 0.372552 
0.835547 0.98146 0.443949 0.0564574 0.513194 
0.799992 0.38798 0.535038 0.313352 0.295102 
0.81702 0.831886 0.966936 0.728464 0.204392 
0.885093 0.491211 0.0977591 0.94536 0.833211 
0.499315 0.279025 0.735829 0.327315 0.712093 
0.536213 0.997273 0.928158 0.792648 0.903565 
0.732697 0.0503566 0.596013 0.0391397 0.221583 
0.533374 0.351005 0.384162 0.147899 0.67639 
0.716912 0.368337 0.492402 0.298135 0.976029 
0.718375 0.832181 0.625781 0.371748 0.826438 
0.775632 0.767998 0.0976349 0.502355 0.658644 
0.283361 0.333242 0.272804 0.517288 0.392227 
0.672664 0.827577 0.823136 0.728807 0.422125 
0.170185 0.446268 0.308061 0.672827 0.29589 
0.457403 0.887025 0.974751 0.305433 0.0046926 
0.283008 0.0399619 0.172874 0.242894 0.415144 
0.998327 0.137431 0.979206 0.428537 0.174088 
0.500348 0.565697 0.877505 0.925486 0.855219 
0.935432 0.833913 0.129748 0.770356 0.408189 
0.526473 0.78766 0.942301 0.473401 0.209851 
0.987885 0.219667 0.549708 0.85255 0.791281 
0.883949 0.222671 0.601227 0.239912 0.172128 
0.701599 0.596584 0.797575 0.0448089 0.796293 
0.140724 0.247253 0.127811 0.831069 0.552382 
0.653876 0.329275 0.786855 0.981007 0.506848 
0.842089 0.248832 0.350063 0.161503 0.685345 
0.901522 0.673222 0.5576 0.492475 0.338278 
0.699971 0.3338 0.656302 0.213784 0.817885 
0.0350592 0.962781 0.612633 0.615674 0.51391 
0.629886 0.116894 0.27316 0.963055 0.53194 
0.427719 0.875931 0.190242 0.127845 0.456287 
0.232061 0.697826 0.839387 0.611569 0.329871 
0.874138 0.451023 0.400519 0.215557 0.175696 
0.0345037 0.531546 0.147739 0.331174 0.0788836 
0.412043 0.934654 0.127285 0.814558 0.931345 
0.064293 0.397638 0.591792 0.105457 0.741237 
0.72522 0.765725 0.380994 0.617409 0.128932 
0.606608 0.407608 0.361562 0.771929 0.214228 
0.419869 0.313815 0.0618506 0.520468 0.593524 
0.280528 0.670406 0.296035 0.0321469 0.137633 
0.182546 0.44634 0.296831 0.648733 0.489135 
0.167946 0.956052 0.97176 0.249649 0.283675 
0.521139 0.478118 0.460963 0.0979068 0.530125 
0.783632 0.37856 0.794002 0.942932 0.152338 
0.0207187 0.565717 0.666776 0.199761 0.74159 
0.441716 0.0311051 0.966015 0.198898 0.260677 
0.490307 0.92575 0.739001 0.707122 0.847867 
0.134988 0.244306 0.102718 0.836807 0.0443201 
0.369841 0.711747 0.351065 0.609721 0.360951 
0.2313 0.31486 0.788032 0.653978 0.386361 
0.259975 0.0488106 0.835181 0.163967 0.258673 
0.406507 0.181544 0.805997 0.260966 0.951135 
0.437076 0.341914 0.895059 0.413917 0.7781 
0.837276 0.258483 0.614254 0.36012 0.0274651 
0.08669 0.372997 0.0713876 0.288255 0.223995 
0.653102 0.302099 0.723282 0.784553 0.428337 
0.526812 0.744098 0.809605 0.086319 0.845703 
0.259916 0.92095 0.761207 0.421408 0.1363 
0.124125 0.261719 0.680113 0.631788 0.159659 
0.615208 0.252445 0.661878 0.0883976 0.208146 
0.586382 0.0403932 0.76622 0.308924 0.633519 
0.388321 0.509049 0.507759 0.398653 0.831673 
0.253728 0.597193 0.460712 0.0896211 0.56082 
0.655724 0.923076 0.879229 0.249836 0.125387 
0.598558 0.243581 0.990184 0.0189614 0.4771 
0.0907115 0.931059 0.988667 0.491923 0.660464 
0.782452 0.583987 0.550711 0.736097 0.502182 
0.362812 0.280891 0.385886 0.527378 0.591851 
0.501293 0.259158 0.789404 0.814376 0.797598 
0.853769 0.163096 0.626641 0.406941 0.915011 
0.810736 0.37358 0.924724 0.653015 0.555072 
0.168916 0.321789 0.172936 0.927738 0.179118 
0.0373465 0.221345 0.028704 0.856383 0.631658 
0.133353 0.739125 0.773358 0.851523 0.724272 
0.566483 0.11672 0.0287127 0.537285 0.505381 
0.156491 0.223597 0.607563 0.558612 0.377529 
0.267621 0.206413 0.357123 0.11135 0.167756 
0.840564 0.88079 0.0762168 0.999825 0.468475 
0.868279 0.437212 0.0141971 0.770972 0.866502 
0.379748 0.845969 0.901789 0.479806 0.0712916 
0.140626 0.493141 0.656785 0.932215 0.142175 
0.165557 0.824857 0.2321 0.561708 0.93948 
0.692287 0.845938 0.931904 0.448933 0.0287546 
0.195606 0.191852 0.741358 0.122445 0.957772 
0.691028 0.101827 0.434197 0.582224 0.0544067 
0.726344 0.326952 0.688616 0.660033 0.774093 
0.361088 0.927452 0.0962817 0.0997713 0.798668 
0.454287 0.143296 0.139023 0.933376 0.0582482 
0.645214 0.80223 0.824538 0.50466 0.456217 
0.793758 0.202516 0.860295 0.318267 0.730942 
0.133268 0.64071 0.287539 0.755101 0.666933 
0.318347 0.630493 0.0966895 0.368784 0.862925 
0.522729 0.804493 0.476835 0.236544 0.292058 
0.459343 0.255037 0.291717 0.737971 0.57729 
0.843636 0.644125 0.186915 0.293077 0.870702 
0.535508 0.328803 0.653198 0.281393 0.91885 
0.508748 0.515605 0.978632 0.40116 0.990963 
0.568618 0.138892 0.142769 0.369398 0.945464 
0.65491 0.0300552 0.440324 0.469968 0.87033 
0.799168 0.00753524 0.0747362 0.368971 0.622886 
0.0374747 0.307715 0.343185 0.333267 0.463537 
0.658901 0.209829 0.878816 0.999479 0.277572 
0.171332 0.882711 0.827613 0.0661978 0.774089 
0.523955 0.32043 0.109678 0.827984 0.932312 
0.645932 0.805358 0.616499 0.522588 0.537709 
0.434036 0.254532 0.0445853 0.484162 0.547476 
0.575003 0.1081 0.760643 0.825727 0.330229 
0.250642 0.16416 0.66076 0.516761 0.474171 
