1600 5
0.831581 0.192502 0.547777 0.50541 0.52901 
0.715242 0.882636 0.566949 0.562838 0.522209 
0.592449 0.729985 0.85798 0.154275 0.321874 
0.80381 0.950252 0.310419 0.34589 0.279614 
0.0963454 0.433621 0.390814 0.593186 0.483833 
0.03359 0.871727 0.448886 0.63679 0.319589 
0.47369 0.954684 0.642003 0.261389 0.991886 
0.0141047 0.19666 0.817243 0.0923521 0.193436 
0.214994 0.577327 0.670534 0.772172 0.413956 
0.201489 0.263921 0.0962586 0.514603 0.00905478 
0.186927 0.0977197 0.768616 0.921487 0.793515 
0.554543 0.580779 0.498701 0.582453 0.324328 
0.274192 0.31299 0.735791 0.402505 0.174774 
0.749871 0.987429 0.0666089 0.669873 0.863178 
0.455126 0.274063 0.253873 0.98092 0.576842 
0.870036 0.312067 0.18247 0.772911 0.0666028 
0.898822 0.375275 0.501435 0.487732 0.320764 
0.95894 0.485751 0.975024 0.0551203 0.326 
0.0458789 0.647572 0.494689 0.27989 0.935512 
0.46411 0.261282 0.353211 0.446195 0.793705 
0.485844 0.076452 0.135725 0.883844 0.110866 
0.0722576 0.815306 0.028991 0.0423138 0.213243 
0.241112 0.464703 0.751875 0.217465 0.577754 
0.451555 0.379867 0.922428 0.690367 0.291738 
0.0442155 0.506333 0.643617 0.586443 0.144987 
0.581031 0.781965 0.157207 0.586239 0.197099 
0.551007 0.375556 0.0181642 0.853157 0.163815 
0.751923 0.219155 0.410087 0.605759 0.105216 
0.873961 0.0132976 0.823765 0.0128825 0.791199 
0.151275 0.872433 0.0710248 0.908298 0.46706 
0.451087 0.974172 0.594678 0.627855 0.49698 
0.631751 0.590062 0.00901747 0.589292 0.275678 
0.634364 0.0352423 0.239069 0.466646 0.068695 
0.103709 0.725674 0.888196 0.128679 0.42677 
0.182848 0.544143 0.701847 0.510574 0.251874 
0.991193 0.89877 0.581909 0.209328 0.465426 
0.253755 0.391837 0.989113 0.555859 0.0251995 
0.324644 0.244999 0.93743 0.941201 0.356784 
0.691933 0.760454 0.0787433 0.0668573 0.741193 
0.535248 0.125851 0.051277 0.429191 0.396483 
0.455063 0.900993 0.989153 0.836997 0.056239 
0.75744 0.450468 0.666935 0.586905 0.323676 
0.0768808 0.321758 0.136631 0.590568 0.738698 
0.0962027 0.307415 0.994523 0.981699 0.311328 
0.612748 0.473442 0.534893 0.540801 0.74409 
0.515493 0.587861 0.0308442 0.0756094 0.371451 
0.872828 0.577444 0.311501 0.636947 0.816636 
0.741936 0.42233 0.364967 0.789581 0.929686 
0.672498 0.603416 0.926689 0.857938 0.80786 
0.8294 0.602433 0.540594 0.584657 0.816297 
0.389719 0.839777 0.49185 0.301712 0.313928 
0.317082 0.10971 0.348557 0.169148 0.478318 
0.432892 0.43772 0.713194 0.576324 0.845313 
0.179028 0.400157 0.790111 0.991838 0.590739 
0.700019 0.252084 0.34268 0.595391 0.411459 
0.00584863 0.426973 0.134185 0.361367 0.164729 
0.925094 0.103832 0.301474 0.417898 0.0184324 
0.607632 0.676031 0.177565 0.519234 0.724967 
0.690676 0.755205 0.642576 0.0271419 0.865914 
0.398109 0.781637 0.00836416 0.190506 0.718332 
0.330384 0.956164 0.811646 0.252987 0.631528 
0.5559 0.166173 0.994067 0.197604 0.0437357 
0.977731 0.520745 0.935658 0.254123 0.0285183 
0.152436 0.506997 0.922227 0.732329 0.0199366 
0.968648 0.142418 0.297869 0.771995 0.299649 
0.664937 0.230388 0.24584 0.0548355 0.856583 
0.721499 0.966119 0.270926 0.584606 0.804195 
0.724234 0.928917 0.683437 0.143003 0.634416 
0.897046 0.529285 0.140462 0.464702 0.459769 
0.09 0.830795 0.808228 0.465623 0.419195 
0.0664971 0.378454 0.387015 0.093415 0.916528 
0.715341 0.388267 0.780009 0.541598 0.182025 
0.245816 0.833576 0.882635 0.910215 0.0355962 
0.282246 0.192872 0.481893 0.536503 0.207022 
0.743191 0.945656 0.85281 0.490365 0.28174 
0.687381 0.102963 0.929626 0.129747 0.294427 
0.719833 0.0577643 0.417821 0.314537 0.0597963 
0.604638 0.0816602 0.948998 0.226377 0.424456 
0.742202 0.275448 0.80652 0.0313704 0.592957 
0.194477 0.240305 0.553637 0.408101 0.190743 
0.065101 0.657369 0.502463 0.794127 0.789939 
0.13088 0.443534 0.245867 0.0724258 0.59698 
0.727811 0.213138 0.788328 0.577289 0.277314 
0.489482 0.431406 0.168999 0.131839 0.395204 
0.210186 0.673719 0.208061 0.277897 0.463156 
0.339659 0.210415 0.102122 0.0308306 0.672962 
0.570888 0.318852 0.17837 0.626462 0.754093 
0.0084531 0.822629 0.994179 0.840314 0.525314 
0.170649 0.51463 0.297641 0.853502 0.774538 
0.783681 0.560456 0.468408 0.826294 0.499123 
0.755045 0.870978 0.804386 0.376309 0.172168 
0.0321585 0.131894 0.28051 0.567883 0.211531 
0.0715504 0.962025 0.928255 0.720639 0.98343 
0.785707 0.711147 0.888296 0.989569 0.193298 
0.293271 0.756936 0.526083 0.0606997 0.657381 
0.160606 0.784755 0.964762 0.289159 0.768911 
0.507177 0.924703 0.698237 0.400135 0.169469 
0.162154 0.510299 0.475538 0.782706 0.68411 
0.144627 0.00760214 0.447691 0.534938 0.0192941 
0.568132 0.185377 0.851026 0.352094 0.803556 
0.232164 0.867408 0.0598965 0.401028 0.449787 
0.931897 0.894277 0.387737 0.763399 0.574131 
0.870913 0.943673 0.837476 0.625597 0.959945 
0.395299 0.175332 0.991993 0.936212 0.795186 
0.590015 0.5386 0.813912 0.795865 0.190176 
0.373985 0.214088 0.439626 0.124664 0.964143 
0.288584 0.0761121 0.846807 0.136263 0.822402 
0.431877 0.749629 0.0199903 0.533474 0.835773 
0.42845 0.0675401 0.612758 0.950637 0.795194 
0.430166 0.380974 0.244414 0.91037 0.936475 
0.446775 0.401528 0.821602 0.720922 0.901036 
0.851426 0.934774 0.0777651 0.0485191 0.488206 
0.418273 0.435443 0.773042 0.93912 0.979314 
0.237659 0.5578 0.443994 0.232174 0.0977274 
0.70798 0.82445 0.318776 0.779814 0.482352 
0.594413 0.750931 0.903354 0.753824 0.00808721 
0.736943 0.938736 0.810029 0.407432 0.611828 
0.950649 0.661483 0.491566 0.356248 0.173386 
0.00250961 0.0651479 0.109395 0.741743 0.504867 
0.500359 0.893762 0.0747374 0.319368 0.562053 
0.732442 0.488657 0.331052 0.877263 0.784255 
0.670754 0.745607 0.350252 0.891948 0.963241 
0.082198 0.135064 0.317158 0.053168 0.313868 
0.537133 0.326745 0.701415 0.510335 0.0780219 
0.483746 0.185833 0.870722 0.120818 0.322623 
0.264267 0.14738 0.324851 0.864194 0.889129 
0.564375 0.656608 0.526083 0.933531 0.607563 
0.748359 0.741453 0.360184 0.104006 0.823922 
0.765145 0.819166 0.853141 0.0703511 0.0521878 
0.222808 0.0423281 0.297466 0.932381 0.739014 
0.834803 0.00902316 0.713718 0.802103 0.410635 
0.578006 0.341717 0.545131 0.488529 0.759419 
0.594393 0.247813 0.166034 0.0639994 0.305324 
0.049674 0.0873124 0.331092 0.133462 0.0444214 
0.141819 0.908106 0.668706 0.939276 0.89902 
0.811855 0.897523 0.400431 0.0011816 0.230591 
0.564018 0.310014 0.0346316 0.861694 0.288518 
0.327035 0.561639 0.770102 0.967689 0.398943 
0.443954 0.10387 0.408866 0.63991 0.668899 
0.84423 0.251591 0.462581 0.423746 0.617973 
0.649008 0.622658 0.925128 0.524562 0.0565962 
0.361424 0.643188 0.878292 0.659754 0.929942 
0.87219 0.729988 0.630694 0.529032 0.961894 
0.122745 0.333939 0.69962 0.852042 0.127737 
0.883834 0.698428 0.0602944 0.432184 0.636747 
0.728949 0.645473 0.444178 0.645839 0.441647 
0.990487 0.881088 0.153098 0.83398 0.423488 
0.0782443 0.571452 0.0162755 0.709192 0.0907147 
0.832486 0.433032 0.310689 0.455532 0.158164 
0.61752 0.155471 0.872734 0.658935 0.773399 
0.863455 0.544233 0.059107 0.369617 0.472364 
0.291547 0.851749 0.0211006 0.917582 0.491657 
0.561679 0.963488 0.533417 0.340591 0.689323 
0.185871 0.562243 0.355016 0.809185 0.483329 
0.155654 0.8644 0.960862 0.563313 0.179366 
0.0164836 0.738946 0.0874179 0.131787 0.37475 
0.426954 0.0335444 0.00412172 0.578799 0.392315 
0.144543 0.801871 0.850841 0.491669 0.971683 
0.114269 0.744867 0.195165 0.254133 0.299769 
0.73767 0.652197 0.0380928 0.0193578 0.601883 
0.987626 0.00621108 0.356327 0.592683 0.0139399 
0.903376 0.509129 0.751394 0.255691 0.915562 
0.936879 0.542793 0.554743 0.349323 0.694416 
0.39015 0.253864 0.335698 0.741961 0.663971 
0.0087432 0.419316 0.635291 0.170459 0.218619 
0.239893 0.912735 0.215631 0.998363 0.456653 
0.0748426 0.50722 0.216334 0.200561 0.828918 
0.0699666 0.922037 0.0141407 0.367359 0.92532 
0.456431 0.201848 0.331027 0.442124 0.754862 
0.15431 0.169454 0.684235 0.785636 0.826592 
0.2477 0.349139 0.122437 0.468816 0.183548 
0.211572 0.909444 0.325485 0.567329 0.0948697 
0.1 0.548562 0.0939212 0.217427 0.145091 
0.982276 0.510951 0.689502 0.103121 0.0318033 
0.933363 0.669775 0.404779 0.838811 0.394417 
0.787147 0.839507 0.904191 0.831762 0.379238 
0.597629 0.271964 0.266343 0.308011 0.1854 
0.936745 0.376206 0.232064 0.379654 0.242979 
0.690577 0.165332 0.222527 0.805465 0.399579 
0.0355559 0.241159 0.273921 0.982707 0.699106 
0.785513 0.995453 0.565324 0.159303 0.716372 
0.434828 0.440629 0.757056 0.0724323 0.198663 
0.675381 0.620077 0.52407 0.86276 0.908198 
0.0221469 0.60446 0.184914 0.965769 0.838666 
0.143856 0.296603 0.225188 0.331658 0.397379 
0.230381 0.331672 0.769421 0.917013 0.377248 
0.397736 0.763103 0.0017398 0.389586 0.272242 
0.304183 0.217981 0.634589 0.953151 0.914087 
0.978719 0.989022 0.345722 0.216351 0.845504 
0.933956 0.879343 0.296794 0.0266724 0.092808 
0.720615 0.894092 0.642697 0.550204 0.223127 
0.755352 0.980814 0.460458 0.913809 0.289968 
0.986097 0.0636297 0.898806 0.406115 0.657099 
0.290282 0.657606 0.939572 0.405018 0.513532 
0.307792 0.532273 0.20838 0.519534 0.820516 
0.845176 0.281115 0.918722 0.60765 0.571988 
0.573936 0.844882 0.512385 0.089099 0.0505539 
0.970554 0.174025 0.565873 0.455629 0.855273 
0.0432777 0.010708 0.748578 0.0959769 0.442481 
0.014539 0.117753 0.110855 0.446841 0.753409 
0.969145 0.785139 0.411719 0.222966 0.0884916 
0.99639 0.897784 0.776283 0.16822 0.691498 
0.182223 0.847776 0.0877574 0.255508 0.711088 
0.393293 0.643022 0.207774 0.250518 0.788519 
0.288341 0.820191 0.989308 0.0272845 0.311306 
0.510206 0.144773 0.192466 0.654884 0.541179 
0.177096 0.222875 0.365489 0.271112 0.107891 
0.145283 0.216625 0.549268 0.690217 0.00111294 
0.98339 0.597395 0.31719 0.272115 0.287085 
0.658788 0.712419 0.30759 0.634923 0.234065 
0.741224 0.399823 0.955685 0.183348 0.304372 
0.421973 0.158373 0.776001 0.41135 0.755554 
0.421165 0.134228 0.0880833 0.371996 0.402829 
0.272773 0.962177 0.925858 0.748923 0.745679 
0.690892 0.568758 0.579077 0.264999 0.196129 
0.578738 0.416844 0.128031 0.483487 0.83735 
0.963674 0.12185 0.599736 0.651585 0.828642 
0.323889 0.59188 0.630145 0.359865 0.0350013 
0.0500003 0.942772 0.0863913 0.24538 0.66631 
0.978044 0.779288 0.0858849 0.773381 0.48439 
0.87202 0.283365 0.913184 0.875213 0.461146 
0.136989 0.559903 0.869327 0.653373 0.664823 
0.883172 0.0817693 0.567985 0.501948 0.96669 
0.577249 0.883375 0.444447 0.0341407 0.576483 
0.754463 0.869974 0.934456 0.962871 0.754818 
0.00686685 0.791847 0.347668 0.589255 0.373034 
0.539391 0.982329 0.254017 0.0956775 0.725617 
0.783168 0.375996 0.917392 0.84218 0.770806 
0.131725 0.828023 0.339553 0.268183 0.036918 
0.332976 0.751762 0.0407878 0.646788 0.468422 
0.101786 0.214839 0.640486 0.982745 0.482436 
0.531349 0.11813 0.502713 0.461577 0.0161235 
0.0764609 0.181661 0.606705 0.684599 0.609023 
0.300758 0.495531 0.812918 0.163093 0.447815 
0.712732 0.45986 0.861946 0.445002 0.135178 
0.47273 0.486921 0.82545 0.180959 0.756325 
0.344133 0.920819 0.256078 0.657234 0.536364 
0.718893 0.424005 0.569669 0.200525 0.52391 
0.117528 0.394849 0.00726426 0.165656 0.394129 
0.32 0.871593 0.137412 0.0726316 0.526314 
0.459775 0.636794 0.521159 0.126562 0.486848 
0.53187 0.718507 0.337461 0.22163 0.91663 
0.954034 0.441099 0.869213 0.739885 0.814333 
0.224533 0.199012 0.881587 0.650667 0.276085 
0.783648 0.574823 0.606583 0.596188 0.0733148 
0.324438 0.0801442 0.912369 0.365839 0.933938 
0.787467 0.333321 0.013111 0.751859 0.717803 
0.287577 0.020606 0.969471 0.0155565 0.896954 
0.184674 0.507882 0.300207 0.503054 0.244114 
0.692911 0.666302 0.625211 0.877721 0.0253921 
0.617771 0.00354417 0.98614 0.976968 0.586198 
0.471143 0.0748237 0.959531 0.630905 0.596759 
0.559354 0.730871 0.520497 0.178934 0.987632 
0.200958 0.133004 0.473604 0.0579257 0.738908 
0.228317 0.673884 0.250716 0.0890673 0.493063 
0.89579 0.953041 0.413823 0.958869 0.530389 
0.269013 0.118132 0.713803 0.551451 0.264585 
0.0112477 0.848131 0.376961 0.807241 0.909607 
0.739613 0.210174 0.339667 0.330647 0.124806 
0.966743 0.166931 0.671856 0.273257 0.756071 
0.645244 0.738492 0.672003 0.112258 0.751028 
0.206412 0.529067 0.26269 0.196887 0.148201 
0.949403 0.971772 0.278642 0.452945 0.0916994 
0.0608698 0.455826 0.686447 0.428954 0.818669 
0.0396238 0.859099 0.0459619 0.302167 0.101119 
0.640786 0.160364 0.348886 0.0963593 0.596672 
0.601159 0.141583 0.459522 0.357697 0.338975 
0.215649 0.78263 0.0622942 0.375046 0.0772334 
0.479936 0.137619 0.656774 0.140965 0.77086 
0.21389 0.0631122 0.66186 0.326071 0.833288 
0.942556 0.0307706 0.491725 0.0793555 0.197967 
0.059846 0.134481 0.082425 0.949739 0.634777 
0.193603 0.191961 0.0831381 0.824312 0.281892 
0.58873 0.410977 0.610135 0.118699 0.958934 
0.520105 0.894435 0.943631 0.266096 0.76236 
0.311562 0.633881 0.613534 0.067342 0.543074 
0.0793253 0.839091 0.737667 0.666472 0.725927 
0.345082 0.537592 0.420341 0.374925 0.63488 
0.335323 0.513516 0.4299 0.725777 0.0194823 
0.848989 0.940066 0.970648 0.777594 0.0841642 
0.965995 0.41886 0.896257 0.291889 0.268369 
0.272675 0.476306 0.74809 0.0101822 0.979927 
0.0459022 0.169815 0.813232 0.211386 0.975398 
0.370386 0.0280946 0.852944 0.603421 0.440068 
0.283313 0.808859 0.915322 0.345472 0.886766 
0.133594 0.718876 0.607141 0.522321 0.222508 
0.488699 0.67738 0.850344 0.631574 0.22216 
0.0458039 0.582001 0.725058 0.386042 0.426758 
0.818287 0.204647 0.617808 0.0195163 0.75389 
0.149067 0.836197 0.922386 0.228676 0.212026 
0.46976 0.841172 0.778743 0.462908 0.0289343 
0.418837 0.685775 0.314197 0.617405 0.597618 
0.790533 0.214482 0.742827 0.31814 0.285637 
0.180234 0.419853 0.787671 0.499658 0.797591 
0.305768 0.703139 0.880552 0.860881 0.449287 
0.553265 0.682712 0.771695 0.847371 0.386597 
0.395036 0.521832 0.394268 0.208132 0.11749 
0.834063 0.854458 0.363011 0.545618 0.347658 
0.727817 0.203707 0.256796 0.976251 0.645277 
0.291059 0.92305 0.981044 0.670616 0.775562 
0.174969 0.293766 0.713104 0.651183 0.494874 
0.611938 0.494447 0.44502 0.109881 0.374411 
0.46971 0.608318 0.251386 0.573491 0.512011 
0.242512 0.9654 0.666618 0.370014 0.0128748 
0.756589 0.0577836 0.0331944 0.0639833 0.501283 
0.50913 0.431205 0.611503 0.0427716 0.733164 
0.76584 0.108277 0.938162 0.374408 0.458265 
0.384994 0.0314211 0.0789456 0.148437 0.886693 
0.258366 0.472429 0.140779 0.656613 0.506867 
0.157075 0.451066 0.664944 0.499844 0.472719 
0.22108 0.239692 0.117335 0.125977 0.781678 
0.627864 0.933601 0.831324 0.665533 0.965592 
0.943729 0.47232 0.442432 0.298971 0.825051 
0.466831 0.0868322 0.889294 0.637837 0.353445 
0.544477 0.0116637 0.0910016 0.0663392 0.145218 
0.771037 0.418552 0.599657 0.650513 0.907688 
0.652079 0.232058 0.421665 0.811696 0.0872919 
0.6386 0.158787 0.0683488 0.540905 0.100753 
0.228052 0.416372 0.333806 0.828741 0.404968 
0.176514 0.642016 0.989583 0.0267682 0.247587 
0.799216 0.379479 0.939889 0.0816546 0.396579 
0.267521 0.358936 0.836175 0.415063 0.872751 
0.25507 0.402697 0.905848 0.457693 0.880942 
0.409846 0.04817 0.00977246 0.514517 0.252241 
0.46826 0.899104 0.384283 0.891572 0.841485 
0.68307 0.115784 0.923334 0.670977 0.14574 
0.776108 0.900951 0.297567 0.575914 0.933742 
0.599318 0.334151 0.642599 0.874238 0.522808 
0.0540322 0.539505 0.882914 0.837283 0.748796 
0.891443 0.0920308 0.362934 0.174243 0.676289 
0.980594 0.156273 0.334839 0.970018 0.544824 
0.150316 0.309555 0.933407 0.121929 0.0814659 
0.349957 0.381808 0.315066 0.670891 0.311837 
0.976627 0.796054 0.307327 0.783752 0.663893 
0.115369 0.927698 0.382253 0.272193 0.585104 
0.384917 0.79352 0.387087 0.724908 0.278372 
0.582257 0.323509 0.46703 0.322469 0.36044 
0.314849 0.243428 0.278419 0.190175 0.693603 
0.955802 0.67829 0.683857 0.666571 0.947727 
0.450051 0.810582 0.648967 0.0304202 0.788644 
0.392722 0.738398 0.567729 0.260953 0.821906 
0.0761665 0.0614397 0.0618498 0.625394 0.510844 
0.437891 0.626056 0.47586 0.904015 0.857251 
0.26545 0.458168 0.763598 0.0721072 0.508644 
0.797581 0.544657 0.705702 0.36102 0.659181 
0.261796 0.338779 0.030326 0.262472 0.203796 
0.945071 0.280579 0.815567 0.674042 0.853787 
0.385531 0.464093 0.528155 0.472914 0.667314 
0.915783 0.995326 0.697802 0.066946 0.0524824 
0.586728 0.92247 0.185807 0.106559 0.111765 
0.212938 0.453071 0.367267 0.45052 0.112284 
0.378946 0.0990067 0.440315 0.0413282 0.719966 
0.283907 0.873579 0.89564 0.430473 0.7354 
0.4151 0.979499 0.425564 0.776931 0.597415 
0.683556 0.962763 0.0484656 0.793641 0.541202 
0.176929 0.717438 0.845748 0.72639 0.983921 
0.673657 0.52418 0.295414 0.801869 0.969096 
0.490828 0.825881 0.672562 0.147224 0.756249 
0.217072 0.791345 0.274762 0.143156 0.523862 
0.0129021 0.175513 0.344077 0.458662 0.831537 
0.0644182 0.681686 0.985684 0.218856 0.691933 
0.610654 0.902663 0.10537 0.402884 0.842149 
0.723193 0.719709 0.12372 0.374742 0.0564407 
0.209967 0.0729895 0.195834 0.685386 0.267565 
0.307241 0.685333 0.446513 0.301604 0.587837 
0.302375 0.386287 0.55878 0.383544 0.922707 
0.769711 0.247136 0.53801 0.243602 0.468983 
0.577469 0.504103 0.532511 0.759008 0.84627 
0.228118 0.922072 0.266546 0.187382 0.22053 
0.975169 0.889933 0.790173 0.837973 0.21493 
0.792768 0.382985 0.0981632 0.127405 0.171786 
0.34125 0.418817 0.454101 0.107703 0.848868 
0.187189 0.0278114 0.281699 0.690864 0.928625 
0.24826 0.290135 0.857429 0.994201 0.90619 
0.130909 0.350753 0.662819 0.0664263 0.16705 
0.965682 0.132491 0.783377 0.991974 0.518318 
0.0720686 0.545145 0.449526 0.225472 0.0455573 
0.570036 0.475053 0.759123 0.122487 0.918528 
0.139151 0.776022 0.683008 0.260749 0.741595 
0.150188 0.688177 0.14456 0.947716 0.166906 
0.468928 0.141909 0.973522 0.221691 0.10616 
0.552459 0.513868 0.541461 0.379778 0.189455 
0.396399 0.37674 0.0665084 0.595313 0.530605 
0.235643 0.761721 0.264814 0.0923244 0.915664 
0.776026 0.58638 0.209926 0.789808 0.251402 
0.153641 0.457388 0.150615 0.783989 0.74709 
0.3656 0.037247 0.303678 0.892853 0.0634758 
0.399718 0.724745 0.119636 0.0294465 0.690842 
0.0954239 0.33476 0.310117 0.00687229 0.46533 
0.713798 0.590781 0.575627 0.984159 0.0833628 
0.885579 0.919514 0.912865 0.509628 0.48356 
0.200261 0.620034 0.551325 0.454604 0.775606 
0.192304 0.195246 0.377687 0.618205 0.873385 
0.836815 0.14876 0.216506 0.281644 0.872982 
0.950195 0.857625 0.265953 0.782205 0.857289 
0.788508 0.740516 0.577982 0.472701 0.212061 
0.3904 0.181281 0.529588 0.815812 0.0839985 
0.277905 0.772335 0.360934 0.0101386 0.328898 
0.350982 0.87023 0.600363 0.788804 0.802328 
0.739274 0.368644 0.528982 0.00633238 0.0226642 
0.766013 0.177308 0.853519 0.135755 0.747277 
0.128215 0.683548 0.831304 0.235411 0.478062 
0.490229 0.839435 0.725913 0.245029 0.234395 
0.736148 0.834667 0.00327628 0.297194 0.455732 
0.677265 0.257629 0.738591 0.487125 0.12311 
0.956416 0.490923 0.761969 0.0291568 0.884614 
0.19679 0.208083 0.236484 0.0121854 0.38075 
0.172249 0.579633 0.184917 0.870386 0.559146 
0.0949507 0.0360842 0.651291 0.810322 0.460083 
0.772824 0.733127 0.450688 0.695216 0.0931456 
0.766712 0.967602 0.913366 0.422031 0.379454 
0.468303 0.107994 0.257097 0.99975 0.569089 
0.98243 0.48854 0.308895 0.354294 0.175029 
0.608702 0.862433 0.291558 0.808394 0.0300784 
0.415642 0.10366 0.168733 0.208733 0.64724 
0.508828 0.462238 0.486579 0.153121 0.480783 
0.20212 0.505945 0.20193 0.561027 0.435313 
0.345753 0.506646 0.126947 0.289857 0.00580161 
0.0475753 0.780242 0.312147 0.561639 0.719036 
0.713971 0.490945 0.485587 0.555733 0.965344 
0.49259 0.797865 0.91548 0.838196 0.643406 
0.849661 0.602986 0.089636 0.384621 0.199969 
0.674216 0.652335 0.335035 0.454075 0.684455 
0.738276 0.255049 0.368986 0.308882 0.298443 
0.323706 0.951545 0.294124 0.000762129 0.0161454 
0.98905 0.423953 0.14603 0.34305 0.338212 
0.0720037 0.239465 0.989978 0.845424 0.985262 
0.368219 0.151609 0.316397 0.366975 0.386127 
0.780856 0.692318 0.584581 0.320354 0.0924015 
0.00998826 0.268425 0.588035 0.486885 0.797232 
0.453224 0.182639 0.825879 0.132134 0.0476828 
0.861502 0.669594 0.341153 0.163829 0.735236 
0.20597 0.980377 0.821873 0.506119 0.298098 
0.438387 0.31397 0.874581 0.259027 0.391637 
0.712183 0.0599907 0.799282 0.165862 0.73969 
0.0851071 0.373465 0.131129 0.522983 0.984949 
0.378356 0.165864 0.131777 0.503838 0.134311 
0.959349 0.823446 0.0716078 0.242952 0.930707 
0.611246 0.382212 0.79348 0.00526514 0.592401 
0.289062 0.0959699 0.600536 0.068791 0.786966 
0.814694 0.394497 0.712394 0.78328 0.716016 
0.616967 0.208015 0.177774 0.247902 0.161941 
0.427948 0.150094 0.395534 0.367076 0.24462 
0.861905 0.680328 0.761061 0.561915 0.589334 
0.840947 0.389632 0.937682 0.914331 0.655123 
0.208692 0.232416 0.58905 0.729637 0.0155883 
0.0127054 0.144251 0.690841 0.620043 0.476874 
0.50353 0.987071 0.704488 0.656473 0.364658 
0.415938 0.0730405 0.369117 0.0125953 0.287588 
0.736443 0.15786 0.569665 0.347485 0.609254 
0.554244 0.194339 0.852434 0.212818 0.212989 
0.728708 0.17158 0.0456116 0.390859 0.0042088 
0.419362 0.989894 0.593408 0.527956 0.540872 
0.489386 0.277627 0.219554 0.205955 0.491363 
0.187712 0.547997 0.32717 0.642276 0.425374 
0.377244 0.924107 0.152996 0.384501 0.772209 
0.626506 0.5525 0.226483 0.664247 0.816042 
0.126757 0.162298 0.822113 0.182624 0.346088 
0.950349 0.948619 0.998132 0.98549 0.56648 
0.382234 0.856103 0.667101 0.137798 0.509921 
0.253767 0.403055 0.305644 0.808627 0.28887 
0.353854 0.784435 0.601194 0.0580652 0.205786 
0.720546 0.990426 0.458502 0.462417 0.0540711 
0.964164 0.618963 0.912495 0.100394 0.31022 
0.612555 0.53691 0.332071 0.722568 0.504921 
0.888646 0.950401 0.341534 0.607935 0.682504 
0.396824 0.448816 0.145483 0.395474 0.463404 
0.0737517 0.723105 0.0815925 0.750859 0.264085 
0.912127 0.294333 0.188666 0.365507 0.754887 
0.971863 0.467621 0.750549 0.0106896 0.160727 
0.918951 0.410124 0.0397643 0.426608 0.495467 
0.740389 0.104935 0.628529 0.451176 0.59097 
0.538249 0.987978 0.710056 0.826431 0.497528 
0.27977 0.969465 0.14258 0.543057 0.596281 
0.807252 0.325733 0.216315 0.434914 0.359002 
0.361984 0.650365 0.541418 0.820514 0.00603199 
0.395666 0.277365 0.333193 0.675302 0.0581159 
0.719344 0.608968 0.0894151 0.568759 0.406431 
0.562497 0.918856 0.384049 0.597245 0.565112 
0.106782 0.110254 0.481493 0.574561 0.171967 
0.621008 0.857123 0.37637 0.0512984 0.944698 
0.307378 0.792566 0.925215 0.0937225 0.463752 
0.191421 0.397888 0.245283 0.591631 0.7247 
0.0220032 0.310514 0.324403 0.903726 0.11669 
0.370751 0.248109 0.680167 0.310854 0.0652689 
0.974058 0.162336 0.530627 0.4521 0.451336 
0.832508 0.718648 0.587934 0.237464 0.650426 
0.206114 0.399646 0.0829087 0.381337 0.25252 
0.454448 0.583905 0.311617 0.266856 0.0674858 
0.556349 0.981512 0.550191 0.628335 0.68525 
0.677163 0.442401 0.157253 0.959974 0.576957 
0.711276 0.460197 0.0878023 0.180584 0.500409 
0.628548 0.271724 0.558 0.510587 0.143629 
0.0653564 0.125892 0.204096 0.160969 0.996684 
0.600707 0.792911 0.978385 0.394859 0.196947 
0.678642 0.422914 0.681076 0.922146 0.53534 
0.873964 0.850888 0.589114 0.441552 0.439274 
0.252614 0.0635503 0.30093 0.21599 0.76088 
0.79128 0.264955 0.369063 0.688121 0.136285 
0.547675 0.707773 0.93611 0.697872 0.821654 
0.948763 0.791344 0.886564 0.735302 0.0893764 
0.822243 0.373156 0.31264 0.313094 0.532814 
0.196134 0.389773 0.45089 0.417283 0.404618 
0.505553 0.0502161 0.336403 0.590466 0.785924 
0.102506 0.822055 0.491174 0.573298 0.26272 
0.475258 0.371761 0.100328 0.944036 0.552187 
0.802978 0.303298 0.749062 0.836849 0.26876 
0.0461528 0.363631 0.47974 0.392199 0.50831 
0.177654 0.18814 0.702844 0.673675 0.261844 
0.632167 0.511636 0.264171 0.440853 0.900795 
0.22317 0.860674 0.0920216 0.352027 0.342337 
0.433206 0.23901 0.0498211 0.438361 0.0274644 
0.60617 0.976962 0.65773 0.67368 0.530883 
0.562929 0.155209 0.552091 0.642835 0.877481 
0.509515 0.835703 0.82349 0.607242 0.602596 
0.719095 0.0576869 0.922126 0.347173 0.706863 
0.356241 0.93521 0.241727 0.684273 0.946742 
0.126367 0.536602 0.167612 0.447703 0.511557 
0.100422 0.975052 0.429836 0.441479 0.0288256 
0.00575501 0.111463 0.983147 0.113552 0.00236492 
0.948953 0.00300943 0.670325 0.349452 0.438423 
0.700862 0.288884 0.0487325 0.460045 0.328835 
0.869786 0.167625 0.903089 0.29696 0.607332 
0.705963 0.414248 0.0664212 0.564875 0.257791 
0.791208 0.307064 0.921215 0.846183 0.070066 
0.597315 0.140186 0.00320324 0.0428728 0.433 
0.497074 0.97537 0.159357 0.274511 0.215867 
0.614716 0.895257 0.557234 0.636895 0.345413 
0.43116 0.555318 0.0307181 0.684763 0.665892 
0.0191292 0.173408 0.475621 0.394659 0.429428 
0.416352 0.14148 0.0237908 0.335451 0.982869 
0.101502 0.961666 0.349875 0.924644 0.515673 
0.974498 0.289047 0.240527 0.949923 0.576992 
0.432409 0.98816 0.55202 0.569175 0.802545 
0.523609 0.968894 0.0829464 0.426305 0.592078 
0.995935 0.777084 0.994713 0.213773 0.279226 
0.61807 0.0820875 0.426367 0.772228 0.471616 
0.551676 0.456377 0.50681 0.786998 0.27103 
0.975787 0.502504 0.882684 0.823851 0.00574909 
0.968656 0.689568 0.433521 0.229755 0.535731 
0.518674 0.682373 0.389502 0.113716 0.424308 
0.195237 0.424919 0.64439 0.973428 0.315852 
0.789177 0.0169106 0.523463 0.778001 0.418158 
0.505554 0.0230797 0.123718 0.453724 0.416214 
0.187089 0.196947 0.0915794 0.601029 0.52129 
0.172938 0.778133 0.727749 0.226985 0.0793941 
0.273177 0.0175078 0.183947 0.775929 0.546898 
0.0526659 0.417257 0.739149 0.313249 0.457557 
0.16159 0.898832 0.548238 0.945954 0.635365 
0.171164 0.853347 0.395082 0.867587 0.130151 
0.947566 0.157131 0.226676 0.183774 0.0723673 
0.703053 0.564142 0.0561309 0.514957 0.157037 
0.00626479 0.00695711 0.0454247 0.914986 0.664245 
0.861757 0.779464 0.812464 0.321344 0.321038 
0.607394 0.206027 0.263433 0.249399 0.241752 
0.175964 0.584618 0.16359 0.426056 0.518439 
0.464459 0.243261 0.396707 0.631923 0.860631 
0.82118 0.00791214 0.256825 0.814375 0.68458 
0.606765 0.581762 0.142193 0.129618 0.977343 
0.580851 0.255692 0.595708 0.157337 0.0106826 
0.529736 0.909286 0.710367 0.885389 0.867733 
0.887336 0.805702 0.353135 0.682889 0.41509 
0.675979 0.648013 0.113131 0.316974 0.292282 
0.051304 0.593509 0.78986 0.763675 0.307371 
0.908998 0.349419 0.287786 0.252743 0.873511 
0.00479168 0.549382 0.348253 0.366013 0.178436 
0.260506 0.782563 0.860483 0.858608 0.0978279 
0.136138 0.974977 0.572805 0.764122 0.0365065 
0.599626 0.627501 0.604981 0.122581 0.693827 
0.0234404 0.119944 0.666497 0.887981 0.825975 
0.134975 0.902728 0.636971 0.261932 0.0801138 
0.788112 0.00150318 0.877523 0.206775 0.359168 
0.0203374 0.100639 0.239219 0.870223 0.392862 
0.301551 0.838238 0.116911 0.495366 0.8767 
0.522364 0.349031 0.580274 0.0202919 0.379396 
0.368948 0.806002 0.875885 0.921304 0.941585 
0.587957 0.864487 0.78304 0.652824 0.897715 
0.107406 0.722632 0.278506 0.894411 0.675776 
0.948015 0.79426 0.485435 0.630649 0.711163 
0.948172 0.335415 0.005336 0.920859 0.610691 
0.807497 0.625024 0.199783 0.60112 0.529722 
0.140697 0.516712 0.379005 0.68512 0.542395 
0.0242141 0.316403 0.632387 0.706123 0.999888 
0.669622 0.995625 0.679818 0.460734 0.430714 
0.915275 0.195391 0.39196 0.195448 0.498064 
0.840576 0.509609 0.424082 0.344426 0.554816 
0.79432 0.68726 0.0274207 0.1186 0.20569 
0.931835 0.777908 0.816291 0.700247 0.756015 
0.43362 0.938882 0.173201 0.61158 0.473708 
0.627502 0.315542 0.119176 0.451917 0.872003 
0.808924 0.559283 0.126158 0.913387 0.602422 
0.420103 0.433037 0.738304 0.8163 0.809728 
0.697847 0.00426375 0.907199 0.920588 0.749008 
0.352505 0.0496804 0.269234 0.505546 0.0964306 
0.234155 0.922138 0.437074 0.89732 0.777646 
0.870885 0.0074018 0.0350761 0.068844 0.73359 
0.534141 0.245693 0.327619 0.0453568 0.860579 
0.345976 0.300069 0.0244752 0.320037 0.719126 
0.0385854 0.332491 0.0945669 0.430996 0.42615 
0.894043 0.631707 0.660149 0.293687 0.188573 
0.612258 0.242205 0.14834 0.93173 0.829844 
0.333577 0.832134 0.253124 0.186455 0.241158 
0.163951 0.982759 0.0168343 0.832106 0.579746 
0.275896 0.813744 0.313706 0.477805 0.0200374 
0.620342 0.822807 0.66738 0.343559 0.735867 
0.375615 0.570607 0.613589 0.35651 0.0903242 
0.392513 0.976714 0.146885 0.327352 0.84512 
0.748641 0.96023 0.338896 0.908481 0.0516828 
0.0496506 0.218701 0.704898 0.140425 0.950033 
0.495802 0.564348 0.0841968 0.244651 0.904794 
0.290115 0.558159 0.27653 0.287803 0.137403 
0.06002 0.451757 0.388356 0.0538333 0.152071 
0.2325 0.91048 0.593762 0.389528 0.777068 
0.801978 0.765658 0.442181 0.133899 0.811967 
0.733907 0.93961 0.16327 0.649359 0.746613 
0.158187 0.260259 0.267626 0.0220344 0.0718187 
0.923737 0.474657 0.0785667 0.75431 0.914847 
0.902052 0.023927 0.053053 0.846211 0.135093 
0.51225 0.0438011 0.42252 0.010141 0.927772 
0.214604 0.701483 0.490084 0.669653 0.115805 
0.293281 0.120826 0.302226 0.43948 0.170424 
0.52984 0.65466 0.124697 0.853521 0.778548 
0.957513 0.959514 0.596097 0.151395 0.72147 
0.684204 0.798534 0.29822 0.252966 0.264719 
0.30933 0.365815 0.365394 0.737791 0.424017 
0.483966 0.0751048 0.732297 0.662954 0.0608058 
0.428918 0.964144 0.0365434 0.830041 0.0469204 
0.752983 0.503229 0.0941643 0.154593 0.67026 
0.73972 0.489153 0.197169 0.559634 0.50221 
0.182088 0.141948 0.179737 0.717714 0.660335 
0.249883 0.929504 0.315137 0.334425 0.483838 
0.442932 0.954071 0.00116679 0.190132 0.284449 
0.884551 0.84526 0.850273 0.887529 0.00642349 
0.351141 0.313341 0.871221 0.55693 0.62606 
0.13774 0.759922 0.0169641 0.617279 0.219433 
0.340247 0.340546 0.762316 0.9016 0.00718174 
0.201742 0.367705 0.410867 0.139827 0.767752 
0.263866 0.307051 0.317002 0.192664 0.886022 
0.889486 0.735933 0.421038 0.664815 0.172631 
0.72932 0.384083 0.484714 0.0173437 0.487402 
0.594172 0.826524 0.260995 0.310339 0.317853 
0.177222 0.467968 0.760014 0.77415 0.783803 
0.0562426 0.533143 0.716826 0.780399 0.167138 
0.317304 0.361991 0.784394 0.0857386 0.898099 
0.846695 0.762768 0.310581 0.0624966 0.821905 
0.876566 0.124915 0.578524 0.181959 0.260103 
0.23842 0.235244 0.159103 0.948247 0.67112 
0.211278 0.186442 0.332672 0.589207 0.410267 
0.696857 0.0444214 0.540982 0.936614 0.877454 
0.23837 0.848962 0.104104 0.610807 0.188786 
0.175001 0.446085 0.429299 0.40654 0.243755 
0.225401 0.761964 0.69451 0.204576 0.785916 
0.547665 0.279576 0.426882 0.65059 0.137279 
0.85038 0.135067 0.880831 0.941785 0.700385 
0.505589 0.731813 0.223565 0.0975552 0.248607 
0.508768 0.395561 0.454706 0.629202 0.133546 
0.724836 0.33886 0.979828 0.53024 0.0236562 
0.918394 0.553715 0.17631 0.430788 0.144111 
0.330444 0.198483 0.357619 0.73925 0.924308 
0.719668 0.950994 0.6651 0.64736 0.759547 
0.478395 0.424669 0.598118 0.443904 0.25607 
0.271401 0.334089 0.0691292 0.29363 0.27706 
0.546561 0.470566 0.868637 0.750275 0.448286 
0.310506 0.028214 0.354364 0.763955 0.108321 
0.289987 0.836608 0.960385 0.189261 0.824489 
0.0466922 0.364458 0.350685 0.149936 0.537228 
0.277751 0.0739573 0.348629 0.127739 0.733083 
0.234444 0.86703 0.83265 0.513397 0.260388 
0.0561041 0.552259 0.456709 0.753446 0.814272 
0.934931 0.057568 0.163023 0.215003 0.322689 
0.612028 0.16291 0.770414 0.643994 0.755491 
0.0287599 0.0187365 0.847214 0.156462 0.410835 
0.553187 0.0911315 0.458325 0.989524 0.0421119 
0.601644 0.322197 0.665703 0.84428 0.614963 
0.998045 0.387 0.771859 0.0571143 0.186509 
0.356429 0.346466 0.0437462 0.607936 0.527834 
0.946743 0.516158 0.593158 0.818743 0.374818 
0.942474 0.229661 0.0792999 0.647837 0.704851 
0.634127 0.81462 0.072262 0.584851 0.38206 
0.216329 0.493808 0.402789 0.727704 0.54028 
0.896711 0.314622 0.212882 0.960811 0.836361 
0.392907 0.265775 0.307114 0.0266692 0.837781 
0.00847479 0.674585 0.366936 0.304936 0.937473 
0.444024 0.185037 0.646103 0.14869 0.236453 
0.155357 0.340773 0.531658 0.670471 0.214231 
0.62908 0.585529 0.969105 0.519177 0.130782 
0.856731 0.937521 0.648232 0.288124 1.89299e-05 
0.504413 0.483932 0.588355 0.554067 0.475483 
0.96501 0.68125 0.824178 0.514867 0.125905 
0.779241 0.270079 0.21282 0.818541 0.793011 
0.120389 0.096065 0.309575 0.714106 0.483479 
0.815182 0.302864 0.746638 0.263062 0.05728 
0.717855 0.784321 0.302361 0.392722 0.25525 
0.277589 0.239418 0.829892 0.245566 0.0181099 
0.259379 0.047857 0.531188 0.52775 0.812365 
0.625328 0.442726 0.722394 0.413203 0.35171 
0.438785 0.921182 0.371051 0.178746 0.358792 
0.268671 0.679591 0.420556 0.338158 0.944247 
0.874877 0.335876 0.536312 0.876827 0.819652 
0.883152 0.0598984 0.645973 0.437411 0.373993 
0.188913 0.324723 0.258813 0.916306 0.0684719 
0.198631 0.391805 0.549786 0.224186 0.538765 
0.831438 0.760021 0.169543 0.440577 0.171113 
0.126573 0.798432 0.330757 0.577021 0.293996 
0.343283 0.140465 0.596622 0.00335267 0.0984201 
0.809526 0.342548 0.072508 0.101134 0.0285094 
0.320601 0.0551765 0.17883 0.739228 0.377347 
0.734839 0.426831 0.723958 0.0125373 0.61332 
0.571023 0.289601 0.0661978 0.433461 0.713771 
0.359142 0.211861 0.126824 0.382495 0.799965 
0.44301 0.753212 0.882969 0.667531 0.493042 
0.569921 0.813414 0.505048 0.166228 0.0618808 
0.0702906 0.37347 0.91127 0.258129 0.741771 
0.938918 0.685519 0.398429 0.0394878 0.845177 
0.586015 0.749982 0.156665 0.268107 0.0326101 
0.347787 0.552171 0.283822 0.808655 0.792434 
0.208705 0.243942 0.980099 0.271732 0.0101844 
0.561872 0.5191 0.451552 0.752219 0.889066 
0.432526 0.325655 0.0450254 0.0623386 0.626527 
0.05841 0.161944 0.471663 0.677972 0.982446 
0.455154 0.526032 0.135587 0.80851 0.907459 
0.869274 0.664962 0.819204 0.158488 0.219427 
0.874748 0.601824 0.943802 0.394389 0.029952 
0.01314 0.513782 0.62847 0.511616 0.916794 
0.523123 0.81661 0.0754717 0.164074 0.0187222 
0.553081 0.921272 0.202652 0.460481 0.837325 
0.900659 0.882495 0.432509 0.994683 0.470906 
0.802963 0.813914 0.298296 0.908502 0.17245 
0.229764 0.8358 0.176046 0.532018 0.228388 
0.639777 0.233415 0.177465 0.571009 0.0192795 
0.319657 0.223183 0.925688 0.692281 0.957468 
0.930883 0.938352 0.898578 0.320612 0.00402887 
0.610511 0.151617 0.276502 0.275281 0.345973 
0.5677 0.972737 0.76396 0.138199 0.278098 
0.736254 0.807075 0.588611 0.0570667 0.423527 
0.384475 0.295592 0.388976 0.000628806 0.969053 
0.43784 0.154599 0.427836 0.955749 0.556014 
0.757222 0.990513 0.085473 0.733547 0.159418 
0.817825 0.0492181 0.253899 0.927149 0.157679 
0.260692 0.171907 0.702421 0.595659 0.445134 
0.827593 0.0540361 0.332373 0.961071 0.407545 
0.208757 0.654267 0.466982 0.912731 0.398173 
0.58387 0.714464 0.232975 0.175754 0.27035 
0.204747 0.0223526 0.668063 0.249893 0.628123 
0.213064 0.17867 0.704917 0.811407 0.0266985 
0.54286 0.762605 0.698415 0.209567 0.453949 
0.212535 0.685494 0.948714 0.816288 0.0741301 
0.176481 0.515734 0.732232 0.467778 0.0751085 
0.292763 0.782955 0.00397487 0.258621 0.664898 
0.375322 0.0393509 0.123725 0.467518 0.436399 
0.828303 0.586341 0.712425 0.190556 0.590642 
0.594917 0.307011 0.446621 0.669093 0.491718 
0.931492 0.969618 0.170643 0.579216 0.955827 
0.641701 0.0931382 0.635967 0.789329 0.517255 
0.858566 0.687457 0.398316 0.819026 0.545274 
0.26032 0.921441 0.14448 0.558983 0.563792 
0.856584 0.0567453 0.93648 0.578237 0.2678 
0.529176 0.504364 0.665063 0.224544 0.162305 
0.249087 0.0916783 0.387776 0.940706 0.298037 
0.283083 0.982354 0.900875 0.912428 0.522186 
0.648522 0.955534 0.0405984 0.237497 0.0110242 
0.875519 0.782941 0.985306 0.545181 0.172544 
0.526761 0.024097 0.256213 0.938762 0.240642 
0.826872 0.540021 0.360043 0.709184 0.538993 
0.199596 0.653965 0.686753 0.534114 0.994935 
0.829875 0.744833 0.716521 0.27666 0.438499 
0.784631 0.210406 0.663087 0.789875 0.893463 
0.356965 0.16176 0.378921 0.596538 0.568328 
0.606008 0.52302 0.785918 0.131364 0.803166 
0.57367 0.627524 0.371508 0.0509205 0.735522 
0.525793 0.332932 0.548125 0.413205 0.262126 
0.753891 0.366945 0.428102 0.252885 0.530757 
0.0401548 0.144319 0.808085 0.412995 0.275137 
0.422769 0.890315 0.391444 0.469668 0.0651079 
0.916816 0.0866103 0.895458 0.805638 0.316642 
0.310076 0.11978 0.19601 0.82034 0.132352 
0.319891 0.800242 0.634138 0.65361 0.534506 
0.344701 0.134222 0.841806 0.57317 0.450996 
0.719188 0.695624 0.848111 0.549054 0.688217 
0.736838 0.332393 0.435177 0.163417 0.875845 
0.646961 0.0325017 0.664773 0.175087 0.484078 
0.342707 0.782133 0.3411 0.765377 0.49433 
0.759531 0.800833 0.178481 0.555105 0.361037 
0.46526 0.781002 0.265213 0.0982444 0.0900058 
0.8842 0.938927 0.418169 0.504092 0.280776 
0.18967 0.174613 0.511193 0.267184 0.706469 
0.582062 0.117492 0.780757 0.705891 0.730689 
0.733993 0.771002 0.00800831 0.517654 0.731471 
0.816908 0.118314 0.293288 0.202507 0.76685 
0.165753 0.209831 0.437465 0.728813 0.388466 
0.479373 0.225939 0.347987 0.314798 0.688041 
0.773059 0.127094 0.410349 0.454403 0.371153 
0.273401 0.145477 0.383598 0.184536 0.916888 
0.683801 0.0461068 0.590336 0.165874 0.470685 
0.516204 0.480979 0.891092 0.0554657 0.892189 
0.922815 0.00708317 0.842344 0.112948 0.99206 
0.521522 0.256894 0.818389 0.0771545 0.171064 
0.766728 0.397669 0.499491 0.019746 0.291091 
0.853741 0.728534 0.85137 0.151921 0.443677 
0.549176 0.444408 0.561462 0.884981 0.100787 
0.986107 0.104406 0.561443 0.713622 0.585769 
0.793282 0.841102 0.594323 0.255418 0.491769 
0.956587 0.546014 0.00406838 0.996449 0.558208 
0.904882 0.0425868 0.972553 0.380573 0.193814 
0.247389 0.971625 0.405415 0.751353 0.32948 
0.870167 0.856038 0.149469 0.147469 0.178326 
0.122612 0.507144 0.995909 0.920026 0.936622 
0.745945 0.350108 0.0128701 0.76738 0.35685 
0.530818 0.995262 0.0197848 0.494799 0.11678 
0.293928 0.0725122 0.927237 0.191319 0.718971 
0.16803 0.575404 0.795332 0.0873884 0.151834 
0.578647 0.687997 0.68908 0.548895 0.0851342 
0.0309512 0.18132 0.977839 0.612184 0.00518417 
0.417424 0.375317 0.0335915 0.915977 0.821354 
0.182645 0.841957 0.446178 0.0180848 0.0321756 
0.909361 0.795171 0.707577 0.900826 0.66195 
0.614602 0.851285 0.958496 0.178723 0.0954943 
0.391406 0.412393 0.583408 0.493265 0.0968206 
0.341521 0.301875 0.166294 0.355887 0.360022 
0.624957 0.682486 0.82587 0.892548 0.556469 
0.0538299 0.77726 0.252908 0.240611 0.42436 
0.414485 0.945221 0.747439 0.603014 0.502049 
0.499874 0.334129 0.969287 0.302391 0.838874 
0.609892 0.289007 0.772045 0.635463 0.0404989 
0.698378 0.699478 0.937973 0.939577 0.762139 
0.128018 0.927982 0.686629 0.277268 0.581694 
0.899041 0.90388 0.210824 0.420834 0.843727 
0.488384 0.792296 0.87951 0.47794 0.70625 
0.188984 0.938418 0.650642 0.0584156 0.40377 
0.4087 0.240038 0.218079 0.32024 0.681228 
0.0321679 0.97792 0.579763 0.667906 0.0199642 
0.143987 0.77301 0.260698 0.195628 0.0289099 
0.237613 0.0705628 0.0371351 0.308426 0.803614 
0.0433922 0.877056 0.268364 0.167121 0.593077 
0.377127 0.645111 0.783358 0.10866 0.565927 
0.739371 0.979381 0.0018506 0.330111 0.832114 
0.564371 0.0406592 0.795299 0.24927 0.59322 
0.0913268 0.232124 0.497439 0.643783 0.488681 
0.952111 0.119957 0.586821 0.0366237 0.183275 
0.47222 0.686029 0.358774 0.767401 0.921392 
0.0904494 0.450868 0.718363 0.786601 0.500965 
0.621489 0.0428339 0.376161 0.537488 0.995557 
0.0667169 0.726225 0.344296 0.412342 0.458012 
0.147568 0.0677866 0.508038 0.146801 0.549987 
0.0602949 0.355838 0.42109 0.766075 0.199304 
0.102661 0.389901 0.12632 0.290835 0.978695 
0.264756 0.0758538 0.668171 0.36878 0.959393 
0.478194 0.946481 0.560976 0.778728 0.196873 
0.622236 0.280732 0.398319 0.459938 0.694529 
0.153987 0.55597 0.126606 0.606206 0.21481 
0.351446 0.171856 0.894969 0.550594 0.738849 
0.750446 0.613561 0.676251 0.498721 0.783079 
0.0600621 0.118534 0.217682 0.998461 0.180616 
0.317613 0.969507 0.398823 0.706565 0.829597 
0.476889 0.577416 0.42361 0.218734 0.213828 
0.97097 0.607202 0.236087 0.00224789 0.0426612 
0.452703 0.438469 0.642203 0.549275 0.120132 
0.987425 0.0483356 0.35101 0.643019 0.289204 
0.147485 0.517757 0.351042 0.742102 0.514275 
0.234823 0.100945 0.832222 0.881725 0.898222 
0.153242 0.705163 0.355953 0.463268 0.176882 
0.145582 0.660235 0.187733 0.436262 0.467305 
0.19802 0.354548 0.0798089 0.681886 0.299026 
0.346244 0.627113 0.0286651 0.945148 0.0106491 
0.173447 0.803269 0.61441 0.83565 0.198388 
0.461393 0.243722 0.0773834 0.929153 0.606883 
0.894963 0.676141 0.213181 0.200442 0.83528 
0.21728 0.928937 0.985694 0.159224 0.916028 
0.507878 0.593915 0.538986 0.126759 0.343833 
0.248171 0.437617 0.713902 0.230682 0.486044 
0.163312 0.784642 0.781766 0.226805 0.000537696 
0.0525993 0.876038 0.0546628 0.184688 0.699614 
0.033886 0.692467 0.81812 0.0717906 0.180448 
0.438634 0.806152 0.861538 0.0822376 0.167976 
0.577364 0.754541 0.697351 0.276452 0.511626 
0.0107522 0.951739 0.11164 0.985777 0.568368 
0.891057 0.88246 0.63193 0.796394 0.239738 
0.744549 0.73515 0.145872 0.292251 0.640899 
0.956484 0.0933167 0.882994 0.115645 0.367145 
0.359855 0.545633 0.264391 0.326857 0.260417 
0.956048 0.578628 0.0512879 0.511744 0.515993 
0.406764 0.917243 0.258569 0.868817 0.26922 
0.672027 0.282054 0.781898 0.655991 0.15668 
0.659767 0.288748 0.899246 0.948483 0.0206522 
0.412539 0.197451 0.682342 0.579478 0.0892815 
0.768009 0.459665 0.568856 0.0474858 0.458586 
0.959872 0.929204 0.417693 0.807513 0.761783 
0.297668 0.0983627 0.541012 0.804276 0.573202 
0.195253 0.851256 0.903882 0.631468 0.83136 
0.20222 0.0449964 0.972511 0.358705 0.79676 
0.107856 0.341504 0.516243 0.163641 0.980249 
0.455435 0.0101585 0.524219 0.787965 0.308425 
0.256469 0.0342615 0.882316 0.744434 0.16091 
0.508681 0.820176 0.895493 0.814799 0.795219 
0.809254 0.373899 0.432819 0.510289 0.517802 
0.89268 0.477465 0.0206016 0.424118 0.533209 
0.0367478 0.948035 0.986941 0.854485 0.989464 
0.984935 0.285807 0.975144 0.284254 0.6166 
0.66718 0.906348 0.537899 0.943736 0.783852 
0.005851 0.183526 0.796143 0.299963 0.0595261 
0.618984 0.272798 0.194231 0.869505 0.55205 
0.525139 0.0142286 0.72509 0.496291 0.554336 
0.566996 0.176921 0.567019 0.0387704 0.422852 
0.16862 0.654068 0.929211 0.0268147 0.780293 
0.43235 0.0839129 0.538668 0.971903 0.615203 
0.0226686 0.040288 0.954339 0.187706 0.675232 
0.572628 0.0707528 0.342149 0.059288 0.433415 
0.860214 0.240502 0.32399 0.961095 0.29376 
0.794205 0.859405 0.670955 0.898774 0.525056 
0.414404 0.568166 0.228592 0.421223 0.77119 
0.208174 0.86024 0.0570228 0.355694 0.348406 
0.585493 0.145386 0.71011 0.822742 0.421407 
0.144812 0.711861 0.167238 0.379678 0.197829 
0.898227 0.956142 0.814668 0.355275 0.0925807 
0.597466 0.186907 0.727406 0.57797 0.174449 
0.846293 0.367793 0.210553 0.0273735 0.439971 
0.850932 0.920127 0.746921 0.580732 0.191782 
0.703629 0.0812405 0.307394 0.06619 0.326105 
0.764838 0.830557 0.1547 0.640347 0.672771 
0.342615 0.880726 0.323612 0.0648318 0.581566 
0.955186 0.177872 0.627799 0.68505 0.774096 
0.427039 0.617932 0.416313 0.623819 0.300379 
0.185332 0.847996 0.426111 0.62184 0.75065 
0.738123 0.0428867 0.460148 0.76711 0.393049 
0.853275 0.257774 0.996053 0.502124 0.602453 
0.895033 0.67546 0.449028 0.84137 0.117823 
0.936448 0.77828 0.764242 0.222366 0.108507 
0.209459 0.815676 0.941666 0.668515 0.649713 
0.0588234 0.386515 0.443462 0.601025 0.169432 
0.932617 0.479757 0.88059 0.504044 0.782466 
0.159029 0.335485 0.920791 0.0955392 0.205089 
0.792848 0.613837 0.865107 0.616117 0.109082 
0.825427 0.560922 0.600394 0.119662 0.433696 
0.465592 0.129416 0.0218784 0.732113 0.0717806 
0.8792 0.836042 0.513632 0.375506 0.359723 
0.296793 0.231867 0.963802 0.0580065 0.244318 
0.591956 0.791772 0.601763 0.933702 0.602333 
0.85953 0.851869 0.405862 0.161946 0.0487921 
0.854853 0.890495 0.222748 0.275597 0.980024 
0.390677 0.638725 0.462796 0.85893 0.973249 
0.950549 0.268486 0.541547 0.0668986 0.215455 
0.943321 0.0471561 0.836336 0.557945 0.0216786 
0.641251 0.917856 0.986514 0.263127 0.372579 
0.420773 0.833131 0.780586 0.806243 0.865278 
0.0607529 0.279023 0.78437 0.37236 0.438682 
0.26753 0.482017 0.168682 0.37604 0.788847 
0.0498273 0.332588 0.636468 0.0367092 0.0491766 
0.960098 0.413235 0.230294 0.538292 0.547755 
0.546945 0.349945 0.916039 0.644596 0.557526 
0.143172 0.692339 0.120283 0.462989 0.600451 
0.958203 0.373403 0.590993 0.187136 0.85847 
0.48402 0.587674 0.862913 0.865106 0.413196 
0.882869 0.537727 0.415552 0.540722 0.538852 
0.146377 0.116123 0.543573 0.681047 0.815474 
0.984795 0.128092 0.377875 0.922096 0.394239 
0.953328 0.604557 0.723466 0.206811 0.142223 
0.734019 0.849771 0.566615 0.229858 0.814168 
0.532244 0.638509 0.921517 0.40331 0.281959 
0.373181 0.475249 0.389498 0.313729 0.929235 
0.819445 0.679911 0.896117 0.418999 0.254388 
0.106543 0.937112 0.617888 0.528595 0.783991 
0.632984 0.957949 0.362199 0.457296 0.505295 
0.156758 0.0929407 0.88458 0.602733 0.033609 
0.28023 0.771785 0.934135 0.91391 0.659495 
0.198778 0.343298 0.485221 0.850223 0.934422 
0.00837144 0.707133 0.162531 0.341247 0.077516 
0.249161 0.638832 0.84828 0.252005 0.94767 
0.251593 0.918287 0.890459 0.812148 0.600867 
0.124899 0.764487 0.651931 0.75988 0.645672 
0.391569 0.367852 0.453521 0.910294 0.93367 
0.700527 0.575387 0.239483 0.649222 0.829524 
0.954526 0.150176 0.315228 0.85282 0.327014 
0.655136 0.57598 0.464039 0.49969 0.65645 
0.61168 0.126502 0.468371 0.117032 0.814087 
0.0972412 0.524553 0.476029 0.687407 0.519947 
0.978754 0.922598 0.465785 0.792318 0.823409 
0.821104 0.221435 0.143281 0.489912 0.824827 
0.824525 0.833583 0.751946 0.961957 0.810105 
0.900963 0.861276 0.256616 0.859041 0.471835 
0.867454 0.794482 0.910415 0.865851 0.679306 
0.14722 0.395235 0.767768 0.165223 0.974505 
0.0581638 0.873075 0.103416 0.722895 0.742907 
0.976303 0.743206 0.612322 0.80488 0.561299 
0.0786321 0.469733 0.749396 0.626083 0.321563 
0.255438 0.594498 0.151617 0.520382 0.93965 
0.460306 0.547201 0.231245 0.584181 0.280795 
0.403688 0.538149 0.297222 0.608499 0.535204 
0.905357 0.147758 0.143707 0.031572 0.517317 
0.437976 0.176121 0.0670123 0.398326 0.879862 
0.829469 0.803244 0.0359833 0.651848 0.739186 
0.191473 0.976622 0.0683502 0.0876347 0.809055 
0.0776095 0.870744 0.815905 0.912652 0.420152 
0.664336 0.706888 0.668666 0.145418 0.326809 
0.0921875 0.960876 0.872563 0.308121 0.533137 
0.223844 0.739892 0.000738407 0.387342 0.760653 
0.83108 0.917061 0.878488 0.84555 0.701112 
0.33689 0.170172 0.268198 0.0581221 0.340517 
0.623032 0.875839 0.341556 0.943442 0.168079 
0.188297 0.412528 0.815546 0.260291 0.384641 
0.270372 0.101942 0.135465 0.0044138 0.619999 
0.965108 0.583294 0.22588 0.545217 0.636519 
0.227823 0.533059 0.94485 0.341535 0.844818 
0.234046 0.872862 0.846148 0.511736 0.646419 
0.717302 0.799434 0.95458 0.603147 0.87582 
0.101781 0.0371134 0.874814 0.848565 0.605801 
0.424533 0.666089 0.170508 0.153523 0.824248 
0.747137 0.0777788 0.0540067 0.803538 0.418838 
0.674869 0.459691 0.0990833 0.0498503 0.0524629 
0.345208 0.446655 0.139125 0.578207 0.342381 
0.342617 0.592831 0.0699158 0.395245 0.365796 
0.390101 0.761418 0.128697 0.302404 0.411654 
0.832172 0.434713 0.872279 0.724471 0.397909 
0.498345 0.294963 0.670713 0.0849328 0.124529 
0.34618 0.924412 0.799298 0.955159 0.00641991 
0.877256 0.0855478 0.509558 0.646849 0.400647 
0.272899 0.403054 0.432947 0.795469 0.758182 
0.937751 0.486043 0.118759 0.784271 0.817278 
0.929332 0.667325 0.452228 0.746796 0.0545436 
0.333228 0.68627 0.354813 0.269049 0.694877 
0.530247 0.384849 0.260707 0.290039 0.182736 
0.266283 0.463979 0.174389 0.61923 0.468368 
0.375756 0.458227 0.783046 0.891845 0.960518 
0.827812 0.634489 0.530689 0.55638 0.351402 
0.167959 0.253972 0.643093 0.0825984 0.264183 
0.986905 0.726205 0.729846 0.159408 0.743616 
0.751219 0.347321 0.961382 0.354396 0.732868 
0.877086 0.199218 0.586244 0.37114 0.71176 
0.593954 0.539113 0.45915 0.805635 0.467332 
0.0249671 0.209033 0.515755 0.900117 0.679089 
0.788925 0.717468 0.482379 0.96903 0.520995 
0.916796 0.342609 0.195052 0.805997 0.991552 
0.0113758 0.242626 0.0472569 0.336717 0.944671 
0.498076 0.566912 0.978947 0.0333019 0.281506 
0.048938 0.999064 0.478079 0.27279 0.815041 
0.787486 0.475394 0.681338 0.451725 0.903369 
0.718884 0.762446 0.857388 0.842576 0.531 
0.707773 0.352319 0.317439 0.773446 0.693593 
0.544401 0.851334 0.378768 0.529977 0.591928 
0.835354 0.436397 0.935122 0.295469 0.20071 
0.64074 0.805661 0.585618 0.283914 0.0252203 
0.986027 0.436728 0.195139 0.950657 0.923413 
0.0456101 0.4297 0.706592 0.149669 0.265836 
0.369382 0.962008 0.186864 0.146462 0.213825 
