300 5
0.185034 0.112634 0.0609118 0.159623 0.670881 
0.410711 0.544505 0.367485 0.418827 0.433337 
0.618653 0.456319 0.840922 0.205301 0.511527 
0.847562 0.202369 0.661599 0.0793241 0.0961922 
0.898026 0.266539 0.135654 0.109366 0.477032 
0.183237 0.392722 0.242188 0.71966 0.893001 
0.629445 0.0961379 0.856185 0.661938 0.66257 
0.553152 0.0961153 0.0247666 0.393853 0.61278 
0.339506 0.798083 0.611074 0.359196 0.509292 
0.73205 0.177364 0.00277067 0.69645 0.675985 
0.881135 0.863124 0.565572 0.556338 0.317077 
0.330212 0.0103966 0.850959 0.527435 0.508491 
0.744782 0.351548 0.551141 0.79715 0.804815 
0.0844775 0.291733 0.900056 0.630808 0.0480491 
0.124081 0.933645 0.64121 0.640891 0.85124 
0.707244 0.214433 0.372902 0.52212 0.460192 
0.0368184 0.715048 0.0649412 0.0822176 0.134431 
0.269974 0.80129 0.487536 0.100434 0.234915 
0.995173 0.256017 0.565261 0.788644 0.845424 
0.970706 0.547907 0.715653 0.102341 0.299139 
0.969885 0.0836977 0.488301 0.387494 0.00300774 
0.507784 0.748516 0.894717 0.135322 0.916442 
0.421907 0.212808 0.90845 0.123998 0.741595 
0.833346 0.24618 0.722293 0.832035 0.509587 
0.821813 0.460838 0.195022 0.210185 0.731916 
0.964423 0.708202 0.109026 0.027516 0.352999 
0.329895 0.0697517 0.57722 0.0779291 0.416578 
0.681765 0.322534 0.937231 0.327874 0.129106 
0.800083 0.881433 0.396769 0.789706 0.539656 
0.559019 0.00382758 0.156104 0.050569 0.0129067 
0.260109 0.485288 0.778604 0.0867806 0.588193 
0.440672 0.256087 0.366665 0.252682 0.0869049 
0.683746 0.910184 0.784803 0.754409 0.228446 
0.164227 0.602878 0.977486 0.0137561 0.954704 
0.823137 0.638896 0.276381 0.610557 0.208013 
0.675489 0.161688 0.344784 0.231652 0.313067 
0.711191 0.658806 0.197067 0.164104 0.9091 
0.157911 0.274357 0.607187 0.992437 0.0565888 
0.975457 0.141555 0.974846 0.0857945 0.397259 
0.914238 0.406386 0.853283 0.898182 0.795895 
0.269341 0.743227 0.951987 0.321897 0.665845 
0.7322 0.739303 0.752521 0.0251903 0.940673 
0.330496 0.916515 0.949972 0.973774 0.826209 
0.594127 0.704761 0.792272 0.762571 0.325176 
0.228564 0.847061 0.595975 0.0946127 0.0659585 
0.269103 0.372623 0.204068 0.710024 0.980194 
0.708438 0.103361 0.882885 0.22218 0.312522 
0.694649 0.470503 0.395939 0.292963 0.33151 
0.00266638 0.295545 0.802981 0.699093 0.179828 
0.158668 0.696752 0.147386 0.756679 0.777682 
0.847726 0.00567565 0.635055 0.692159 0.514935 
0.223453 0.945129 0.691025 0.282903 0.891062 
0.404071 0.790972 0.265604 0.81956 0.264289 
0.28886 0.172971 0.426838 0.695608 0.939803 
0.296563 0.295769 0.54627 0.616719 0.824839 
0.829533 0.247844 0.497497 0.937022 0.982588 
0.883857 0.280352 0.575274 0.393808 0.692016 
0.17332 0.742867 0.185633 0.740592 0.719669 
0.859678 0.483235 0.649518 0.436617 0.774181 
0.384195 0.643782 0.400599 0.583191 0.15457 
0.718284 0.68828 0.595779 0.626418 0.92398 
0.195541 0.545129 0.443636 0.652061 0.535659 
0.619571 0.328553 0.878925 0.793324 0.29625 
0.56051 0.731193 0.0624253 0.0690037 0.705922 
0.435322 0.770005 0.271346 0.101908 0.14902 
0.600228 0.652466 0.757847 0.134569 0.573283 
0.0874626 0.859788 0.388928 0.00694535 0.0271733 
0.284598 0.380621 0.271395 0.53593 0.282469 
0.61005 0.405141 0.515649 0.889226 0.406018 
0.194792 0.04632 0.882925 0.938508 0.135248 
0.305939 0.153148 0.845462 0.251778 0.269616 
0.380597 0.706806 0.674492 0.540488 0.653324 
0.643499 0.179166 0.289132 0.891626 0.991492 
0.26484 0.15742 0.47267 0.128085 0.981118 
0.0757129 0.344317 0.858016 0.753515 0.246478 
0.184056 0.262006 0.534655 0.656684 0.06559 
0.212634 0.0215167 0.46042 0.778141 0.141055 
0.635894 0.728744 0.974449 0.186788 0.311862 
0.417157 0.080741 0.492083 0.519182 0.130799 
0.564703 0.347659 0.718645 0.941637 0.502765 
0.497868 0.0667521 0.708651 0.905881 0.802372 
0.432076 0.895945 0.00894765 0.426438 0.89218 
0.530974 0.522797 0.213057 0.19063 0.343243 
0.686927 0.717573 0.684382 0.521066 0.801678 
0.53768 0.320622 0.866615 0.466433 0.895294 
0.865956 0.664519 0.281622 0.0206261 0.650746 
0.331535 0.346711 0.570129 0.914622 0.883818 
0.626244 0.20014 0.401553 0.548286 0.826231 
0.832495 0.321552 0.6198 0.278934 0.859711 
0.955764 0.938616 0.418866 0.0354514 0.354199 
0.380552 0.25748 0.308818 0.584667 0.0854167 
0.222591 0.294058 0.735585 0.657626 0.186945 
0.257071 0.44552 0.670151 0.801809 0.685494 
0.413016 0.576985 0.148217 0.952057 0.688373 
0.576264 0.150879 0.911537 0.146736 0.308501 
0.760759 0.766996 0.0242116 0.875195 0.344524 
0.699905 0.741212 0.15006 0.756759 0.576627 
0.343291 0.984388 0.453098 0.921453 0.277281 
0.568686 0.427147 0.461364 0.565025 0.403352 
0.126333 0.664915 0.783397 0.415464 0.0295902 
0.819433 0.0152785 0.496203 0.399757 0.491224 
0.346933 0.299683 0.925731 0.270095 0.742981 
0.814285 0.138221 0.816988 0.00309152 0.49179 
0.529756 0.160338 0.488678 0.100586 0.142355 
0.87979 0.267042 0.461743 0.406547 0.761588 
0.859946 0.326398 0.353163 0.122645 0.312922 
0.833276 0.600341 0.307386 0.930164 0.773299 
0.412271 0.710204 0.116419 0.0168482 0.215566 
0.907499 0.091599 0.31668 0.955601 0.74408 
0.321097 0.551849 0.135194 0.513255 0.122427 
0.7103 0.652043 0.0655872 0.547291 0.481958 
0.483544 0.286775 0.0217744 0.311082 0.00822115 
0.642053 0.245465 0.0483923 0.841455 0.619443 
0.233508 0.120721 0.654511 0.758049 0.312756 
0.310438 0.224267 0.714202 0.454108 0.478788 
0.400296 0.530945 0.221139 0.743079 0.942491 
0.257972 0.453449 0.520385 0.718903 0.376887 
0.530628 0.0397863 0.383057 0.769823 0.453518 
0.31336 0.388468 0.0490453 0.0970872 0.519492 
0.296756 0.784663 0.42042 0.545961 0.213864 
0.146535 0.736226 0.704332 0.875944 0.338154 
0.939178 0.197133 0.478022 0.675972 0.498977 
0.538345 0.89889 0.532315 0.702135 0.227179 
0.270954 0.96864 0.269206 0.986331 0.792827 
0.811661 0.371473 0.975468 0.235214 0.37534 
0.733883 0.639388 0.736962 0.927201 0.588487 
0.425773 0.131034 0.0567371 0.801882 0.245651 
0.259566 0.371592 0.494596 0.431761 0.697999 
0.985576 0.0726803 0.103494 0.0349591 0.599987 
0.338336 0.835459 0.875676 0.733678 0.541053 
0.319725 0.586121 0.82141 0.915251 0.123926 
0.459202 0.558048 0.821524 0.390004 0.73586 
0.0843895 0.127214 0.840304 0.4351 0.302727 
0.65581 0.302555 0.597841 0.83028 0.707162 
0.879604 0.888435 0.0839554 0.394818 0.590871 
0.334185 0.671081 0.931482 0.603012 0.407299 
0.580176 0.345806 0.762387 0.799191 0.369185 
0.0133546 0.0254674 0.553057 0.26732 0.535157 
0.994539 0.0451053 0.39021 0.0213478 0.00216779 
0.749281 0.976352 0.304037 0.946146 0.396318 
0.00613326 0.507964 0.186265 0.172414 0.475475 
0.112202 0.307444 0.784801 0.125421 0.426637 
0.13588 0.419597 0.93376 0.352384 0.331469 
0.889609 0.151171 0.313415 0.212259 0.700938 
0.592098 0.904857 0.732929 0.995784 0.336743 
0.512655 0.122388 0.417952 0.419851 0.570862 
0.862236 0.616999 0.882137 0.637545 0.443336 
0.421397 0.295878 0.0185754 0.976861 0.777764 
0.349198 0.867371 0.0312679 0.361464 0.718715 
0.327232 0.682032 0.891225 0.662462 0.683102 
0.974981 0.109905 0.875311 0.314089 0.274837 
0.762973 0.54836 0.61407 0.687275 0.33752 
0.824985 0.875469 0.648054 0.970503 0.29437 
0.675636 0.973621 0.00594762 0.0936734 0.999594 
0.274228 0.448936 0.727125 0.372293 0.300266 
0.862646 0.107205 0.129675 0.438238 0.202827 
0.142258 0.811142 0.263615 0.714875 0.467928 
0.715707 0.98052 0.523007 0.605542 0.663641 
0.348169 0.998798 0.491081 0.72679 0.304833 
0.650051 0.304807 0.559127 0.967332 0.730777 
0.285965 0.307833 0.748618 0.844421 0.744654 
0.975221 0.852275 0.539741 0.873969 0.500339 
0.571758 0.585488 0.690339 0.8921 0.597931 
0.818363 0.860509 0.712919 0.42956 0.122419 
0.57043 0.984305 0.632526 0.271998 0.500229 
0.646625 0.162264 0.427844 0.572732 0.0431223 
0.460882 0.453052 0.852201 0.215196 0.193624 
0.574937 0.279769 0.800067 0.619257 0.819912 
0.025775 0.0450331 0.055706 0.833219 0.785064 
0.342219 0.729795 0.132107 0.90912 0.439178 
0.302954 0.597542 0.258293 0.765112 0.477083 
0.541063 0.168089 0.974896 0.312032 0.928658 
0.711021 0.631251 0.904208 0.750251 0.782212 
0.427446 0.0955473 0.749342 0.471175 0.132321 
0.297601 0.738586 0.169661 0.701822 0.259976 
0.995695 0.289327 0.986845 0.275679 0.813831 
0.289986 0.0370644 0.65114 0.965114 0.972649 
0.862896 0.367246 0.30052 0.921625 0.33647 
0.530514 0.16944 0.987962 0.799176 0.37724 
0.379479 0.765317 0.674184 0.210909 0.540865 
0.464023 0.341066 0.000246662 0.23486 0.95858 
0.553001 0.520602 0.908415 0.996951 0.678359 
0.668509 0.307517 0.50466 0.153452 0.167537 
0.297484 0.387313 0.758795 0.542852 0.614808 
0.815031 0.275957 0.622187 0.201623 0.245703 
0.413255 0.999786 0.446854 0.358573 0.717763 
0.124379 0.654607 0.290942 0.741002 0.995773 
0.652541 0.488537 0.581256 0.475686 0.892812 
0.755455 0.652314 0.0369229 0.596619 0.693345 
0.407351 0.471385 0.382443 0.847993 0.366139 
0.527773 0.36992 0.377422 0.0708198 0.241626 
0.79551 0.215845 0.972437 0.943961 0.40384 
0.790766 0.707461 0.733448 0.685037 0.981056 
0.971984 0.334483 0.370482 0.0325331 0.603538 
0.627073 0.162991 0.482458 0.0385416 0.342053 
0.709633 0.906587 0.900546 0.504414 0.934931 
0.610366 0.424843 0.44648 0.778383 0.212818 
0.129114 0.58382 0.785404 0.838318 0.140879 
0.731152 0.211853 0.582315 0.957669 0.902934 
0.680766 0.216156 0.209161 0.420585 0.105106 
0.00909067 0.222237 0.677233 0.279081 0.715688 
0.578788 0.142676 0.69459 0.17569 0.234802 
0.543044 0.523271 0.638135 0.616137 0.444914 
0.0537053 0.869709 0.737781 0.851974 0.710945 
0.0693797 0.0806861 0.558033 0.967292 0.984411 
0.656759 0.533436 0.0056092 0.894146 0.168709 
0.959381 0.315548 0.152356 0.567375 0.980992 
0.35847 0.470024 0.758733 0.580866 0.775463 
0.496172 0.376042 0.0855566 0.275698 0.924223 
0.344589 0.862868 0.678331 0.592403 0.0823004 
0.214553 0.457709 0.392983 0.265594 0.930799 
0.894493 0.173782 0.679526 0.776081 0.101482 
0.272072 0.239942 0.278058 0.0558343 0.949443 
0.47626 0.334197 0.762532 0.377146 0.331093 
0.85501 0.916858 0.452107 0.541672 0.548981 
0.341055 0.942554 0.563314 0.787698 0.331433 
0.124458 0.588599 0.372546 0.780047 0.805378 
0.703296 0.673326 0.64737 0.519164 0.76987 
0.602444 0.105483 0.30905 0.259016 0.524898 
0.194231 0.202687 0.343546 0.120014 0.68653 
0.85054 0.304901 0.487856 0.67632 0.358342 
0.164408 0.877803 0.309464 0.292869 0.601008 
0.271237 0.949128 0.555411 0.378212 0.143786 
0.000234245 0.267329 0.900331 0.588491 0.241006 
0.294835 0.0988792 0.346448 0.346487 0.904802 
0.140191 0.494769 0.908896 0.147418 0.486869 
0.586324 0.375166 0.0906344 0.90389 0.949292 
0.706569 0.0676346 0.392154 0.41405 0.563011 
0.623687 0.736356 0.925256 0.267869 0.851411 
0.0706673 0.225893 0.157531 0.138205 0.772328 
0.0252214 0.22375 0.112487 0.732757 0.496393 
0.239331 0.389229 0.49393 0.197861 0.488797 
0.371346 0.474317 0.134123 0.845745 0.4246 
0.693261 0.584427 0.18675 0.330367 0.365974 
0.273762 0.422032 0.187826 0.102813 0.505735 
0.861684 0.968416 0.429114 0.488433 0.514451 
0.958149 0.121433 0.0547677 0.176506 0.507257 
0.434056 0.315601 0.267989 0.0580949 0.973633 
0.332998 0.777267 0.269213 0.4039 0.0420809 
0.226756 0.139162 0.846327 0.945233 0.107015 
0.400737 0.0388465 0.00824489 0.801119 0.792213 
0.826808 0.578879 0.561299 0.549959 0.0180987 
0.236904 0.136691 0.331413 0.392572 0.510721 
0.273275 0.989265 0.876728 0.287721 0.333364 
0.692633 0.46964 0.999893 0.00488803 0.397798 
0.748826 0.882556 0.0814179 0.020662 0.501877 
0.90846 0.804172 0.683328 0.0251389 0.762303 
0.0568948 0.326079 0.385847 0.736978 0.107869 
0.483863 0.945789 0.713018 0.0286211 0.605755 
0.972323 0.145341 0.798358 0.8172 0.645397 
0.884679 0.545324 0.324011 0.720208 0.683703 
0.354376 0.181919 0.336436 0.198815 0.481879 
0.182485 0.797183 0.708065 0.287657 0.648877 
0.365827 0.749977 0.623606 0.763202 0.841977 
0.689031 0.669145 0.73375 0.97174 0.177752 
0.534088 0.355905 0.334505 0.0749583 0.818133 
0.859585 0.960973 0.782066 0.288858 0.483551 
0.932592 0.132139 0.132868 0.0422446 0.945457 
0.916253 0.383794 0.109636 0.806374 0.00657601 
0.875027 0.471695 0.0218054 0.538844 0.785145 
0.86268 0.919064 0.442757 0.954765 0.48008 
0.430729 0.110377 0.618444 0.071354 0.817128 
0.622684 0.755668 0.336975 0.492251 0.535329 
0.619218 0.0868621 0.643734 0.494046 0.583756 
0.932879 0.662573 0.52202 0.137789 0.198663 
0.206868 0.596496 0.747148 0.447554 0.732459 
0.261979 0.47135 0.750359 0.538871 0.858594 
0.876764 0.59615 0.215485 0.0807103 0.633055 
0.933613 0.146943 0.708981 0.775012 0.221475 
0.939827 0.282268 0.217501 0.0979405 0.702195 
0.0416965 0.700944 0.825264 0.96755 0.584329 
0.414059 0.612093 0.909562 0.569643 0.256144 
0.985788 0.574026 0.652075 0.42536 0.0202097 
0.817097 0.996552 0.200351 0.62082 0.381211 
0.243065 0.936619 0.623369 0.181266 0.704215 
0.474685 0.78064 0.519949 0.274352 0.744324 
0.941041 0.667047 0.739967 0.190437 0.856669 
0.224222 0.616051 0.252451 0.354925 0.163968 
0.204552 0.460451 0.949853 0.0948381 0.0187077 
0.733873 0.0360928 0.584836 0.761696 0.00222062 
0.404128 0.183057 0.760682 0.487924 0.068046 
0.912163 0.546711 0.828099 0.0935153 0.893188 
0.00129878 0.97029 0.292157 0.241609 0.227 
0.675929 0.503524 0.393429 0.719205 0.684035 
0.855348 0.911925 0.658688 0.715376 0.694216 
0.921845 0.668595 0.88192 0.181153 0.468894 
0.600079 0.70505 0.0694634 0.54982 0.448796 
0.259509 0.742212 0.537252 0.176898 0.14491 
0.109305 0.191969 0.140113 0.849137 0.604414 
0.442937 0.672456 0.464717 0.984873 0.372775 
0.698684 0.185649 0.770062 0.534872 0.160092 
0.876523 0.348572 0.17839 0.886268 0.576468 
0.450208 0.764384 0.581591 0.0242156 0.492147 
0.802859 0.596935 0.328615 0.0372744 0.98781 
0.0181827 0.954373 0.247386 0.926012 0.340307 
0.0218471 0.853134 0.861149 0.37863 0.901949 
0.295954 0.220742 0.723738 0.955849 0.748729 
0.5634 0.434542 0.639366 0.514582 0.76417 
0.813117 0.943987 0.703805 0.876104 0.877087 
0.0485342 0.941726 0.551676 0.560527 0.901582 
