200 5
0.674662 0.922656 0.531531 0.986466 0.543751 
0.456243 0.157537 0.549121 0.80804 0.752563 
0.692721 0.998124 0.107068 0.982443 0.403671 
0.221363 0.0236655 0.796452 0.407672 0.224609 
0.514945 0.882032 0.238829 0.985943 0.51572 
0.121088 0.845652 0.942619 0.959208 0.946707 
0.837809 0.579412 0.371203 0.694284 0.90356 
0.268097 0.201179 0.604439 0.783809 0.748077 
0.541742 0.371074 0.384194 0.800066 0.39422 
0.225765 0.024274 0.688415 0.198175 0.436051 
0.467612 0.673679 0.726062 0.330498 0.481553 
0.696576 0.0977402 0.659477 0.0443906 0.116854 
0.913486 0.232848 0.993349 0.0251432 0.0262265 
0.936337 0.374557 0.555278 0.892813 0.848591 
0.769894 0.172027 0.541612 0.593628 0.568346 
0.310389 0.520681 0.565508 0.14274 0.363086 
0.545195 0.623705 0.993529 0.145627 0.625672 
0.585507 0.254026 0.261942 0.482074 0.372776 
0.453019 0.395245 0.18206 0.167832 0.469541 
0.150573 0.828382 0.94795 0.198243 0.130523 
0.275125 0.919051 0.858941 0.940764 0.653217 
0.967492 0.0130184 0.605788 0.142619 0.044033 
0.687426 0.633048 0.00957548 0.867347 0.07937 
0.345799 0.699681 0.920702 0.0723603 0.211862 
0.207168 0.704563 0.0474447 0.51827 0.296375 
0.0405716 0.400544 0.186553 0.661994 0.587275 
0.460708 0.228667 0.598157 0.827449 0.601876 
0.152636 0.18366 0.144295 0.264872 0.434797 
0.390318 0.565884 0.777713 0.869508 0.41739 
0.358031 0.600236 0.125218 0.587271 0.284912 
0.0832213 0.322057 0.335111 0.342614 0.0733763 
0.383239 0.924506 0.704118 0.536405 0.344862 
0.316147 0.539059 0.179954 0.232981 0.198883 
0.754814 0.293668 0.131443 0.165482 0.553362 
0.927347 0.264815 0.208098 0.982997 0.831256 
0.663335 0.397179 0.483735 0.962326 0.176622 
0.426855 0.74563 0.997111 0.617468 0.853114 
0.244782 0.996534 0.832286 0.412988 0.984589 
0.54592 0.536984 0.574074 0.142196 0.0208308 
0.380684 0.352115 0.218962 0.508874 0.990637 
0.476289 0.920494 0.872394 0.508032 0.782379 
0.115955 0.0121611 0.380344 0.092313 0.300506 
0.270644 0.767734 0.154272 0.22604 0.764835 
0.619097 0.997128 0.606639 0.055092 0.858617 
0.87906 0.542465 0.452603 0.115834 0.934284 
0.171182 0.556424 0.628953 0.594997 0.878775 
0.0272424 0.767174 0.941254 0.424706 0.193771 
0.283807 0.687963 0.171206 0.537753 0.510474 
0.9309 0.726258 0.382941 0.181662 0.692392 
0.278915 0.228128 0.239336 0.549376 0.721154 
0.824041 0.837409 0.8401 0.969255 0.366754 
0.0965368 0.0603323 0.419812 0.39956 0.789505 
0.899629 0.175646 0.293102 0.911854 0.361209 
0.43844 0.0112953 0.719144 0.631842 0.607357 
0.231418 0.0946023 0.094707 0.339928 0.37867 
0.574125 0.132165 0.395328 0.605271 0.0394614 
0.276162 0.982794 0.445791 0.731141 0.360436 
0.425493 0.752628 0.890272 0.138267 0.515269 
0.722709 0.563928 0.78939 0.427246 0.10198 
0.0131319 0.880114 0.412935 0.839046 0.0353902 
0.96852 0.891452 0.110244 0.951342 0.344499 
0.264963 0.610698 0.121516 0.912171 0.28318 
0.368709 0.590575 0.771777 0.751111 0.981233 
0.871391 0.194845 0.183566 0.107324 0.371719 
0.687772 0.176365 0.16289 0.652618 0.442042 
0.531056 0.0449574 0.988669 0.00378297 0.335652 
0.833773 0.574166 0.0711733 0.441268 0.0657866 
0.399983 0.765289 0.474166 0.0231162 0.513686 
0.463657 0.345599 0.583524 0.262941 0.828632 
0.595651 0.752913 0.064828 0.625981 0.377855 
0.471277 0.886836 0.558229 0.327963 0.425085 
0.638786 0.645142 0.998465 0.598045 0.117643 
0.703891 0.856821 0.542692 0.76967 0.398637 
0.190846 0.520099 0.000781064 0.408372 0.751171 
0.7517 0.15671 0.067685 0.0174827 0.833317 
0.925856 0.877011 0.833426 0.166987 0.993317 
0.179972 0.451303 0.523684 0.883284 0.459454 
0.302598 0.740786 0.000705686 0.81903 0.270531 
0.506389 0.236081 0.742653 0.353468 0.942153 
0.662393 0.740301 0.76813 0.217153 0.0417479 
0.199059 0.293676 0.519909 0.986594 0.181185 
0.497038 0.77548 0.449787 0.335036 0.0332675 
0.233485 0.844252 0.186772 0.679169 0.881497 
0.525908 0.480526 0.790288 0.566375 0.231746 
0.319741 0.799414 0.652642 0.654347 0.225147 
0.870039 0.665386 0.306549 0.535474 0.518671 
0.830948 0.398894 0.380671 0.462868 0.02253 
0.92739 0.601369 0.660868 0.964677 0.175946 
0.252818 0.0689743 0.440145 0.265404 0.64272 
0.0832185 0.0906095 0.807771 0.99647 0.607063 
0.703416 0.303354 0.578464 0.190644 0.479709 
0.685819 0.514175 0.208788 0.180781 0.539577 
0.138893 0.914322 0.284456 0.827681 0.497169 
0.892017 0.908679 0.595988 0.389786 0.786578 
0.336199 0.531177 0.545555 0.646785 0.206391 
0.725887 0.989395 0.590732 0.223434 0.502612 
0.932343 0.457003 0.4778 0.430132 0.667486 
0.707669 0.752207 0.231938 0.00137197 0.995901 
0.15669 0.948252 0.365666 0.135165 0.763716 
0.806073 0.48258 0.545007 0.394573 0.217218 
0.271369 0.900266 0.944619 0.288711 0.10217 
0.371958 0.728233 0.524508 0.776902 0.494543 
0.147218 0.0259658 0.415064 0.415872 0.433604 
0.965288 0.573199 0.350504 0.557118 0.353477 
0.332834 0.460412 0.283079 0.144513 0.072043 
0.188391 0.283988 0.787673 0.0148422 0.343744 
0.662723 0.548382 0.867178 0.854162 0.640023 
0.00763438 0.086474 0.597 0.682719 0.0030015 
0.290835 0.231777 0.390376 0.883905 0.157782 
0.274921 0.512724 0.911225 0.291226 0.805331 
0.358039 0.944954 0.0135789 0.81198 0.65905 
0.71194 0.560152 0.234388 0.394302 0.186231 
0.198727 0.244382 0.563488 0.689696 0.628043 
0.127182 0.750487 0.886249 0.336553 0.419876 
0.9999 0.857766 0.328275 0.943214 0.820863 
0.551594 0.428158 0.0247077 0.701299 0.322662 
0.984134 0.999986 0.988199 0.158963 0.288992 
0.940049 0.30998 0.452462 0.069888 0.184262 
0.31662 0.495142 0.823477 0.836206 0.926649 
0.292199 0.863559 0.211335 0.347115 0.7782 
0.0243225 0.902265 0.0697146 0.103126 0.681256 
0.0545688 0.636339 0.42774 0.311467 0.389525 
0.065906 0.830559 0.66293 0.178906 0.503174 
0.747212 0.460511 0.25114 0.265449 0.776545 
0.725871 0.711701 0.778313 0.258525 0.175041 
0.256666 0.847111 0.902228 0.683089 0.59041 
0.182988 0.318189 0.616648 0.853246 0.772411 
0.692942 0.319438 0.174131 0.761329 0.248488 
0.313651 0.384273 0.959267 0.948625 0.739416 
0.50787 0.309181 0.158357 0.072028 0.384172 
0.105045 0.975984 0.637117 0.488716 0.880941 
0.652547 0.681849 0.696476 0.0872381 0.623887 
0.916722 0.814133 0.0182293 0.380501 0.27376 
0.0294197 0.611537 0.316918 0.481197 0.872968 
0.567954 0.419016 0.846305 0.94842 0.661421 
0.18319 0.879778 0.431049 0.807596 0.207873 
0.887073 0.156418 0.599119 0.711371 0.547614 
0.332054 0.309092 0.076367 0.202033 0.943479 
0.691549 0.701734 0.612425 0.609166 0.375799 
0.603357 0.566994 0.194271 0.035838 0.349359 
0.194814 0.206153 0.682062 0.284263 0.380772 
0.493878 0.650854 0.997953 0.313855 0.262226 
0.366514 0.919758 0.869463 0.99155 0.607201 
0.667732 0.887066 0.456352 0.897862 0.44638 
0.232743 0.0981955 0.91088 0.424917 0.802169 
0.702219 0.400516 0.806558 0.21845 0.0246613 
0.384698 0.700899 0.0928988 0.723083 0.29897 
0.967799 0.856214 0.809208 0.930009 0.505388 
0.475751 0.949205 0.25205 0.182434 0.662797 
0.610218 0.35041 0.137678 0.591302 0.965209 
0.967308 0.444861 0.50576 0.182714 0.947354 
0.850868 0.636027 0.899331 0.729306 0.970344 
0.640751 0.202423 0.0660017 0.321196 0.24452 
0.962367 0.142749 0.488806 0.507922 0.465926 
0.861846 0.704491 0.644141 0.911588 0.0474111 
0.0774525 0.924035 0.235368 0.707824 0.429657 
0.48047 0.0284883 0.997869 0.420074 0.395826 
0.809381 0.168712 0.153881 0.197518 0.409539 
0.910711 0.162292 0.60586 0.748842 0.0288846 
0.402243 0.653758 0.0191744 0.350214 0.722333 
0.747989 0.436577 0.126452 0.349129 0.150575 
0.984039 0.0125119 0.408461 0.693678 0.180673 
0.783056 0.00181149 0.0908077 0.739738 0.952412 
0.645193 0.646019 0.115555 0.231777 0.408072 
0.529049 0.557121 0.632381 0.961731 0.943861 
0.78496 0.67405 0.000951064 0.28284 0.240775 
0.152965 0.0938313 0.761779 0.0350234 0.614332 
0.0666928 0.0216496 0.666547 0.340325 0.320558 
0.67553 0.926974 0.298538 0.119717 0.208519 
0.108259 0.650501 0.170606 0.410012 0.767349 
0.0282656 0.190841 0.631523 0.0850327 0.330909 
0.656409 0.906873 0.685646 0.840592 0.358972 
0.340553 0.904155 0.987624 0.780153 0.543505 
0.748577 0.0832553 0.466767 0.284784 0.875553 
0.953813 0.455539 0.0227936 0.941242 0.550891 
0.83103 0.452874 0.997623 0.00799701 0.537681 
0.987326 0.383787 0.747337 0.72147 0.0843268 
0.862037 0.370345 0.56781 0.363019 0.00250075 
0.913281 0.549777 0.882444 0.242013 0.828852 
0.444218 0.453696 0.267889 0.3348 0.257549 
0.0692892 0.447341 0.991766 0.941787 0.480068 
0.306303 0.282695 0.255309 0.355322 0.619485 
0.420181 0.819243 0.663382 0.428626 0.716459 
0.0628506 0.346682 0.600541 0.141328 0.12612 
0.704518 0.373197 0.879951 0.294538 0.950273 
0.987059 0.477933 0.924422 0.0210738 0.133437 
0.516024 0.236166 0.0242525 0.43718 0.896114 
0.159753 0.0704703 0.461213 0.962922 0.912236 
0.193798 0.944008 0.474562 0.253916 0.629036 
0.399936 0.968627 0.303939 0.76789 0.0712409 
0.283967 0.52303 0.891671 0.494906 0.0201314 
0.481744 0.297285 0.1628 0.954893 0.888813 
0.0643995 0.0930436 0.393256 0.979065 0.618265 
0.141194 0.351504 0.460264 0.656225 0.233809 
0.166463 0.284003 0.767338 0.662288 0.999801 
0.293594 0.0668377 0.517571 0.615372 0.282572 
0.0915191 0.472122 0.831074 0.924228 0.782336 
0.717955 0.69813 0.416183 0.589065 0.380553 
0.0582967 0.157762 0.15081 0.880997 0.725918 
0.156631 0.0810985 0.19608 0.905444 0.94169 
