500 5
0.498589 0.296107 0.325766 0.370872 0.104193 
0.0502195 0.461073 0.960047 0.307186 0.301939 
0.80242 0.781372 0.587145 0.630312 0.149441 
0.147808 0.531915 0.216095 0.517629 0.462482 
0.54685 0.202068 0.115016 0.952547 0.373896 
0.971271 0.037248 0.586256 0.52146 0.626407 
0.301292 0.067954 0.481172 0.905362 0.562525 
0.956939 0.396604 0.0292934 0.853353 0.713313 
0.11097 0.41615 0.707783 0.185843 0.226492 
0.779813 0.305507 0.979526 0.294676 0.351779 
0.740425 0.0856372 0.12413 0.0549119 0.426299 
0.496298 0.347922 0.76181 0.214643 0.453706 
0.957943 0.680519 0.411798 0.330528 0.571181 
0.786676 0.959367 0.682619 0.61431 0.903685 
0.417249 0.304844 0.912235 0.384204 0.8892 
0.365729 0.857925 0.247953 0.301544 0.32343 
0.820318 0.776401 0.156324 0.13597 0.493535 
0.704722 0.187842 0.874969 0.848292 0.0854521 
0.885016 0.634317 0.877149 0.578549 0.868829 
0.696879 0.740425 0.630595 0.230281 0.26224 
0.758691 0.162104 0.0048557 0.506448 0.445038 
0.982003 0.311124 0.513841 0.589397 0.689736 
0.255024 0.161843 0.497014 0.23132 0.490334 
0.97297 0.516961 0.59575 0.106676 0.317298 
0.739251 0.240823 0.871566 0.994175 0.317903 
0.938675 0.0365361 0.656729 0.381556 0.250961 
0.567068 0.00445833 0.432311 0.162464 0.717302 
0.116321 0.244223 0.460909 0.387073 0.74341 
0.464393 0.648077 0.396524 0.464631 0.417749 
0.556602 0.9127 0.804429 0.402364 0.708384 
0.893411 0.325593 0.573825 0.468584 0.571243 
0.0342014 0.880362 0.353214 0.853931 0.712901 
0.907496 0.353065 0.779904 0.223775 0.919265 
0.292345 0.53918 0.6593 0.938774 0.58288 
0.462187 0.53928 0.832996 0.481222 0.118381 
0.0106561 0.119643 0.686224 0.774102 0.120586 
0.359421 0.155989 0.354599 0.64128 0.486892 
0.551985 0.182941 0.294354 0.778005 0.308743 
0.577619 0.320981 0.511172 0.0902305 0.196816 
0.611702 0.479762 0.025064 0.598078 0.060207 
0.684361 0.381509 0.022751 0.640167 0.134552 
0.839302 0.830722 0.680301 0.84675 0.353055 
0.598606 0.000681726 0.537939 0.276692 0.885735 
0.371116 0.711498 0.79141 0.52902 0.830426 
0.838377 0.1432 0.911639 0.301743 0.510543 
0.973546 0.73224 0.872483 0.319504 0.880998 
0.866924 0.725023 0.527036 0.327767 0.996207 
0.65288 0.415183 0.393406 0.860202 0.257587 
0.237964 0.77371 0.604462 0.388064 0.0468268 
0.758817 0.735892 0.970295 0.717689 0.236133 
0.317228 0.187362 0.418744 0.082533 0.713768 
0.889882 0.714058 0.553982 0.394634 0.508374 
0.409923 0.31577 0.242816 0.397585 0.00316664 
0.21537 0.849941 0.904483 0.430148 0.545261 
0.423509 0.366256 0.592664 0.712079 0.51981 
0.240589 0.264181 0.65537 0.797219 0.45209 
0.424624 0.64146 0.155102 0.15576 0.973152 
0.413955 0.526937 0.507757 0.0453746 0.064608 
0.56613 0.129311 0.137837 0.638997 0.918894 
0.0347021 0.355838 0.122146 0.468449 0.36722 
0.00972464 0.522838 0.826812 0.410344 0.470629 
0.029595 0.00615766 0.864759 0.77869 0.943391 
0.217621 0.402395 0.8182 0.674019 0.91919 
0.0134106 0.719043 0.400142 0.932729 0.565192 
0.931453 0.676205 0.375533 0.928503 0.416141 
0.328917 0.141172 0.813814 0.460711 0.662283 
0.166484 0.0676668 0.239037 0.120979 0.786163 
0.481698 0.257312 0.886457 0.121017 0.114432 
0.294533 0.294897 0.258726 0.597807 0.146132 
0.988455 0.251469 0.259576 0.0416389 0.695222 
0.313775 0.47158 0.102833 0.306919 0.999548 
0.258848 0.683265 0.534708 0.0540909 0.813825 
0.991665 0.478391 0.316539 0.237248 0.955734 
0.0875647 0.60088 0.467321 0.931214 0.442578 
0.247751 0.489833 0.376353 0.940343 0.969681 
0.169195 0.391666 0.588247 0.764532 0.859476 
0.662349 0.0726075 0.465663 0.384503 0.124261 
0.403796 0.834678 0.189521 0.372179 0.166738 
0.069074 0.511818 0.528943 0.882633 0.795499 
0.890298 0.818867 0.91663 0.085127 0.937686 
0.404351 0.979156 0.292734 0.78946 0.0791298 
0.0891218 0.179661 0.942579 0.78143 0.984262 
0.963015 0.370744 0.579999 0.262815 0.216959 
0.994408 0.0607652 0.823364 0.330634 0.578317 
0.771908 0.373993 0.83148 0.716425 0.808459 
0.476233 0.00428947 0.502359 0.259484 0.664215 
0.60798 0.291892 0.666404 0.822094 0.316897 
0.683696 0.464369 0.556234 0.0100969 0.134968 
0.380645 0.728132 0.49844 0.0265492 0.248723 
0.563513 0.523804 0.68543 0.875697 0.57872 
0.449424 0.419896 0.0750362 0.890879 0.954553 
0.228236 0.844834 0.654311 0.672952 0.0863463 
0.954494 0.33049 0.295593 0.66834 0.419912 
0.714808 0.875442 0.597892 0.153576 0.723635 
0.350274 0.988562 0.420648 0.763409 0.999833 
0.308441 0.157093 0.10012 0.637638 0.727345 
0.017599 0.457524 0.283206 0.762337 0.859646 
0.408916 0.722558 0.218229 0.385066 0.928171 
0.745808 0.33232 0.842792 0.103717 0.511676 
0.10464 0.406688 0.190804 0.528235 0.160271 
0.435561 0.471948 0.52616 0.786798 0.535812 
0.414173 0.395201 0.159889 0.747506 0.346027 
0.966128 0.635107 0.533255 0.435005 0.585724 
0.385168 0.862181 0.916074 0.549069 0.898006 
0.889404 0.0921862 0.688189 0.822788 0.0832504 
0.338165 0.648969 0.607589 0.904304 0.789233 
0.0580984 0.319644 0.300661 0.612928 0.266653 
0.529675 0.62262 0.99227 0.413898 0.68719 
0.17804 0.348471 0.6241 0.341867 0.954793 
0.992339 0.528566 0.0260926 0.272598 0.613612 
0.881081 0.810933 0.0143493 0.478892 0.738844 
0.587354 0.55502 0.114292 0.87553 0.0394738 
0.840667 0.0567674 0.435705 0.194685 0.395958 
0.201472 0.647971 0.389984 0.579291 0.657032 
0.206491 0.930759 0.182539 0.125486 0.547792 
0.125568 0.878631 0.500532 0.499667 0.915065 
0.916692 0.175749 0.311634 0.980895 0.251575 
0.104452 0.701783 0.469569 0.57187 0.733945 
0.900709 0.78807 0.702484 0.118081 0.234966 
0.302424 0.886849 0.0748777 0.803574 0.451546 
0.939675 0.840102 0.619944 0.56323 0.446824 
0.741735 0.274217 0.842641 0.130907 0.0635051 
0.191858 0.579035 0.49532 0.307478 0.835103 
0.914108 0.137332 0.632861 0.19427 0.936317 
0.347487 0.174873 0.377639 0.891069 0.330033 
0.162067 0.684432 0.760875 0.674861 0.940891 
0.402241 0.513421 0.843748 0.575359 0.645124 
0.936055 0.758119 0.212825 0.50446 0.222307 
0.962263 0.106393 0.363366 0.176316 0.126422 
0.181936 0.217613 0.511019 0.00765676 0.27972 
0.434928 0.624271 0.313522 0.745166 0.113516 
0.478147 0.74358 0.231027 0.334829 0.7094 
0.202482 0.161528 0.421371 0.107736 0.448743 
0.813129 0.551802 0.345023 0.182262 0.203664 
0.111881 0.549452 0.00550677 0.851827 0.782643 
0.957165 0.961661 0.756724 0.354635 0.350228 
0.0420869 0.579165 0.261378 0.0762382 0.106465 
0.0240763 0.347775 0.647767 0.658844 0.065067 
0.849286 0.732874 0.678219 0.485599 0.39103 
0.915463 0.799258 0.310428 0.232257 0.479019 
0.382119 0.89309 0.760806 0.402857 0.137618 
0.00980897 0.395895 0.175457 0.12646 0.00355783 
0.614252 0.651427 0.223244 0.368205 0.52203 
0.0817697 0.940639 0.168568 0.839518 0.464111 
0.943976 0.988046 0.452055 0.259004 0.145137 
0.0805632 0.0121962 0.89955 0.400194 0.601796 
0.871204 0.635224 0.883481 0.624406 0.219629 
0.842218 0.883271 0.826822 0.711665 0.875759 
0.502977 0.824666 0.153641 0.548972 0.0473227 
0.368368 0.23049 0.440405 0.0365579 0.853495 
0.726203 0.149746 0.374214 0.521635 0.373081 
0.783326 0.00698137 0.389092 0.227646 0.28537 
0.523525 0.53481 0.523663 0.487145 0.957233 
0.956508 0.240648 0.300864 0.758402 0.96953 
0.323294 0.272418 0.4527 0.896095 0.172223 
0.192004 0.0912899 0.248428 0.0655618 0.84437 
0.894261 0.125363 0.544874 0.847675 0.675306 
0.947982 0.073165 0.735257 0.306378 0.488467 
0.591969 0.765793 0.098798 0.260112 0.262072 
0.585043 0.259714 0.415627 0.412652 0.306043 
0.275457 0.523188 0.095608 0.0590526 0.228651 
0.473837 0.697972 0.764384 0.0477148 0.736128 
0.428649 0.683382 0.227823 0.846603 0.0984131 
0.0754071 0.224264 0.192991 0.88924 0.0294875 
0.789972 0.467234 0.10695 0.177942 0.205403 
0.616167 0.548189 0.622627 0.700664 0.613216 
0.431788 0.332702 0.466618 0.393006 0.83723 
0.542338 0.0713583 0.646703 0.182748 0.889729 
0.553072 0.723922 0.395944 0.181535 0.111404 
0.354254 0.8045 0.855357 0.0424535 0.321735 
0.727731 0.914623 0.709432 0.341006 0.906821 
0.432758 0.597855 0.414391 0.195587 0.453175 
0.968787 0.903047 0.718256 0.0840975 0.0663888 
0.659074 0.683978 0.666046 0.542802 0.109349 
0.489552 0.379023 0.540569 0.274788 0.709592 
0.624494 0.693118 0.368677 0.721389 0.785862 
0.292552 0.235826 0.514905 0.821164 0.746738 
0.622523 0.0894417 0.791048 0.984021 0.866034 
0.12174 0.91067 0.0363987 0.117024 0.0570873 
0.74723 0.103076 0.500824 0.230319 0.902867 
0.787146 0.804573 0.677926 0.0988058 0.315127 
0.410464 0.440135 0.762445 0.948506 0.361274 
0.514392 0.49184 0.626674 0.968731 0.890206 
0.491474 0.142359 0.81039 0.30005 0.782482 
0.155846 0.33223 0.704191 0.706764 0.915443 
0.211125 0.970499 0.337483 0.443387 0.606904 
0.358303 0.690854 0.613323 0.294337 0.492098 
0.600226 0.7156 0.200459 0.546209 0.577637 
0.251531 0.235393 0.575709 0.465633 0.853429 
0.455381 0.407656 0.0769701 0.784965 0.166971 
0.972125 0.620797 0.859171 0.869073 0.64861 
0.881465 0.298935 0.623694 0.0438206 0.285484 
0.191339 0.354961 0.215602 0.836261 0.0492649 
0.449268 0.721682 0.456936 0.399536 0.797407 
0.536637 0.667459 0.860205 0.968877 0.754475 
0.658485 0.479928 0.60572 0.634534 0.614056 
0.398679 0.975807 0.204008 0.129771 0.0928676 
0.332811 0.714499 0.909744 0.0547645 0.391169 
0.368745 0.893833 0.605309 0.585855 0.0575382 
0.301309 0.999613 0.13654 0.905019 0.358153 
0.157495 0.842833 0.768757 0.194449 0.516274 
0.930373 0.365189 0.645156 0.751498 0.230408 
0.68634 0.467681 0.466122 0.399267 0.548776 
0.851681 0.214961 0.623786 0.376267 0.219324 
0.930532 0.759633 0.473245 0.694453 0.899983 
0.664692 0.617174 0.937467 0.125625 0.939227 
0.288295 0.818695 0.462514 0.659348 0.945026 
0.309962 0.208995 0.411863 0.519811 0.225443 
0.563061 0.972126 0.678615 0.387471 0.148545 
0.505003 0.826476 0.485652 0.326762 0.928428 
0.842631 0.0465876 0.38019 0.999999 0.347749 
0.56983 0.219553 0.781075 0.609466 0.30012 
0.883624 0.718553 0.140939 0.70994 0.247781 
0.4621 0.0674534 0.274677 0.856415 0.751788 
0.977626 0.203805 0.403914 0.0852832 0.582327 
0.51955 0.0290149 0.252595 0.566076 0.0110913 
0.971911 0.675202 0.581379 0.521983 0.455179 
0.218511 0.865402 0.51232 0.613455 0.532046 
0.66779 0.275061 0.00627781 0.516354 0.999446 
0.826022 0.937554 0.472269 0.200773 0.766231 
0.120756 0.584909 0.417616 0.0701339 0.604927 
0.892424 0.904219 0.356519 0.536848 0.575926 
0.565623 0.766209 0.407726 0.122104 0.855128 
0.212282 0.407553 0.740756 0.517838 0.0813464 
0.534828 0.450711 0.602324 0.418301 0.108754 
0.105342 0.455636 0.631611 0.113801 0.181924 
0.809387 0.0411111 0.323245 0.381256 0.251818 
0.854729 0.422939 0.615702 0.87602 0.58075 
0.201184 0.333051 0.510665 0.579766 0.171355 
0.898826 0.95477 0.108802 0.626471 0.353604 
0.801755 0.346292 0.689041 0.764778 0.932033 
0.516169 0.207167 0.47607 0.835235 0.35369 
0.0219029 0.843039 0.665319 0.387905 0.811084 
0.422781 0.80302 0.876422 0.481294 0.387314 
0.799347 0.598067 0.330953 0.799549 0.545074 
0.606333 0.763174 0.0632432 0.598148 0.90539 
0.0226664 0.551852 0.776006 0.118721 0.860504 
0.448175 0.324628 0.367018 0.337304 0.239596 
0.829654 0.695328 0.951001 0.195552 0.123947 
0.095777 0.606425 0.166678 0.563244 0.945091 
0.450173 0.924504 0.977582 0.966677 0.542047 
0.727208 0.69464 0.940112 0.453509 0.924166 
0.330244 0.816048 0.709031 0.692811 0.676313 
0.377054 0.131964 0.263198 0.311579 0.305757 
0.976674 0.508799 0.390639 0.0162452 0.638047 
0.464582 0.568343 0.686638 0.946681 0.753928 
0.585664 0.50472 0.830071 0.592581 0.432127 
0.00768374 0.9405 0.768295 0.182606 0.553134 
0.834135 0.343114 0.779786 0.6015 0.666743 
0.920838 0.870886 0.116077 0.0316423 0.297138 
0.82296 0.505775 0.870473 0.797095 0.0699591 
0.883956 0.391436 0.448342 0.729748 0.462987 
0.257821 0.327671 0.563313 0.182229 0.566781 
0.929274 0.578017 0.192714 0.802805 0.492279 
0.58242 0.76484 0.728506 0.610255 0.445487 
0.0594754 0.591911 0.434727 0.689586 0.791353 
0.279079 0.683757 0.00625301 0.743755 0.385324 
0.347965 0.707744 0.012302 0.34732 0.435569 
0.997679 0.44546 0.274306 0.440012 0.0120313 
0.135966 0.118207 0.0972142 0.739896 0.952574 
0.546017 0.359983 0.0738902 0.84659 0.311365 
0.784549 0.15782 0.919519 0.336172 0.904668 
0.357426 0.211679 0.449083 0.331504 0.253291 
0.501129 0.284208 0.145486 0.931671 0.0857232 
0.167884 0.14399 0.0909721 0.334821 0.228427 
0.10475 0.52483 0.204291 0.300034 0.61598 
0.144655 0.43883 0.566809 0.540574 0.338615 
0.297721 0.820321 0.900036 0.77304 0.638187 
0.477031 0.414783 0.37765 0.907272 0.215423 
0.785063 0.261503 0.702666 0.50306 0.0841576 
0.215818 0.625285 0.220042 0.119874 0.577768 
0.631058 0.249322 0.205966 0.400238 0.497253 
0.552474 0.623831 0.095696 0.288661 0.175049 
0.934153 0.960512 0.548141 0.564632 0.710631 
0.917661 0.0414856 0.326957 0.4234 0.203427 
0.160627 0.00921619 0.0729285 0.288614 0.105929 
0.100779 0.393001 0.155312 0.922127 0.598956 
0.0712431 0.442922 0.87716 0.311313 0.889131 
0.714399 0.893953 0.0643144 0.813663 0.890121 
0.514647 0.241407 0.410092 0.524196 0.62964 
0.595568 0.510664 0.57982 0.0472932 0.116483 
0.447589 0.542905 0.756247 0.510812 0.24802 
0.274055 0.956425 0.738158 0.838718 0.415986 
0.0907173 0.367047 0.935798 0.960981 0.908714 
0.602282 0.467715 0.156111 0.0187343 0.848345 
0.175916 0.573697 0.954168 0.867059 0.502058 
0.292644 0.323234 0.739192 0.85199 0.319771 
0.74452 0.165836 0.239729 0.658195 0.141964 
0.456128 0.822274 0.280506 0.612585 0.862476 
0.604608 0.829324 0.185477 0.441002 0.665932 
0.944055 0.935004 0.548096 0.714013 0.052841 
0.0816057 0.78913 0.992141 0.581985 0.792045 
0.0700174 0.975607 0.216935 0.822408 0.900765 
0.608065 0.566402 0.77754 0.143314 0.620098 
0.9721 0.931354 0.324324 0.651308 0.738841 
0.638105 0.0806119 0.962262 0.0167053 0.766222 
0.239742 0.584954 0.902252 0.243064 0.378858 
0.0615644 0.217329 0.624388 0.341676 0.0679047 
0.590028 0.709775 0.8982 0.324308 0.372521 
0.265979 0.0193288 0.508332 0.133958 0.138023 
0.980229 0.440916 0.753909 0.867623 0.314054 
0.976045 0.389229 0.11951 0.709897 0.612991 
0.735052 0.888523 0.838987 0.703197 0.588794 
0.909276 0.419623 0.0204467 0.258204 0.518911 
0.591494 0.54192 0.169146 0.688259 0.160389 
0.873367 0.000316021 0.821171 0.186799 0.329419 
0.854326 0.927745 0.350861 0.164631 0.416338 
0.859521 0.761725 0.905442 0.321485 0.685856 
0.399381 0.63905 0.850944 0.246981 0.843737 
0.894673 0.121562 0.437121 0.524093 0.457986 
0.268876 0.20593 0.448733 0.253895 0.653754 
0.613443 0.399523 0.889145 0.336356 0.507029 
0.335078 0.92424 0.225912 0.857842 0.943667 
0.740594 0.351302 0.202156 0.649153 0.549328 
0.0101106 0.680614 0.687073 0.734314 0.114016 
0.858188 0.462557 0.859788 0.295669 0.321939 
0.927574 0.921204 0.67574 0.203967 0.655104 
0.0965092 0.904733 0.11573 0.512691 0.625422 
0.798667 0.321246 0.669548 0.194415 0.636633 
0.346169 0.673359 0.223224 0.263112 0.838478 
0.856191 0.559892 0.119948 0.418825 0.172467 
0.11549 0.184781 0.554249 0.68084 0.379224 
0.492883 0.497468 0.517813 0.284139 0.438345 
0.11313 0.891035 0.704165 0.765517 0.715022 
0.173349 0.636855 0.304351 0.173231 0.842336 
0.00761206 0.986223 0.521119 0.0507362 0.706277 
0.679268 0.286419 0.175631 0.778228 0.0316534 
0.98984 0.541618 0.270543 0.184263 0.509134 
0.919135 0.76295 0.201838 0.529178 0.662043 
0.354528 0.551572 0.0109646 0.27121 0.64198 
0.208427 0.82723 0.0723502 0.471265 0.647002 
0.50681 0.651182 0.149452 0.802276 0.728723 
0.151638 0.859884 0.146758 0.737189 0.0987844 
0.473674 0.54767 0.944217 0.747482 0.13252 
0.00239321 0.318312 0.935994 0.870486 0.294318 
0.263584 0.758299 0.140162 0.420248 0.223249 
0.0212149 0.376934 0.525929 0.800578 0.218861 
0.683588 0.00696932 0.812747 0.550285 0.659935 
0.965962 0.389977 0.453598 0.36407 0.0612761 
0.875207 0.933082 0.0651769 0.792113 0.182919 
0.764069 0.860568 0.957496 0.796971 0.175602 
0.418798 0.720507 0.297952 0.0821514 0.916109 
0.684815 0.0730724 0.755342 0.759174 0.884924 
0.105012 0.413853 0.694636 0.236462 0.85433 
0.263136 0.390617 0.25974 0.493711 0.399565 
0.902803 0.412665 0.0608199 0.694074 0.57322 
0.19787 0.323325 0.484167 0.684862 0.897001 
0.00658044 0.468901 0.526819 0.624292 0.542183 
0.713184 0.103616 0.906771 0.0277421 0.602958 
0.925987 0.630061 0.380433 0.813713 0.237756 
0.466397 0.622565 0.290168 0.161752 0.835233 
0.492455 0.837068 0.89898 0.884171 0.847768 
0.678893 0.328503 0.929814 0.586194 0.934828 
0.290977 0.276513 0.137363 0.840561 0.367846 
0.305098 0.430986 0.169351 0.37718 0.2744 
0.74582 0.667178 0.229809 0.916234 0.563351 
0.219576 0.0338472 0.474826 0.502989 0.55666 
0.802221 0.252271 0.189598 0.0446658 0.484807 
0.26012 0.611812 0.828085 0.440288 0.372415 
0.217832 0.0943055 0.8463 0.619998 0.541655 
0.30078 0.0860397 0.20354 0.2638 0.766721 
0.210525 0.477305 0.0580781 0.424958 0.946915 
0.748232 0.53103 0.903598 0.711891 0.236595 
0.504926 0.039829 0.780901 0.614425 0.0828134 
0.701932 0.707455 0.453414 0.653924 0.100989 
0.605714 0.218182 0.477711 0.226764 0.641055 
0.402669 0.0613184 0.748689 0.681692 0.551945 
0.313223 0.963566 0.301196 0.529087 0.162165 
0.705091 0.455072 0.00645599 0.221562 0.758817 
0.867035 0.99455 0.273571 0.424999 0.105046 
0.941804 0.161207 0.0938688 0.266192 0.457092 
0.276 0.807863 0.343352 0.506895 0.531936 
0.631211 0.322626 0.305387 0.759218 0.123494 
0.123693 0.941885 0.924207 0.873519 0.238709 
0.141568 0.528889 0.823145 0.213474 0.359357 
0.826413 0.593194 0.650165 0.231 0.800479 
0.871969 0.403094 0.36899 0.458458 0.86797 
0.567771 0.452325 0.00953189 0.431114 0.431191 
0.323504 0.276178 0.734354 0.394103 0.476749 
0.286653 0.572381 0.957545 0.717593 0.166469 
0.307248 0.999714 0.63605 0.659359 0.895506 
0.288887 0.479289 0.79693 0.906413 0.897857 
0.128069 0.737507 0.946546 0.75383 0.732396 
0.630105 0.0916002 0.630014 0.35398 0.912605 
0.480892 0.569051 0.660201 0.0840824 0.547301 
0.492742 0.540447 0.89487 0.764606 0.544274 
0.438161 0.0988791 0.717704 0.136426 0.325439 
0.347193 0.0199467 0.198972 0.325096 0.85274 
0.641327 0.306321 0.160875 0.552898 0.985687 
0.82172 0.351931 0.853314 0.765067 0.776656 
0.0569311 0.976988 0.472702 0.750162 0.403805 
0.144111 0.903726 0.0729187 0.540818 0.457603 
0.850101 0.598952 0.511637 0.487584 0.929196 
0.56774 0.763758 0.924149 0.893056 0.493752 
0.346179 0.380569 0.43572 0.351288 0.000431008 
0.216715 0.0569693 0.0537016 0.411591 0.930545 
0.1121 0.853408 0.320628 0.842448 0.0374438 
0.675953 0.434724 0.62696 0.92963 0.956705 
0.179792 0.0166502 0.825651 0.104136 0.237673 
0.427543 0.566036 0.638515 0.236045 0.247352 
0.628043 0.515481 0.582788 0.338866 0.880308 
0.155763 0.866552 0.0836061 0.533935 0.163565 
0.939374 0.925015 0.814707 0.479271 0.0973998 
0.711276 0.575701 0.446938 0.768213 0.0645504 
0.471188 0.425669 0.00282094 0.123076 0.467668 
0.127962 0.758584 0.0899662 0.756299 0.403146 
0.0137844 0.680992 0.386017 0.125141 0.996617 
0.823374 0.341461 0.961939 0.609098 0.389547 
0.560545 0.0803689 0.528188 0.703817 0.975796 
0.390174 0.979046 0.187063 0.86158 0.933715 
0.948621 0.913935 0.225847 0.233569 0.365887 
0.124775 0.611499 0.593808 0.952489 0.00781591 
0.617096 0.474077 0.805332 0.211708 0.230874 
0.197512 0.265576 0.873528 0.426868 0.730939 
0.735892 0.291051 0.164568 0.00125173 0.0698135 
0.332358 0.524166 0.0439768 0.98403 0.803337 
0.5068 0.716822 0.27756 0.532222 0.246111 
0.565904 0.231019 0.11224 0.361084 0.283718 
0.670417 0.416028 0.179279 0.324828 0.297599 
0.905454 0.725323 0.856249 0.353154 0.167026 
0.180358 0.770199 0.589402 0.62393 0.318686 
0.00657224 0.771091 0.810713 0.396859 0.774779 
0.245238 0.208072 0.401193 0.647189 0.0600209 
0.842675 0.396346 0.0766298 0.762163 0.977851 
0.673119 0.278819 0.922759 0.610563 0.927254 
0.0247554 0.624347 0.0470792 0.930148 0.840398 
0.0489407 0.474941 0.438976 0.0746374 0.683378 
0.163702 0.226847 0.0373841 0.232365 0.506359 
0.338653 0.0889551 0.615101 0.471696 0.241511 
0.791249 0.89313 0.356555 0.237737 0.47274 
0.557515 0.786676 0.767484 0.64268 0.0841747 
0.824519 0.576547 0.44613 0.84421 0.139523 
0.0949074 0.0575879 0.629082 0.729887 0.723729 
0.979023 0.875682 0.787496 0.431008 0.0678573 
0.443586 0.499295 0.959097 0.606757 0.179761 
0.673197 0.944126 0.446633 0.144149 0.129941 
0.592195 0.0906213 0.775985 0.686759 0.264001 
0.0730054 0.0825593 0.465928 0.231178 0.749585 
0.280236 0.329857 0.0372535 0.863191 0.0774233 
0.26081 0.0216397 0.966862 0.970204 0.581718 
0.685293 0.033842 0.812983 0.658854 0.0488536 
0.719854 0.264927 0.3693 0.26726 0.902091 
0.595199 0.540511 0.377605 0.134202 0.0187435 
0.750955 0.720787 0.952651 0.784027 0.902954 
0.172751 0.466545 0.311027 0.762931 0.52423 
0.811163 0.908349 0.330074 0.00427355 0.0283784 
0.91171 0.907114 0.671417 0.223161 0.589665 
0.514412 0.766835 0.834103 0.648324 0.793289 
0.84728 0.317784 0.6102 0.252375 0.659299 
0.193535 0.343875 0.88402 0.461038 0.36619 
0.372111 0.224637 0.906324 0.845179 0.602368 
0.156687 0.818639 0.612272 0.865818 0.357028 
0.822789 0.431013 0.0654847 0.290196 0.928581 
0.989681 0.494724 0.689326 0.185208 0.343129 
0.180505 0.116229 0.155214 0.817975 0.368774 
0.941417 0.900037 0.563674 0.548137 0.732434 
0.81361 0.781364 0.886513 0.226066 0.883599 
0.43644 0.891867 0.781664 0.445789 0.538794 
0.551125 0.694253 0.293389 0.0853265 0.508827 
0.057387 0.289867 0.091112 0.776325 0.216129 
0.169819 0.921253 0.857307 0.321941 0.50932 
0.406357 0.766026 0.573306 0.529145 0.537417 
0.870975 0.59015 0.434559 0.63246 0.102058 
0.389842 0.461377 0.870328 0.743459 0.928083 
0.353892 0.33881 0.200463 0.0292032 0.921143 
0.745382 0.530699 0.662553 0.47906 0.740877 
0.756452 0.61098 0.0164362 0.148786 0.19321 
0.603748 0.538223 0.879055 0.995439 0.998041 
0.274664 0.529068 0.0352699 0.408895 0.382542 
0.445722 0.738492 0.107968 0.352251 0.170431 
0.792599 0.552646 0.867299 0.72564 0.064281 
0.0523497 0.679319 0.449773 0.611108 0.755363 
0.986021 0.906532 0.858985 0.663747 0.640863 
0.448607 0.157642 0.956357 0.372277 0.366754 
0.516166 0.0531828 0.2436 0.286292 0.950638 
0.119978 0.452305 0.177232 0.778473 0.420649 
0.455871 0.815678 0.236032 0.63005 0.931161 
0.631836 0.797096 0.955152 0.150048 0.723093 
0.358071 0.817853 0.495331 0.858792 0.00338343 
0.794633 0.174586 0.934973 0.18881 0.407829 
0.748711 0.739688 0.445532 0.41103 0.602759 
0.561063 0.0788185 0.198054 0.87278 0.208057 
0.33807 0.680251 0.370894 0.0895244 0.236098 
0.069583 0.823901 0.474139 0.785927 0.158431 
0.36465 0.0228054 0.943892 0.220983 0.51868 
0.670632 0.0646214 0.28566 0.630384 0.785505 
0.408762 0.443367 0.387725 0.6683 0.300915 
0.397338 0.889008 0.556819 0.690606 0.957151 
0.928252 0.321959 0.665692 0.870421 0.761483 
0.52179 0.330977 0.981854 0.528541 0.761028 
0.203564 0.462625 0.8884 0.38195 0.708762 
0.304058 0.513614 0.727615 0.75794 0.249397 
0.776313 0.98351 0.140335 0.526175 0.468827 
0.801778 0.249149 0.276803 0.833983 0.454873 
0.399809 0.967379 0.290016 0.581292 0.331371 
0.661382 0.274458 0.0487639 0.121604 0.35258 
0.192888 0.885905 0.922702 0.698961 0.20752 
0.782837 0.142944 0.76727 0.144647 0.822689 
0.333052 0.814085 0.608962 0.588931 0.770893 
0.705522 0.867518 0.564031 0.703971 0.771875 
