700 5
0.891692 0.363611 0.40511 0.739423 0.778072 
0.0544988 0.792619 0.323319 0.807828 0.171428 
0.153568 0.807804 0.0794081 0.21416 0.177334 
0.941324 0.342858 0.084297 0.792511 0.172323 
0.577753 0.154213 0.658053 0.491995 0.512199 
0.854818 0.337981 0.690462 0.710395 0.0405687 
0.186724 0.609502 0.762605 0.317591 0.614625 
0.533902 0.523919 0.855726 0.413062 0.976731 
0.764689 0.958109 0.333355 0.739544 0.0156671 
0.627369 0.777769 0.500646 0.845409 0.0272994 
0.953966 0.82938 0.283827 0.531468 0.232161 
0.694271 0.606579 0.106063 0.789753 0.347177 
0.686282 0.0798898 0.673365 0.940592 0.144199 
0.553033 0.546973 0.731824 0.502915 0.438419 
0.688938 0.0278097 0.704341 0.902588 0.120571 
0.947752 0.776942 0.123676 0.83534 0.703023 
0.185557 0.316881 0.207142 0.34575 0.133478 
0.809897 0.778477 0.881279 0.54835 0.158279 
0.186796 0.911249 0.992218 0.891996 0.0930465 
0.658322 0.543508 0.0821285 0.560165 0.703745 
0.177519 0.281556 0.578022 0.0404941 0.330344 
0.755874 0.278899 0.76982 0.0820588 0.47596 
0.128352 0.623913 0.268532 0.30883 0.167878 
0.716472 0.338609 0.304169 0.0533564 0.204772 
0.0901323 0.181059 0.39823 0.481922 0.556057 
0.422918 0.239819 0.697662 0.370363 0.808713 
0.594715 0.984802 0.975605 0.680128 0.146957 
0.457329 0.947202 0.0105452 0.91829 0.38514 
0.469608 0.689397 0.547181 0.416085 0.131569 
0.777078 0.768584 0.340486 0.275668 0.77086 
0.810469 0.625654 0.436428 0.0527401 0.0471706 
0.00399379 0.713188 0.764241 0.627442 0.204029 
0.571386 0.198827 0.68798 0.0646566 0.788242 
0.6047 0.988452 0.383924 0.707803 0.443155 
0.892091 0.359985 0.857538 0.889181 0.485755 
0.825507 0.381757 0.375304 0.97325 0.486089 
0.297078 0.696381 0.885386 0.214783 0.772279 
0.592128 0.0725405 0.986121 0.887668 0.358796 
0.636878 0.498042 0.611062 0.627674 0.0670809 
0.0745231 0.38883 0.983839 0.710586 0.401946 
0.927688 0.4538 0.489171 0.694807 0.718807 
0.41071 0.197513 0.144788 0.688497 0.053573 
0.919417 0.396818 0.564921 0.845229 0.723402 
0.481242 0.0612404 0.85779 0.933901 0.695623 
0.0495402 0.858044 0.199504 0.757544 0.789411 
0.992416 0.961414 0.5084 0.11326 0.479909 
0.0257681 0.409293 0.0578975 0.450943 0.484195 
0.612059 0.485893 0.665112 0.953207 0.273443 
0.289053 0.847084 0.0168421 0.144447 0.216778 
0.071092 0.668399 0.604566 0.49543 0.878353 
0.481309 0.883208 0.327732 0.484817 0.96344 
0.107301 0.325893 0.494906 0.956365 0.206132 
0.104637 0.798242 0.018387 0.558495 0.194535 
0.34122 0.0357564 0.0721196 0.0992171 0.923037 
0.0101326 0.870724 0.200895 0.00878849 0.150917 
0.528355 0.217871 0.908061 0.181752 0.0748795 
0.132516 0.160669 0.31877 0.924282 0.232111 
0.35672 0.372327 0.192215 0.89455 0.902222 
0.310074 0.593264 0.986803 0.217653 0.848847 
0.505794 0.16572 0.298569 0.168126 0.633683 
0.38661 0.392488 0.345739 0.529006 0.499191 
0.231236 0.57459 0.820326 0.574497 0.812711 
0.0123105 0.506819 0.658604 0.726843 0.34629 
0.772918 0.18428 0.0557258 0.494679 0.453587 
0.416193 0.40441 0.174349 0.900624 0.134127 
0.820644 0.651182 0.0607646 0.262951 0.00142012 
0.360601 0.821469 0.332878 0.189602 0.575607 
0.158103 0.596856 0.41653 0.754919 0.162417 
0.47 0.763708 0.325762 0.760281 0.343372 
0.432444 0.172002 0.664962 0.444383 0.464986 
0.0713649 0.864476 0.504357 0.0278325 0.845252 
0.738143 0.703877 0.276954 0.714581 0.475668 
0.0418044 0.509748 0.707562 0.448234 0.677665 
0.66757 0.137559 0.0792861 0.666051 0.803776 
0.766447 0.0998184 0.82176 0.866993 0.562936 
0.698238 0.821501 0.136993 0.784904 0.699145 
0.29882 0.43534 0.901763 0.384382 0.856876 
0.462071 0.995812 0.374563 0.789808 0.358735 
0.25563 0.377629 0.516838 0.246123 0.459705 
0.0123808 0.360801 0.12664 0.401606 0.488311 
0.0358495 0.227989 0.899486 0.528705 0.681325 
0.134057 0.639143 0.537685 0.891911 0.175457 
0.801704 0.310899 0.705038 0.804413 0.887535 
0.632272 0.82569 0.0747448 0.469925 0.959292 
0.0299687 0.42643 0.89172 0.408552 0.669323 
0.955256 0.792514 0.831565 0.477659 0.788741 
0.41832 0.973698 0.663808 0.327822 0.629455 
0.185937 0.876488 0.553754 0.346787 0.759348 
0.564275 0.44843 0.383539 0.554275 0.85461 
0.810366 0.851539 0.36617 0.86097 0.160036 
0.489578 0.233628 0.900788 0.696216 0.115842 
0.589175 0.45442 0.0826384 0.483541 0.641566 
0.201056 0.448523 0.373538 0.618731 0.754351 
0.974564 0.828907 0.380736 0.223599 0.897997 
0.757799 0.557198 0.299748 0.539815 0.104983 
0.940863 0.987884 0.454772 0.716603 0.861461 
0.0597103 0.661998 0.350888 0.0909924 0.766545 
0.473064 0.730155 0.962054 0.793838 0.290417 
0.115111 0.865075 0.95488 0.257177 0.742645 
0.00805593 0.587357 0.169906 0.715631 0.37755 
0.45201 0.498778 0.475172 0.209414 0.515595 
0.26422 0.776084 0.974536 0.204364 0.791545 
0.456926 0.529678 0.451742 0.196236 0.921514 
0.117066 0.750386 0.710771 0.138508 0.589922 
0.636428 0.717598 0.379429 0.185299 0.157776 
0.482807 0.849463 0.181336 0.736183 0.96167 
0.0152809 0.258946 0.583881 0.47969 0.692541 
0.955963 0.363706 0.386392 0.19591 0.504604 
0.559115 0.222308 0.5233 0.290362 0.38393 
0.755576 0.88233 0.330325 0.969933 0.561997 
0.231625 0.854136 0.549548 0.894562 0.878331 
0.202269 0.489465 0.0113588 0.0677825 0.973144 
0.890868 0.129888 0.209114 0.165439 0.362802 
0.470626 0.684639 0.646174 0.860841 0.410833 
0.222998 0.770147 0.343784 0.483416 0.496519 
0.391743 0.464486 0.675954 0.450268 0.751828 
0.688682 0.279572 0.107123 0.421048 0.621167 
0.159189 0.396363 0.861455 0.296143 0.767824 
0.823923 0.60928 0.522601 0.737738 0.14173 
0.775702 0.0830911 0.941464 0.939666 0.140502 
0.176071 0.657463 0.388745 0.604102 0.50079 
0.297772 0.282772 0.886976 0.613303 0.754173 
0.50883 0.577432 0.675812 0.256453 0.76997 
0.950165 0.343915 0.289288 0.206057 0.451419 
0.278183 0.990027 0.492497 0.450104 0.44392 
0.190409 0.217321 0.343087 0.86664 0.237603 
0.764078 0.362397 0.270653 0.49065 0.96133 
0.629875 0.716003 0.0381113 0.267455 0.687889 
0.593741 0.182353 0.71248 0.536111 0.38615 
0.65656 0.850367 0.946913 0.331046 0.578172 
0.15638 0.916689 0.571335 0.10624 0.112199 
0.606115 0.663212 0.083509 0.83777 0.102078 
0.935423 0.753748 0.270879 0.0903938 0.934332 
0.880632 0.656086 0.649204 0.658916 0.943005 
0.793468 0.447662 0.196526 0.687153 0.675161 
0.807284 0.208016 0.767073 0.102846 0.636229 
0.240366 0.161858 0.870832 0.334634 0.927594 
0.415522 0.644093 0.794408 0.332486 0.898842 
0.478979 0.296626 0.389629 0.982682 0.102601 
0.962231 0.672404 0.564303 0.262829 0.775521 
0.202759 0.129658 0.726549 0.379123 0.202762 
0.543778 0.424995 0.919314 0.785055 0.173589 
0.54113 0.103703 0.0978129 0.182902 0.707337 
0.671447 0.700668 0.274449 0.079366 0.653107 
0.863791 0.424075 0.167608 0.46164 0.309905 
0.307216 0.682494 0.736996 0.785366 0.79852 
0.726669 0.981021 0.728566 0.577393 0.161433 
0.762631 0.540576 0.242666 0.992021 0.376636 
0.480607 0.841148 0.457336 0.32567 0.959029 
0.759913 0.986488 0.0186685 0.611578 0.42341 
0.245399 0.7123 0.567384 0.239239 0.619959 
0.153124 0.134889 0.312836 0.320114 0.0728912 
0.447176 0.0972424 0.913511 0.952896 0.817669 
0.179999 0.268511 0.303519 0.666568 0.917572 
0.218001 0.0259153 0.363625 0.00747024 0.102799 
0.10376 0.39699 0.592154 0.0149989 0.761428 
0.643569 0.0162306 0.487884 0.640617 0.443237 
0.901039 0.662959 0.365052 0.533135 0.136707 
0.329587 0.0284459 0.356571 0.0325197 0.78807 
0.232637 0.0656598 0.218065 0.376018 0.9592 
0.883322 0.946686 0.127785 0.802699 0.900013 
0.476123 0.831151 0.289506 0.189726 0.424483 
0.6319 0.942467 0.493385 0.572432 0.537009 
0.779512 0.971982 0.505076 0.336594 0.85417 
0.660343 0.631214 0.875073 0.536631 0.810285 
0.25087 0.0350813 0.565724 0.156638 0.341652 
0.787854 0.39526 0.376491 0.0388664 0.4072 
0.676774 0.981957 0.215327 0.238259 0.185667 
0.435847 0.484621 0.227443 0.828981 0.481574 
0.456926 0.947161 0.323031 0.0440838 0.689326 
0.510997 0.0816699 0.350402 0.521203 0.579739 
0.676661 0.362898 0.699771 0.56011 0.138556 
0.544185 0.683551 0.294012 0.286572 0.671038 
0.339738 0.778927 0.514669 0.490477 0.362541 
0.924702 0.326681 0.336885 0.713221 0.745274 
0.308238 0.750934 0.742665 0.829524 0.375726 
0.35999 0.590278 0.333576 0.235038 0.471503 
0.0927497 0.53825 0.482938 0.078878 0.639136 
0.800705 0.924128 0.0999827 0.321639 0.250795 
0.807091 0.580318 0.732738 0.473339 0.336729 
0.128989 0.606138 0.548431 0.0426324 0.715478 
0.817397 0.510935 0.0516131 0.115415 0.217619 
0.047883 0.308753 0.238817 0.237753 0.429996 
0.44249 0.0394392 0.283115 0.432671 0.952694 
0.904388 0.662436 0.461588 0.671143 0.486306 
0.102967 0.640758 0.0101358 0.733279 0.334618 
0.602821 0.812563 0.583075 0.457774 0.760403 
0.138086 0.518896 0.336845 0.632315 0.181403 
0.236098 0.490675 0.195824 0.620418 0.514982 
0.686339 0.187435 0.493615 0.427599 0.0994756 
0.737304 0.993983 0.984922 0.710082 0.141569 
0.814429 0.432034 0.798549 0.495088 0.718758 
0.583194 0.821438 0.933011 0.103339 0.171341 
0.199387 0.224539 0.650332 0.646551 0.0167638 
0.926595 0.648361 0.565815 0.0357076 0.619431 
0.343493 0.449203 0.366962 0.623943 0.468084 
0.724956 0.0949064 0.179067 0.357807 0.522812 
0.18013 0.653637 0.451693 0.314163 0.898203 
0.449616 0.437603 0.804094 0.0548707 0.084687 
0.314281 0.695619 0.30499 0.263429 0.686345 
0.750966 0.770603 0.0361717 0.13779 0.78353 
0.958141 0.0173718 0.187997 0.972248 0.843413 
0.0732207 0.765933 0.402422 0.35527 0.874526 
0.742669 0.461556 0.543246 0.527046 0.301469 
0.609935 0.820118 0.283645 0.347939 0.448383 
0.431744 0.396035 0.706512 0.790329 0.940527 
0.0319848 0.469405 0.488694 0.909924 0.990604 
0.591325 0.804419 0.949142 0.102212 0.715225 
0.0956926 0.742201 0.181304 0.138289 0.0237514 
0.850724 0.0841589 0.0495715 0.769115 0.726391 
0.483631 0.132428 0.323581 0.399346 0.715409 
0.679437 0.762943 0.263459 0.807696 0.0552157 
0.055466 0.963034 0.635231 0.618882 0.11319 
0.591221 0.302923 0.785994 0.267215 0.695501 
0.351137 0.797088 0.851839 0.335617 0.76418 
0.235738 0.301614 0.418628 0.409033 0.704985 
0.446988 0.624545 0.661694 0.948766 0.954002 
0.23363 0.53138 0.546035 0.592592 0.579352 
0.284679 0.569417 0.0288354 0.700802 0.729372 
0.490733 0.818165 0.957728 0.403298 0.360731 
0.624021 0.462573 0.941401 0.10262 0.208401 
0.908399 0.0753792 0.857501 0.805108 0.446737 
0.64758 0.371466 0.653216 0.545097 0.223185 
0.351808 0.448034 0.547863 0.43803 0.522603 
0.926108 0.252969 0.00190238 0.917233 0.771355 
0.044366 0.803997 0.882549 0.631173 0.310559 
0.167854 0.226138 0.856927 0.346908 0.675248 
0.197308 0.0849642 0.765379 0.714315 0.792015 
0.855659 0.172577 0.738048 0.666518 0.210898 
0.403013 0.996185 0.406412 0.421883 0.612644 
0.803789 0.901225 0.734064 0.740638 0.216606 
0.876166 0.718739 0.294534 0.303308 0.239664 
0.322018 0.00952378 0.396781 0.527777 0.690114 
0.624725 0.605226 0.146884 0.943544 0.263486 
0.156648 0.138384 0.580195 0.000866701 0.371886 
0.104738 0.0666968 0.612437 0.798971 0.419259 
0.986156 0.98147 0.208216 0.369366 0.710654 
0.0573507 0.567577 0.918298 0.723339 0.60699 
0.326109 0.13397 0.709432 0.953861 0.562987 
0.514783 0.360408 0.322217 0.36617 0.175128 
0.985322 0.00776388 0.58512 0.798619 0.122401 
0.474546 0.972576 0.413004 0.746937 0.248688 
0.991556 0.01102 0.410093 0.945712 0.842346 
0.194467 0.567575 0.417826 0.291345 0.786889 
0.755593 0.753808 0.0875452 0.523584 0.375758 
0.567567 0.394595 0.95311 0.868513 0.651204 
0.250459 0.313084 0.296144 0.929831 0.547224 
0.0684034 0.689156 0.520973 0.28563 0.988261 
0.292929 0.454794 0.840161 0.793314 0.823584 
0.0681229 0.400617 0.238277 0.877956 0.200947 
0.903345 0.589551 0.0919477 0.550184 0.0184752 
0.915515 0.534707 0.438245 0.175056 0.498172 
0.390339 0.763764 0.694615 0.954899 0.61554 
0.0966536 0.657933 0.0106008 0.574716 0.75729 
0.53335 0.544093 0.533429 0.912348 0.14286 
0.440127 0.443875 0.985576 0.444378 0.14963 
0.363322 0.495962 0.564381 0.516248 0.668463 
0.222829 0.479127 0.367821 0.202134 0.819538 
0.29623 0.802867 0.051205 0.341617 0.276847 
0.245756 0.699136 0.922815 0.371636 0.978665 
0.791775 0.235183 0.898923 0.169123 0.156549 
0.831211 0.720758 0.251231 0.829598 0.421377 
0.397166 0.794621 0.112717 0.615102 0.493862 
0.339095 0.0675469 0.326587 0.559322 0.770432 
0.14428 0.146686 0.772834 0.445825 0.141538 
0.664314 0.42345 0.214611 0.686422 0.754978 
0.984206 0.315808 0.347957 0.608327 0.214772 
0.0708599 0.818576 0.801969 0.449958 0.124382 
0.359506 0.774755 0.0948337 0.640105 0.331249 
0.989922 0.774717 0.771664 0.606716 0.970968 
0.387869 0.87358 0.560516 0.0193091 0.426456 
0.554518 0.454934 0.163717 0.393846 0.482367 
0.0517451 0.532906 0.698508 0.782461 0.629485 
0.211468 0.819754 0.976906 0.479157 0.901747 
0.674517 0.973274 0.432718 0.238224 0.184382 
0.310262 0.167997 0.709914 0.427228 0.676177 
0.579749 0.0261289 0.332743 0.059982 0.957871 
0.625534 0.0358785 0.247355 0.808862 0.466167 
0.758651 0.909379 0.251959 0.396782 0.0141554 
0.58021 0.825101 0.510974 0.378066 0.789107 
0.926372 0.467389 0.587994 0.134975 0.107105 
0.677692 0.165601 0.693807 0.375149 0.811717 
0.826032 0.965893 0.238251 0.217953 0.0148148 
0.59639 0.160702 0.326945 0.329576 0.017363 
0.364637 0.907102 0.847829 0.575857 0.664836 
0.48019 0.19053 0.856195 0.160523 0.487195 
0.665307 0.0897718 0.916703 0.839824 0.932293 
0.232629 0.702138 1.47222e-05 0.267067 0.92629 
0.359577 0.934924 0.460975 0.587164 0.756194 
0.122592 0.772654 0.0546382 0.797387 0.511931 
0.178694 0.815569 0.222489 0.997028 0.29293 
0.629256 0.910187 0.335156 0.447644 0.0405488 
0.116192 0.531234 0.255707 0.657265 0.946949 
0.497103 0.791969 0.322519 0.668059 0.681512 
0.10339 0.0111289 0.69783 0.4668 0.689007 
0.364554 0.10082 0.664951 0.841143 0.649101 
0.951108 0.615294 0.625387 0.294496 0.445893 
0.464446 0.670916 0.742901 0.991151 0.512007 
0.58676 0.819595 0.799269 0.674223 0.981992 
0.988179 0.85428 0.0206882 0.576532 0.692353 
0.649126 0.129342 0.730196 0.347059 0.623088 
0.47925 0.446604 0.636906 0.794405 0.321067 
0.379358 0.0111111 0.742488 0.558752 0.0340649 
0.964709 0.450385 0.222427 0.993345 0.0690902 
0.439675 0.587147 0.726178 0.451685 0.514213 
0.954008 0.825957 0.720718 0.816912 0.864424 
0.162739 0.994477 0.987857 0.182807 0.391562 
0.401316 0.740785 0.165156 0.48912 0.27256 
0.989534 0.150936 0.763945 0.984963 0.517239 
0.980858 0.556115 0.781266 0.948275 0.454323 
0.221943 0.399506 0.858646 0.433617 0.11446 
0.631845 0.793124 0.20024 0.298279 0.142688 
0.622377 0.0961321 0.175846 0.022421 0.576881 
0.872028 0.617665 0.852086 0.305639 0.172264 
0.47454 0.779744 0.199543 0.913424 0.346292 
0.783389 0.964308 0.306754 0.800331 0.371316 
0.373194 0.920876 0.434718 0.250271 0.775326 
0.306918 0.0934818 0.814306 0.84241 0.300129 
0.155891 0.792548 0.803579 0.199336 0.369347 
0.470289 0.738448 0.758281 0.77818 0.565517 
0.672688 0.346005 0.0979011 0.898535 0.0371894 
0.700096 0.848917 0.138829 0.908536 0.838138 
0.586209 0.358027 0.651737 0.183537 0.443749 
0.292293 0.924893 0.906155 0.267853 0.964289 
0.517369 0.470813 0.934604 0.4928 0.537856 
0.561309 0.986285 0.880333 0.304919 0.663053 
0.24659 0.990163 0.790441 0.629655 0.903138 
0.940202 0.149192 0.350648 0.38122 0.18877 
0.243071 0.902942 0.107004 0.550782 0.0213313 
0.308795 0.324181 0.956938 0.075471 0.767756 
0.684687 0.585015 0.560331 0.415436 0.250039 
0.616416 0.630173 0.105125 0.70988 0.220789 
0.461542 0.272845 0.683412 0.654618 0.174905 
0.257486 0.57476 0.792007 0.0966379 0.927682 
0.598662 0.158732 0.563635 0.991882 0.769381 
0.148344 0.265579 0.0537516 0.419136 0.448834 
0.61808 0.517095 0.979631 0.0134459 0.765872 
0.16734 0.268848 0.729767 0.760684 0.70582 
0.144317 0.497855 0.896222 0.21949 0.820684 
0.927383 0.347488 0.869131 0.699829 0.339366 
0.494361 0.0903311 0.0976759 0.926064 0.944475 
0.280951 0.68877 0.132491 0.061837 0.778725 
0.843525 0.603496 0.924778 0.583955 0.179276 
0.995539 0.407596 0.263355 0.230426 0.918902 
0.619715 0.412515 0.000981443 0.341898 0.365834 
0.722465 0.892366 0.814938 0.287585 0.781966 
0.552519 0.510049 0.599228 0.00996156 0.0432262 
0.605215 0.482157 0.618539 0.666512 0.226568 
0.249161 0.896869 0.974853 0.649216 0.762344 
0.553846 0.811729 0.685792 0.609158 0.786139 
0.0612086 0.342673 0.232053 0.863058 0.250009 
0.100428 0.681764 0.652904 0.357499 0.0312239 
0.0185371 0.268157 0.567755 0.0678694 0.89321 
0.621325 0.314896 0.166552 0.641958 0.0187464 
0.329708 0.719478 0.449413 0.558572 0.514781 
0.11302 0.297897 0.372782 0.213681 0.887048 
0.536185 0.107111 0.133183 0.300963 0.710152 
0.458983 0.259407 0.198103 0.24544 0.772931 
0.341341 0.31162 0.737103 0.717274 0.999498 
0.69653 0.0772935 0.0201617 0.846245 0.435748 
0.626049 0.802878 0.19163 0.855281 0.687511 
0.686895 0.970326 0.330183 0.877472 0.947703 
0.275061 0.483281 0.972569 0.892708 0.90488 
0.385621 0.0271048 0.553542 0.226795 0.30314 
0.557482 0.901329 0.128065 0.633815 0.327517 
0.440893 0.334611 0.201238 0.905522 0.205936 
0.168148 0.892138 0.0438121 0.94026 0.956203 
0.374689 0.59553 0.440198 0.049252 0.480487 
0.978226 0.0789443 0.25314 0.0662856 0.718114 
0.314824 0.719308 0.591903 0.992788 0.690589 
0.208714 0.744011 0.620802 0.259824 0.567847 
0.896297 0.104168 0.0832631 0.28492 0.523295 
0.276212 0.756135 0.89854 0.0183393 0.499845 
0.731069 0.457474 0.405001 0.167966 0.379131 
0.671378 0.124955 0.981232 0.006507 0.108924 
0.177294 0.318588 0.0628427 0.0668699 0.39216 
0.592214 0.712341 0.309975 0.533682 0.725816 
0.865489 0.313221 0.215431 0.664277 0.964734 
0.704375 0.787624 0.341361 0.345089 0.441725 
0.841027 0.0479245 0.677665 0.430138 0.25043 
0.0143925 0.979461 0.775091 0.73155 0.327838 
0.387021 0.466045 0.441735 0.325938 0.244606 
0.222756 0.763358 0.0220995 0.905596 0.534005 
0.0577115 0.0598124 0.548913 0.286806 0.0236856 
0.45649 0.929308 0.169266 0.507427 0.578587 
0.442351 0.104698 0.675147 0.655191 0.749967 
0.846092 0.559822 0.163139 0.848497 0.753927 
0.686008 0.723177 0.619956 0.854436 0.896983 
0.870248 0.272757 0.981403 0.893488 0.0124516 
0.940667 0.0621322 0.933408 0.449528 0.933771 
0.311068 0.134786 0.389264 0.34667 0.741313 
0.758895 0.569094 0.254193 0.755172 0.0154238 
0.424732 0.202932 0.0445025 0.460337 0.846117 
0.501348 0.820999 0.482001 0.66139 0.792512 
0.729984 0.223019 0.577751 0.356805 0.158097 
0.744562 0.964743 0.220036 0.593966 0.701837 
0.438878 0.63993 0.0363602 0.839265 0.528943 
0.3602 0.6178 0.384281 0.0110094 0.218575 
0.306077 0.615844 0.0549761 0.632525 0.2426 
0.752678 0.229027 0.0760035 0.875381 0.172859 
0.0371366 0.692234 0.242972 0.725286 0.145899 
0.589841 0.204007 0.488674 0.0630879 0.780563 
0.903826 0.269575 0.96696 0.366113 0.61599 
0.537938 0.168801 0.0259671 0.9151 0.686946 
0.71375 0.120656 0.11409 0.700075 0.885686 
0.126329 0.755889 0.247367 0.0641522 0.274301 
0.86489 0.926789 0.263882 0.602764 0.734468 
0.753696 0.570923 0.800757 0.199829 0.843915 
0.667883 0.824371 0.771795 0.936174 0.996735 
0.121815 0.737128 0.254774 0.726815 0.156803 
0.0605454 0.185808 0.846632 0.584778 0.11028 
0.753102 0.225289 0.92431 0.5349 0.0387004 
0.593638 0.759411 0.0589313 0.630542 0.336011 
0.934657 0.244212 0.458292 0.888039 0.891633 
0.526662 0.406172 0.306861 0.827276 0.710979 
0.90191 0.941826 0.281583 0.700454 0.161114 
0.789995 0.518613 0.149748 0.364858 0.408921 
0.822901 0.801265 0.584991 0.0245847 0.830676 
0.347298 0.014452 0.200697 0.758767 0.366096 
0.360103 0.146311 0.68226 0.599094 0.571358 
0.820173 0.180384 0.00010624 0.243848 0.563266 
0.970474 0.476056 0.357222 0.924721 0.832942 
0.600638 0.994455 0.903405 0.127012 0.836939 
0.0930722 0.186836 0.423201 0.377639 0.829648 
0.538826 0.451017 0.840776 0.413338 0.696576 
0.403571 0.419084 0.615177 0.945174 0.956957 
0.287843 0.830121 0.0387311 0.784213 0.371148 
0.255959 0.846672 0.121111 0.152821 0.674934 
0.870591 0.579406 0.760119 0.877511 0.878724 
0.0162189 0.948838 0.42144 0.557566 0.244385 
0.869707 0.347759 0.524376 0.0869373 0.927825 
0.0749243 0.283835 0.00666542 0.403768 0.428156 
0.757191 0.605961 0.51287 0.734368 0.680299 
0.832152 0.0435638 0.413243 0.896595 0.134799 
0.942146 0.817615 0.358432 0.74101 0.418155 
0.356981 0.901122 0.701044 0.253277 0.520655 
0.899327 0.916685 0.231656 0.177914 0.658934 
0.4242 0.600696 0.373828 0.248755 0.514984 
0.850157 0.185802 0.959195 0.525273 0.882215 
0.227122 0.226473 0.618222 0.650044 0.744736 
0.0595188 0.196843 0.640703 0.721856 0.887693 
0.438685 0.409657 0.707982 0.270417 0.930192 
0.99577 0.197844 0.581126 0.510826 0.313663 
0.238342 0.205767 0.0544813 0.332201 0.199204 
0.92085 0.954304 0.884405 0.0477195 0.0891953 
0.742244 0.872348 0.0538532 0.757519 0.320371 
0.968393 0.395562 0.536278 0.368868 0.686279 
0.747744 0.172162 0.980649 0.941937 0.655248 
0.134216 0.16336 0.200651 0.956671 0.0129672 
0.391811 0.917059 0.223226 0.946122 0.152285 
0.508847 0.62769 0.99212 0.326922 0.857957 
0.665031 0.806991 0.0772334 0.100963 0.03196 
0.326601 0.967296 0.825782 0.704841 0.286329 
0.366167 0.742891 0.00118383 0.812324 0.634672 
0.628036 0.593702 0.647308 0.253246 0.76343 
0.926131 0.0709989 0.336126 0.600835 0.370354 
0.356071 0.266936 0.222737 0.480434 0.99643 
0.389661 0.337044 0.317926 0.23369 0.140293 
0.684334 0.333184 0.877507 0.650645 0.382433 
0.183661 0.287163 0.497268 0.473403 0.247143 
0.296343 0.354983 0.00475789 0.214315 0.677616 
0.626006 0.982418 0.248439 0.712393 0.527706 
0.629011 0.517882 0.994297 0.418043 0.385152 
0.195572 0.892362 0.741905 0.381085 0.879437 
0.429759 0.369142 0.893325 0.87145 0.500354 
0.162034 0.897871 0.251167 0.372782 0.825132 
0.187674 0.901716 0.568434 0.0535741 0.937709 
0.758199 0.719806 0.933948 0.194791 0.397262 
0.887298 0.0348402 0.866985 0.883389 0.33035 
0.584481 0.646724 0.994136 0.48615 0.200824 
0.794244 0.892083 0.877777 0.905647 0.536461 
0.058234 0.174042 0.580198 0.0689876 0.514176 
0.953076 0.597142 0.739425 0.966271 0.466996 
0.588582 0.603274 0.731406 0.248123 0.765136 
0.51494 0.778693 0.480356 0.691125 0.636507 
0.356087 0.501967 0.469762 0.463848 0.86553 
0.395839 0.629287 0.909009 0.0921833 0.100684 
0.0987669 0.25832 0.229311 0.871819 0.883982 
0.232493 0.0934173 0.332153 0.634601 0.109275 
0.722305 0.2623 0.569162 0.21348 0.623706 
0.294794 0.794711 0.751703 0.407017 0.830065 
0.188122 0.362201 0.040818 0.277902 0.253668 
0.861245 0.52656 0.555955 0.863818 0.648594 
0.686348 0.524516 0.0263722 0.564284 0.144144 
0.00926051 0.920908 0.133361 0.397408 0.240752 
0.564334 0.832926 0.361971 0.370679 0.345899 
0.980215 0.154458 0.230023 0.94776 0.995953 
0.221982 0.488704 0.660463 0.806813 0.444539 
0.533472 0.583417 0.650384 0.700261 0.453875 
0.259693 0.731924 0.121054 0.853589 0.155391 
0.928897 0.337969 0.44597 0.897268 0.311821 
0.451785 0.280756 0.031259 0.374363 0.303335 
0.724929 0.776961 0.612277 0.119779 0.237054 
0.291382 0.422504 0.89657 0.836031 0.0753812 
0.628628 0.680587 0.931805 0.768153 0.0285361 
0.112989 0.74387 0.20079 0.801613 0.0448114 
0.551959 0.256223 0.598908 0.0541291 0.567587 
0.769302 0.069671 0.261958 0.987548 0.444726 
0.897051 0.688066 0.821587 0.79767 0.808516 
0.858442 0.260628 0.708724 0.0798209 0.759538 
0.753407 0.458402 0.27814 0.844666 0.83386 
0.0749174 0.943183 0.554079 0.47727 0.177362 
0.487365 0.941697 0.450476 0.465712 0.921729 
0.518772 0.0659929 0.112329 0.677613 0.425587 
0.290311 0.236418 0.238017 0.295118 0.926116 
0.286944 0.751485 0.837152 0.549262 0.438068 
0.081099 0.123832 0.979201 0.50826 0.490627 
0.318718 0.634793 0.679949 0.170514 0.331499 
0.249249 0.0194447 0.45989 0.405359 0.746344 
0.758721 0.554549 0.552297 0.555425 0.641374 
0.44068 0.321876 0.338226 0.934263 0.919883 
0.999905 0.178809 0.466814 0.0710431 0.56568 
0.0835819 0.816955 0.539336 0.224269 0.613257 
0.329668 0.257043 0.108239 0.695027 0.403923 
0.101637 0.2061 0.0731523 0.771079 0.392339 
0.314238 0.961541 0.917602 0.566252 0.27728 
0.253195 0.610682 0.928831 0.894711 0.612843 
0.816623 0.259045 0.0576431 0.441162 0.687873 
0.352843 0.820096 0.40802 0.0632401 0.50916 
0.366381 0.0853063 0.979444 0.982679 0.454921 
0.442698 0.946606 0.915402 0.715648 0.599112 
0.168562 0.32145 0.147226 0.260105 0.526536 
0.99052 0.392437 0.685799 0.115553 0.891335 
0.152636 0.0493178 0.672765 0.85492 0.659743 
0.0319704 0.343239 0.287446 0.729462 0.623388 
0.906404 0.00264821 0.0852835 0.0895984 0.0199664 
0.275298 0.0746228 0.652946 0.439875 0.836553 
0.669973 0.243182 0.657165 0.296662 0.910872 
0.492258 0.518869 0.840096 0.677425 0.680563 
0.798083 0.343872 0.504564 0.125001 0.780912 
0.2958 0.484497 0.0488495 0.194222 0.566941 
0.585443 0.397235 0.404943 0.788035 0.910171 
0.979464 0.149888 0.861145 0.688722 0.476045 
0.394877 0.097772 0.48554 0.927453 0.289904 
0.977428 0.901072 0.413052 0.365224 0.976093 
0.311277 0.0989712 0.517477 0.976813 0.932778 
0.071904 0.621867 0.520712 0.632189 0.761071 
0.315479 0.3337 0.89803 0.735352 0.0721396 
0.60962 0.52594 0.679297 0.368205 0.41276 
0.49399 0.538457 0.863451 0.309276 0.838513 
0.121092 0.104103 0.83909 0.975225 0.590831 
0.464324 0.0093363 0.0264332 0.857175 0.213872 
0.296636 0.664542 0.356965 0.0101175 0.649091 
0.54437 0.34117 0.947409 0.450417 0.900947 
0.674556 0.499819 0.46532 0.221287 0.609476 
0.105252 0.654899 0.822752 0.891673 0.959002 
0.651977 0.153477 0.748002 0.448727 0.488488 
0.344626 0.741555 0.266042 0.781806 0.995555 
0.123787 0.389506 0.367558 0.976034 0.115233 
0.497908 0.648237 0.576639 0.0491631 0.12858 
0.301988 0.484114 0.933273 0.780934 0.456624 
0.63143 0.36856 0.859134 0.175244 0.294982 
0.749093 0.0343052 0.128598 0.576775 0.197508 
0.616396 0.653421 0.467823 0.147442 0.859183 
0.872709 0.0414797 0.257034 0.989069 0.674498 
0.988263 0.380719 0.93814 0.867101 0.740734 
0.973272 0.0612003 0.60715 0.01509 0.450297 
0.573941 0.292804 0.898399 0.709519 0.0359566 
0.484758 0.889612 0.212719 0.0746891 0.984344 
0.175666 0.654246 0.625643 0.359811 0.964982 
0.506233 0.765462 0.32271 0.203913 0.914499 
0.188517 0.422759 0.940473 0.888508 0.860411 
0.283667 0.497462 0.576303 0.719278 0.0185629 
0.806391 0.955035 0.924373 0.513877 0.556784 
0.706816 0.213916 0.709631 0.857657 0.550534 
0.0134766 0.220003 0.86764 0.328229 0.122219 
0.0143705 0.591487 0.771211 0.22124 0.165938 
0.46123 0.807538 0.43253 0.665866 0.617857 
0.842914 0.0950424 0.020549 0.428992 0.964189 
0.684182 0.86677 0.269318 0.153953 0.152971 
0.695008 0.929626 0.164193 0.260692 0.58457 
0.342501 0.423046 0.366526 0.810934 0.889059 
0.873798 0.466146 0.633424 0.848445 0.988892 
0.970422 0.692134 0.964298 0.604942 0.963048 
0.0501336 0.713836 0.140855 0.251751 0.177868 
0.902326 0.0065399 0.749854 0.557935 0.906166 
0.675485 0.841322 0.196275 0.010539 0.243777 
0.163999 0.51422 0.654035 0.407399 0.20925 
0.601168 0.29345 0.957527 0.600426 0.945087 
0.679133 0.479756 0.106413 0.370266 0.203334 
0.212094 0.00767483 0.601201 0.34748 0.58622 
0.760124 0.945945 0.247617 0.708421 0.945834 
0.884527 0.306064 0.734442 0.114002 0.119915 
0.464 0.542472 0.776791 0.987993 0.437084 
0.255555 0.586965 0.267021 0.734822 0.438756 
0.883574 0.497757 0.516557 0.285049 0.66555 
0.691558 0.70307 0.6365 0.366939 0.545262 
0.852804 0.201624 0.827632 0.892058 0.0903353 
0.590896 0.660289 0.976699 0.0984963 0.0439377 
0.69371 0.4749 0.174397 0.371251 0.671783 
0.854012 0.419549 0.199283 0.547511 0.309361 
0.659977 0.956257 0.399871 0.468411 0.321064 
0.989726 0.879976 0.906315 0.536639 0.649668 
0.835408 0.313942 0.0945532 0.430227 0.558759 
0.640009 0.906758 0.275783 0.0652597 0.64902 
0.0463868 0.274827 0.45494 0.454861 0.805136 
0.640659 0.526858 0.799693 0.599792 0.0651258 
0.191703 0.625007 0.89264 0.150745 0.902552 
0.681394 0.89825 0.313365 0.921338 0.659077 
0.235192 0.0916202 0.913354 0.285096 0.114606 
0.940371 0.396491 0.929509 0.680971 0.0707321 
0.199616 0.769398 0.78819 0.565912 0.138052 
0.948926 0.626966 0.962214 0.499024 0.48882 
0.0796204 0.0169751 0.0771781 0.471505 0.456799 
0.285709 0.766416 0.869508 0.34357 0.523489 
0.698922 0.796628 0.752306 0.845561 0.993788 
0.762193 0.0961277 0.205734 0.0689775 0.711967 
0.238999 0.174459 0.633236 0.987 0.620399 
0.00424063 0.495417 0.57591 0.648358 0.15438 
0.174525 0.498414 0.651088 0.802506 0.413011 
0.6192 0.412747 0.882774 0.28871 0.779264 
0.362925 0.104793 0.618886 0.491355 0.627295 
0.0171271 0.282481 0.500615 0.816959 0.977434 
0.598157 0.498909 0.00384933 0.152911 0.355537 
0.515836 0.853614 0.2986 0.801185 0.255158 
0.138526 0.466591 0.241479 0.479611 0.945187 
0.432844 0.0816508 0.977317 0.57382 0.0477304 
0.287597 0.204858 0.875946 0.839118 0.910375 
0.52033 0.261664 0.690908 0.343181 0.468359 
0.565241 0.0284358 0.345067 0.87673 0.944133 
0.949222 0.60217 0.672985 0.252561 0.368548 
0.513371 0.370644 0.633088 0.1504 0.577478 
0.0504928 0.69503 0.617379 0.76073 0.38861 
0.922548 0.40988 0.460243 0.331752 0.915308 
0.419575 0.494752 0.938228 0.138211 0.602216 
0.800526 0.260352 0.069525 0.329504 0.826818 
0.190146 0.699326 0.112647 0.663232 0.760349 
0.372497 0.470386 0.420321 0.260962 0.557247 
0.386701 0.966136 0.752697 0.776445 0.977015 
0.244408 0.704445 0.422923 0.0104445 0.124577 
0.849856 0.522875 0.654418 0.325017 0.886091 
0.10114 0.53392 0.866799 0.908219 0.894662 
0.0859779 0.532886 0.674568 0.156495 0.208477 
0.698828 0.791549 0.452976 0.68025 0.303324 
0.492623 0.605379 0.436966 0.862387 0.321255 
0.185076 0.700108 0.396667 0.248352 0.422375 
0.594596 0.862175 0.35686 0.912434 0.762466 
0.547161 0.412033 0.957708 0.0593944 0.110491 
0.0925751 0.167328 0.755937 0.123758 0.0973241 
0.514896 0.888073 0.787513 0.991381 0.498879 
0.11901 0.504136 0.613385 0.414677 0.419636 
0.639294 0.325626 0.145104 0.563151 0.18494 
0.560681 0.453559 0.733818 0.740187 0.344163 
0.46494 0.616131 0.167529 0.639586 0.817706 
0.593169 0.600728 0.18429 0.927032 0.110917 
0.993772 0.457892 0.24854 0.083448 0.0913776 
0.281834 0.139476 0.0348375 0.698428 0.81359 
0.89812 0.274775 0.815258 0.832421 0.731616 
0.717826 0.257775 0.620728 0.572037 0.875228 
0.915915 0.382942 0.0310812 0.184505 0.0308626 
0.355029 0.0801073 0.168732 0.55873 0.84028 
0.205427 0.304609 0.0301726 0.3905 0.111427 
0.413581 0.391663 0.554132 0.414843 0.29123 
0.556883 0.672505 0.0545079 0.66403 0.897172 
0.127317 0.143035 0.0227173 0.956184 0.203598 
0.509835 0.870229 0.694315 0.779619 0.461457 
0.2488 0.210339 0.673217 0.869755 0.790494 
0.471325 0.997001 0.587652 0.510742 0.836607 
0.881774 0.0439735 0.10464 0.222321 0.885457 
0.720862 0.886976 0.194121 0.65693 0.895133 
0.662414 0.0220769 0.396589 0.145905 0.7361 
0.253777 0.0676079 0.559724 0.216501 0.0326507 
0.163237 0.106548 0.722605 0.422364 0.00677778 
0.306985 0.0677047 0.922184 0.314158 0.754731 
0.8188 0.518179 0.704947 0.332549 0.643147 
0.330956 0.105943 0.707718 0.556425 0.463343 
0.141309 0.209985 0.618779 0.992812 0.899079 
0.597543 0.829983 0.198943 0.80599 0.0417305 
0.745498 0.836101 0.832566 0.0871256 0.202213 
0.814431 0.861343 0.0597797 0.654759 0.788188 
0.346514 0.409543 0.577245 0.217533 0.091784 
0.0580145 0.561545 0.221395 0.896646 0.0702453 
0.841123 0.493639 0.365944 0.714759 0.260045 
0.388792 0.635379 0.273264 0.950276 0.966033 
0.813721 0.587621 0.723222 0.428838 0.851516 
0.23691 0.894911 0.363938 0.67168 0.556988 
0.374634 0.434541 0.0552135 0.722001 0.686765 
0.023675 0.449777 0.776706 0.248707 0.401673 
0.112386 0.816049 0.0919382 0.419028 0.621622 
0.980533 0.645553 0.220866 0.41655 0.0193528 
0.8476 0.38031 0.255905 0.28746 0.951877 
0.793283 0.197606 0.324607 0.151899 0.215452 
0.869148 0.397148 0.154921 0.389951 0.795575 
0.823554 0.853209 0.179979 0.496762 0.940761 
0.744934 0.944599 0.0835124 0.367772 0.053685 
0.988512 0.967088 0.4898 0.0273139 0.21647 
0.232417 0.152401 0.674722 0.894327 0.031879 
0.405463 0.193826 0.978572 0.043672 0.311172 
0.620143 0.074753 0.833723 0.233582 0.14112 
0.444028 0.844745 0.0130634 0.601079 0.845517 
0.869486 0.101183 0.810767 0.0296678 0.590206 
0.751823 0.367749 0.16891 0.596551 0.650368 
0.568308 0.382223 0.252067 0.534829 0.849694 
0.541061 0.343488 0.421002 0.0933298 0.39745 
0.881249 0.657423 0.64939 0.977565 0.914835 
0.264547 0.21107 0.307318 0.174136 0.737485 
0.998186 0.30337 0.4861 0.234814 0.525562 
0.254543 0.0572669 0.31256 0.595437 0.778095 
0.192283 0.863384 0.263746 0.92697 0.151223 
0.600807 0.366459 0.389794 0.699325 0.56064 
