1100 5
0.240323 0.839168 0.935593 0.300506 0.820569 
0.303189 0.729659 0.197474 0.881175 0.264853 
0.400391 0.669968 0.489142 0.105353 0.699903 
0.133561 0.846739 0.145496 0.751943 0.229187 
0.479471 0.541563 0.113794 0.733325 0.673017 
0.477518 0.553215 0.116196 0.070078 0.517628 
0.767765 0.742561 0.108918 0.0284793 0.867981 
0.326172 0.29652 0.530204 0.470338 0.810456 
0.550337 0.855728 0.969423 0.9586 0.521412 
0.298351 0.205069 0.217312 0.728325 0.444532 
0.35602 0.837065 0.798943 0.945544 0.451205 
0.557225 0.639385 0.555536 0.82597 0.442824 
0.738051 0.173169 0.884317 0.292934 0.473807 
0.400059 0.534968 0.0545881 0.825267 0.925824 
0.830734 0.954341 0.611111 0.659172 0.178353 
0.52833 0.600534 0.104014 0.308799 0.24879 
0.953192 0.482896 0.261412 0.286168 0.924379 
0.727653 0.305233 0.648205 0.849471 0.304957 
0.344522 0.0615018 0.733148 0.223495 0.427514 
0.544188 0.27545 0.0531764 0.299844 0.10613 
0.981209 0.189148 0.14107 0.189637 0.415175 
0.516733 0.0517017 0.650854 0.629805 0.26969 
0.177836 0.0383114 0.723602 0.764876 0.665669 
0.945058 0.962179 0.766375 0.101583 0.751549 
0.92473 0.609787 0.374942 0.379563 0.386308 
0.939925 0.0438147 0.129914 0.908757 0.362619 
0.73687 0.786416 0.695899 0.21066 0.100256 
0.897169 0.999163 0.25331 0.334205 0.218186 
0.955242 0.996179 0.254563 0.462366 0.85373 
0.741695 0.066191 0.0947306 0.604767 0.407791 
0.368375 0.282468 0.442048 0.715967 0.786152 
0.0595059 0.00683622 0.912853 0.616891 0.854503 
0.184009 0.333798 0.599439 0.418355 0.569043 
0.536906 0.890625 0.19309 0.325273 0.996967 
0.651704 0.0120496 0.989749 0.718525 0.721396 
0.428786 0.482417 0.938273 0.0931689 0.308597 
0.450904 0.689821 0.00551513 0.551217 0.525252 
0.696276 0.157316 0.984247 0.699705 0.488895 
0.256691 0.427196 0.820908 0.329888 0.496658 
0.914881 0.172345 0.439869 0.856928 0.637588 
0.539503 0.882849 0.847069 0.940895 0.0997412 
0.658406 0.970219 0.0237609 0.373685 0.851627 
0.229241 0.0468625 0.970618 0.178597 0.430901 
0.25139 0.198821 0.634696 0.526448 0.209418 
0.119392 0.217273 0.329171 0.406163 0.120342 
0.319392 0.748478 0.942483 0.848179 0.100227 
0.0333602 0.8257 0.793276 0.47558 0.158645 
0.963305 0.0607581 0.45387 0.524681 0.996153 
0.706302 0.894124 0.107174 0.0825799 0.309701 
0.409335 0.325308 0.0645001 0.643163 0.931621 
0.198349 0.851644 0.280834 0.259417 0.0582771 
0.0235642 0.0779971 0.813823 0.543041 0.14858 
0.19137 0.0635445 0.706119 0.62529 0.587806 
0.339076 0.971685 0.45949 0.787647 0.742544 
0.285863 0.138293 0.388245 0.578095 0.218992 
0.765986 0.619384 0.115329 0.910517 0.884478 
0.0122574 0.46855 0.154912 0.205568 0.03942 
0.454105 0.982922 0.196479 0.949855 0.340324 
0.251077 0.328836 0.726433 0.132816 0.775229 
0.222335 0.716573 0.257131 0.377327 0.377708 
0.465084 0.87782 0.702123 0.0584705 0.652006 
0.0850131 0.392766 0.840508 0.323854 0.940846 
0.226473 0.376266 0.415644 0.154989 0.427331 
0.280154 0.229966 0.380283 0.407356 0.219594 
0.500681 0.658617 0.329662 0.469959 0.79697 
0.116572 0.808977 0.932134 0.456314 0.358695 
0.239635 0.273166 0.433628 0.0650388 0.859123 
0.996371 0.303023 0.541681 0.479049 0.57119 
0.730763 0.183578 0.157376 0.015358 0.738369 
0.665118 0.31122 0.398974 0.808725 0.020475 
0.317852 0.874809 0.507742 0.255611 0.489054 
0.836778 0.78935 0.98699 0.915209 0.204117 
0.465868 0.710804 0.118303 0.103418 0.208114 
0.739566 0.700164 0.0534644 0.1335 0.303752 
0.965543 0.138932 0.955824 0.0231484 0.80322 
0.518012 0.539804 0.252443 0.405152 0.246498 
0.0791817 0.580264 0.00850415 0.832647 0.152728 
0.470916 0.648424 0.488708 0.946461 0.0269473 
0.753893 0.108158 0.888383 0.709143 0.988907 
0.701945 0.370875 0.628457 0.728457 0.179468 
0.642536 0.572268 0.888678 0.294767 0.119969 
0.285123 0.852192 0.613339 0.594655 0.634052 
0.259644 0.369053 0.564807 0.306641 0.834396 
0.0563817 0.844321 0.699479 0.794166 0.208299 
0.234061 0.399105 0.0319926 0.94682 0.951953 
0.596318 0.101058 0.466634 0.0236467 0.438387 
0.507297 0.289645 0.617677 0.908804 0.446607 
0.987939 0.81127 0.810151 0.292229 0.109601 
0.877439 0.632526 0.0828831 0.23614 0.459657 
0.144801 0.187063 0.0178255 0.834563 0.0802877 
0.0246193 0.651376 0.666029 0.259463 0.0936352 
0.513221 0.562428 0.734985 0.622964 0.709985 
0.173945 0.185884 0.139156 0.486926 0.178983 
0.33283 0.698369 0.763631 0.466052 0.932233 
0.281808 0.45054 0.622428 0.0642863 0.172418 
0.980546 0.735333 0.421482 0.719522 0.097795 
0.238387 0.341374 0.513329 0.626355 0.167954 
0.264756 0.803786 0.0827998 0.542043 0.177115 
0.399583 0.66903 0.523314 0.860641 0.323227 
0.97862 0.685452 0.372611 0.723299 0.883407 
0.209024 0.129406 0.159427 0.244558 0.666786 
0.782421 0.67226 0.593483 0.939029 0.663691 
0.257589 0.658709 0.922854 0.278577 0.40108 
0.150346 0.165751 0.846043 0.798314 0.246472 
0.455061 0.638766 0.448697 0.471055 0.682773 
0.991173 0.0559117 0.63068 0.534788 0.787778 
0.393504 0.367066 0.996106 0.0553223 0.944407 
0.364916 0.680525 0.56495 0.0126728 0.901219 
0.378333 0.858785 0.369865 0.754124 0.41266 
0.718329 0.127756 0.308513 0.426624 0.665319 
0.219068 0.779821 0.283387 0.669803 0.391325 
0.297021 0.452385 0.0757171 0.229403 0.609395 
0.194818 0.947066 0.839164 0.291403 0.0241118 
0.69595 0.133497 0.442921 0.244911 0.817138 
0.54463 0.356748 0.590961 0.175397 0.484258 
0.78428 0.590818 0.74417 0.691754 0.637647 
0.864058 0.105076 0.0256588 0.801769 0.337879 
0.638174 0.49466 0.684754 0.203693 0.504897 
0.927112 0.401547 0.539132 0.0640816 0.0783951 
0.282295 0.325868 0.727969 0.425111 0.445178 
0.146082 0.522012 0.99857 0.210712 0.870948 
0.115568 0.507537 0.0946824 0.0219975 0.317082 
0.193669 0.499842 0.952173 0.0215461 0.581078 
0.0228642 0.324124 0.170391 0.892685 0.0466328 
0.190745 0.953771 0.831502 0.976702 0.139284 
0.734076 0.842781 0.127342 0.12147 0.247214 
0.547899 0.478042 0.509906 0.61803 0.694536 
0.969338 0.113896 0.871061 0.987815 0.703092 
0.0216157 0.684265 0.563214 0.876061 0.753902 
0.294531 0.749927 0.4199 0.140414 0.801135 
0.718464 0.440849 0.952959 0.88038 0.349011 
0.691023 0.323143 0.145835 0.141957 0.077435 
0.155518 0.216855 0.937754 0.141559 0.734008 
0.0729754 0.587113 0.305766 0.473993 0.122018 
0.318283 0.110412 0.271177 0.993263 0.850252 
0.148585 0.625943 0.887071 0.244518 0.274428 
0.824856 0.53685 0.483635 0.258125 0.30612 
0.558722 0.00164059 0.105868 0.190801 0.336344 
0.125885 0.304969 0.988546 0.0793398 0.91481 
0.489075 0.0404259 0.814028 0.414184 0.864537 
0.962728 0.970912 0.895206 0.603592 0.125502 
0.648547 0.330046 0.390814 0.050008 0.636796 
0.0216108 0.222034 0.250598 0.795994 0.150253 
0.701778 0.905628 0.0505277 0.315709 0.41476 
0.307963 0.121715 0.00573633 0.641516 0.258964 
0.816585 0.688265 0.618867 0.211615 0.0624885 
0.527648 0.402262 0.091119 0.5281 0.0444149 
0.832413 0.805195 0.405488 0.24503 0.0221307 
0.105214 0.326704 0.734421 0.539495 0.584168 
0.854844 0.378282 0.662093 0.688851 0.656012 
0.0834701 0.993922 0.773064 0.973636 0.906408 
0.450351 0.884777 0.0498538 0.599161 0.849484 
0.307335 0.262349 0.17674 0.952927 0.521743 
0.353547 0.239153 0.572706 0.226627 0.390429 
0.453685 0.35424 0.99181 0.148787 0.730426 
0.804888 0.0267466 0.266649 0.850514 0.890425 
0.300417 0.582672 0.590691 0.156219 0.0698375 
0.313112 0.166811 0.310657 0.734514 0.507978 
0.758298 0.964422 0.700078 0.726125 0.892818 
0.28391 0.299391 0.842021 0.427852 0.47869 
0.234802 0.650586 0.297599 0.4634 0.951744 
0.186603 0.940803 0.605774 0.736252 0.0527106 
0.983854 0.581236 0.806959 0.0237488 0.749279 
0.0773685 0.662504 0.338812 0.968834 0.90454 
0.424904 0.835856 0.302734 0.298111 0.23298 
0.0530799 0.838527 0.0325591 0.214252 0.437415 
0.0587565 0.871084 0.189636 0.095764 0.69974 
0.889965 0.836717 0.527854 0.549074 0.455993 
0.439858 0.366607 0.810438 0.525249 0.406908 
0.434841 0.973874 0.266851 0.925238 0.124305 
0.782499 0.158689 0.503826 0.910557 0.0218764 
0.484694 0.293386 0.00149546 0.329161 0.405436 
0.727078 0.513777 0.494573 0.0837136 0.0232566 
0.991887 0.369779 0.415817 0.830626 0.684506 
0.447367 0.778491 0.97204 0.110035 0.209984 
0.368401 0.278936 0.804124 0.986382 0.110533 
0.511393 0.195841 0.956491 0.208554 0.508062 
0.128449 0.0830778 0.159307 0.465827 0.144627 
0.750116 0.387966 0.926803 0.980753 0.40586 
0.875913 0.646113 0.0526692 0.822264 0.930531 
0.251385 0.740686 0.375846 0.0862423 0.0703474 
0.896935 0.588261 0.70129 0.962085 0.252534 
0.962069 0.926849 0.345292 0.200752 0.427236 
0.186801 0.846544 0.235881 0.954001 0.934723 
0.425653 0.85939 0.319178 0.227194 0.0077632 
0.219654 0.881966 0.206754 0.697615 0.618747 
0.94575 0.242435 0.758574 0.298239 0.645014 
0.0763507 0.632596 0.0707387 0.872978 0.863881 
0.272036 0.268128 0.215727 0.602182 0.0724556 
0.0378224 0.0113476 0.316535 0.884077 0.294112 
0.354822 0.945775 0.504535 0.905848 0.525354 
0.606959 0.799779 0.341768 0.848409 0.168087 
0.395287 0.178378 0.55489 0.883039 0.686651 
0.41424 0.0914871 0.152888 0.986024 0.844857 
0.280532 0.407018 0.822871 0.933701 0.206764 
0.789208 0.799009 0.889184 0.119932 0.706757 
0.882353 0.287365 0.00385576 0.294035 0.714455 
0.82417 0.901466 0.275045 0.995796 0.289127 
0.111334 0.908995 0.513481 0.0577846 0.517671 
0.105429 0.00325066 0.225449 0.485463 0.361845 
0.919591 0.90121 0.458571 0.54069 0.12283 
0.785462 0.476769 0.276916 0.194712 0.870595 
0.304014 0.672061 0.150903 0.827226 0.831024 
0.671869 0.0793982 0.262821 0.291562 0.100248 
0.277349 0.645488 0.356841 0.148004 0.646656 
0.47356 0.40518 0.92668 0.209184 0.433268 
0.671202 0.750107 0.60233 0.533404 0.551062 
0.0157654 0.264742 0.548285 0.323387 0.405408 
0.421229 0.333089 0.781117 0.240275 0.847023 
0.394906 0.611017 0.485797 0.132604 0.60247 
0.451569 0.66576 0.360423 0.472962 0.979752 
0.166094 0.157428 0.494573 0.499706 0.544716 
0.520799 0.128925 0.071629 0.614172 0.701491 
0.582218 0.794295 0.235205 0.43068 0.836887 
0.866882 0.872296 0.99734 0.803902 0.83268 
0.540607 0.65487 0.759896 0.142704 0.659379 
0.170599 0.531864 0.360914 0.348646 0.0286762 
0.455979 0.0568344 0.722599 0.855411 0.325543 
0.208517 0.0771964 0.799582 0.452433 0.71234 
0.607833 0.850937 0.665542 0.51414 0.815823 
0.575248 0.727245 0.202405 0.631699 0.477472 
0.355601 0.98285 0.54597 0.130118 0.85305 
0.347013 0.281868 0.511492 0.67044 0.898058 
0.309414 0.622916 0.988561 0.249271 0.510862 
0.959015 0.734926 0.726351 0.228733 0.620222 
0.0757881 0.145305 0.18955 0.275105 0.0428985 
0.179204 0.138487 0.748404 0.64237 0.922481 
0.887687 0.18157 0.765892 0.997528 0.781698 
0.786119 0.296212 0.786853 0.206303 0.542249 
0.750589 0.909482 0.275247 0.64473 0.0838053 
0.760754 0.120615 0.463391 0.57369 0.492432 
0.0177978 0.365479 0.812006 0.983159 0.901418 
0.850518 0.508199 0.00531659 0.415996 0.464156 
0.495596 0.545125 0.117858 0.775824 0.802065 
0.885222 0.728727 0.18239 0.494203 0.0167416 
0.344781 0.610158 0.372295 0.17101 0.781917 
0.00790312 0.389846 0.971195 0.116371 0.564507 
0.417369 0.199175 0.725715 0.480782 0.635364 
0.819721 0.79576 0.555224 0.24104 0.244584 
0.661329 0.263287 0.838964 0.806904 0.467498 
0.479444 0.182316 0.360711 0.375963 0.632024 
0.985677 0.381558 0.636889 0.934208 0.367512 
0.0304649 0.890501 0.0605588 0.449136 0.758069 
0.776277 0.746143 0.720326 0.991953 0.87732 
0.446001 0.852064 0.294619 0.479396 0.727024 
0.489026 0.239134 0.623074 0.494831 0.991134 
0.168091 0.147658 0.439464 0.870917 0.769885 
0.525393 0.94454 0.540375 0.196702 0.948834 
0.312955 0.177163 0.753984 0.729396 0.591219 
0.264527 0.806033 0.0968867 0.0786265 0.202779 
0.634547 0.862302 0.983582 0.813415 0.484605 
0.945968 0.832334 0.421006 0.860531 0.157069 
0.61108 0.463685 0.347253 0.468438 0.636623 
0.290797 0.129759 0.620993 0.804663 0.640867 
0.113172 0.727164 0.0829213 0.456104 0.885079 
0.0264403 0.714188 0.246796 0.999469 0.852056 
0.0920503 0.354707 0.917521 0.27217 0.304713 
0.480926 0.156263 0.880453 0.0279476 0.0607267 
0.641755 0.93699 0.100847 0.871341 0.0949782 
0.701936 0.416346 0.993872 0.196005 0.212359 
0.229861 0.041627 0.48647 0.329254 0.673248 
0.259573 0.456449 0.495769 0.327099 0.837652 
0.550988 0.806426 0.648224 0.992484 0.365705 
0.476762 0.607155 0.564725 0.897782 0.289055 
0.338168 0.680063 0.993956 0.566685 0.266178 
0.630027 0.428405 0.988774 0.845029 0.356616 
0.76428 0.420769 0.958028 0.773445 0.689106 
0.66058 0.305325 0.546471 0.756515 0.235745 
0.117726 0.62761 0.370787 0.657692 0.293267 
0.851024 0.418086 0.734807 0.88378 0.0543037 
0.206527 0.762442 0.00706125 0.977691 0.699093 
0.733694 0.444005 0.991311 0.427881 0.345701 
0.846147 0.0515266 0.14773 0.27114 0.547098 
0.33962 0.645749 0.233207 0.693507 0.522658 
0.841355 0.491345 0.162688 0.446413 0.548299 
0.797204 0.185449 0.820122 0.412405 0.365954 
0.618173 0.250025 0.0723775 0.603047 0.397163 
0.273751 0.710915 0.917876 0.964647 0.245052 
0.955116 0.208236 0.120761 0.194028 0.298963 
0.261769 0.801368 0.0453156 0.954518 0.40711 
0.0839739 0.291274 0.760405 0.86945 0.987895 
0.114333 0.755929 0.614535 0.993463 0.0832309 
0.131669 0.840248 0.478806 0.888076 0.430978 
0.957294 0.682258 0.210026 0.394047 0.318637 
0.492075 0.530156 0.260397 0.867345 0.858417 
0.482691 0.0751602 0.458421 0.205651 0.204411 
0.332008 0.719747 0.515215 0.198012 0.609723 
0.842209 0.573887 0.181246 0.078906 0.326175 
0.280072 0.40588 0.25649 0.876022 0.194734 
0.949267 0.826144 0.0460134 0.379663 0.260174 
0.631923 0.00232155 0.363373 0.968458 0.83928 
0.00156331 0.000642833 0.0959527 0.847228 0.304687 
0.0816549 0.00368613 0.146857 0.777275 0.327172 
0.839119 0.601862 0.392148 0.39146 0.404706 
0.372014 0.79279 0.091065 0.473983 0.855756 
0.479973 0.592746 0.207367 0.820117 0.756678 
0.771441 0.263583 0.561224 0.0626694 0.86231 
0.58759 0.743989 0.961866 0.867117 0.813379 
0.18136 0.832443 0.247759 0.955702 0.777022 
0.886055 0.841962 0.58141 0.485377 0.911796 
0.760415 0.619479 0.549729 0.251352 0.857869 
0.13661 0.442128 0.486965 0.121004 0.72915 
0.612364 0.342875 0.0421098 0.242328 0.770772 
0.933835 0.476539 0.0936001 0.106164 0.553722 
0.91982 0.92612 0.110228 0.520187 0.955593 
0.248742 0.828048 0.132902 0.653425 0.799358 
0.10697 0.157845 0.620669 0.00835572 0.590896 
0.782917 0.0305174 0.398451 0.577917 0.915705 
0.739407 0.231934 0.267262 0.944044 0.207948 
0.0346875 0.542975 0.540203 0.487547 0.510691 
0.207691 0.474787 0.643783 0.186334 0.422156 
0.000561072 0.085875 0.359086 0.607772 0.615372 
0.76129 0.122379 0.628571 0.204365 0.25418 
0.536195 0.0414453 0.189229 0.827379 0.0120716 
0.981808 0.252208 0.887776 0.726786 0.458289 
0.439389 0.0835146 0.267426 0.130053 0.932536 
0.614292 0.459902 0.580889 0.346923 0.235279 
0.403673 0.298565 0.300395 0.218905 0.177962 
0.609089 0.250555 0.762471 0.105955 0.488993 
0.0900183 0.903183 0.217251 0.192196 0.148766 
0.133211 0.00346392 0.0707268 0.343128 0.458898 
0.33212 0.0988735 0.522555 0.0842037 0.0267716 
0.0465758 0.63844 0.46412 0.246188 0.332838 
0.310258 0.147999 0.352044 0.251674 0.567197 
0.596331 0.666006 0.319855 0.282511 0.0686747 
0.87149 0.744554 0.480201 0.356434 0.803404 
0.511471 0.413356 0.668527 0.77737 0.996669 
0.438366 0.212907 0.44671 0.459497 0.805915 
0.583828 0.271147 0.890549 0.0916757 0.360923 
0.499023 0.823328 0.514043 0.063052 0.116887 
0.164869 0.794886 0.116929 0.073484 0.769444 
0.324829 0.142484 0.142485 0.994329 0.730402 
0.284327 0.0688903 0.758377 0.18227 0.0710511 
0.171618 0.166692 0.781222 0.759138 0.165313 
0.0601098 0.5167 0.558483 0.546696 0.157091 
0.0367536 0.657706 0.249244 0.0752054 0.725985 
0.338152 0.679988 0.788567 0.0965904 0.670032 
0.781031 0.307983 0.16611 0.357961 0.867206 
0.35099 0.031068 0.671511 0.187582 0.0334801 
0.955772 0.21619 0.391798 0.80072 0.594098 
0.667255 0.821069 0.140044 0.232698 0.00912724 
0.21141 0.69556 0.904701 0.49359 0.183323 
0.783896 0.179279 0.404446 0.529127 0.431305 
0.664035 0.496858 0.367044 0.259131 0.343977 
0.553877 0.30944 0.390611 0.511953 0.863609 
0.491482 0.786472 0.661803 0.13872 0.641983 
0.544636 0.638444 0.714813 0.834599 0.285814 
0.249399 0.335137 0.594232 0.84521 0.434744 
0.955663 0.482212 0.00179479 0.864785 0.102027 
0.112722 0.288881 0.918933 0.498909 0.730144 
0.653732 0.942399 0.155675 0.342878 0.41662 
0.262957 0.694439 0.978843 0.229367 0.42088 
0.844974 0.0213119 0.534751 0.259357 0.0898938 
0.229119 0.965855 0.246274 0.421454 0.900762 
0.592482 0.149141 0.860858 0.661687 0.829552 
0.493008 0.745834 0.472359 0.199606 0.630064 
0.644616 0.993664 0.744327 0.595416 0.737041 
0.717994 0.71951 0.71092 0.845273 0.289844 
0.842721 0.626458 0.0512757 0.272312 0.134284 
0.352276 0.458612 0.742432 0.938824 0.932385 
0.742826 0.0913696 0.950967 0.947941 0.329768 
0.360022 0.0671 0.828442 0.402074 0.53458 
0.162524 0.0178957 0.505549 0.851316 0.519473 
0.325545 0.259957 0.887745 0.68933 0.689792 
0.828743 0.744816 0.382135 0.454234 0.853853 
0.947531 0.427202 0.36408 0.301885 0.0220644 
0.888379 0.208727 0.659176 0.239353 0.349143 
0.65592 0.126033 0.836233 0.274241 0.309843 
0.945489 0.746837 0.0850076 0.384178 0.159946 
0.127505 0.889659 0.794242 0.327106 0.270471 
0.725961 0.933922 0.3934 0.786195 0.770106 
0.205956 0.918124 0.90955 0.747395 0.626618 
0.846656 0.776946 0.774504 0.151435 0.590448 
0.794863 0.718751 0.326578 0.0143117 0.114974 
0.480486 0.46985 0.641926 0.647728 0.192273 
0.311724 0.621286 0.450002 0.889099 0.787271 
0.675315 0.83976 0.348713 0.210895 0.542734 
0.609504 0.177907 0.578323 0.266791 0.877214 
0.442754 0.48605 0.417268 0.23207 0.365689 
0.816182 0.104594 0.322452 0.502636 0.201592 
0.866419 0.400869 0.682251 0.962061 0.507264 
0.908393 0.690672 0.758755 0.388668 0.57265 
0.0346745 0.189315 0.184708 0.235876 0.801261 
0.822085 0.96522 0.463558 0.829738 0.232705 
0.736871 0.0510163 0.160364 0.0690067 0.165462 
0.102203 0.882814 0.403782 0.969414 0.328324 
0.537817 0.819175 0.781427 0.972357 0.045642 
0.149193 0.974886 0.491935 0.905976 0.640736 
0.390946 0.326667 0.452293 0.902492 0.72513 
0.985682 0.664676 0.993256 0.831525 0.181582 
0.0441704 0.890203 0.113198 0.0374512 0.671246 
0.558835 0.0363506 0.760926 0.667934 0.559813 
0.976496 0.426497 0.756681 0.37349 0.823029 
0.819998 0.129445 0.196347 0.819873 0.633947 
0.331588 0.606164 0.488209 0.907464 0.0245858 
0.302045 0.593283 0.24361 0.636613 0.303049 
0.816284 0.228908 0.777229 0.750019 0.834108 
0.576081 0.776469 0.00348969 0.557133 0.29132 
0.762624 0.220394 0.254881 0.41783 0.528013 
0.660998 0.924084 0.953816 0.10242 0.157046 
0.72325 0.727883 0.639804 0.633206 0.60066 
0.469388 0.949788 0.912781 0.647296 0.0870616 
0.140299 0.755881 0.0209906 0.606961 0.0699329 
0.786703 0.447522 0.710819 0.274299 0.572534 
0.902326 0.736535 0.394163 0.27073 0.452661 
0.934632 0.277872 0.834148 0.934966 0.708922 
0.344698 0.657776 0.068811 0.804227 0.844265 
0.156114 0.943212 0.767874 0.842926 0.428743 
0.0526147 0.548621 0.59668 0.144339 0.282483 
0.856575 0.867907 0.271718 0.492609 0.787709 
0.204073 0.427849 0.0626723 0.56549 0.684611 
0.906268 0.387014 0.3694 0.0389563 0.381898 
0.36898 0.162619 0.103332 0.581772 0.369083 
0.862889 0.269508 0.254259 0.872736 0.685425 
0.807854 0.324216 0.268151 0.937928 0.464029 
0.986039 0.997453 0.958725 0.768766 0.468654 
0.505326 0.603425 0.547029 0.641985 0.411525 
0.642025 0.66012 0.737253 0.107271 0.208558 
0.585323 0.64823 0.482448 0.282828 0.00272007 
0.453772 0.423314 0.646357 0.273656 0.662213 
0.746424 0.899191 0.0300537 0.220893 0.875269 
0.295492 0.342094 0.624061 0.329476 0.124465 
0.648143 0.442038 0.671536 0.443043 0.72051 
0.304251 0.531543 0.323618 0.385923 0.663987 
0.906129 0.60801 0.486305 0.782381 0.285071 
0.947786 0.530694 0.395461 0.374779 0.760293 
0.821693 0.743371 0.0551528 0.300695 0.0145781 
0.226145 0.163061 0.395984 0.41496 0.563978 
0.0129681 0.513697 0.0547162 0.45269 0.771319 
0.990017 0.468321 0.5694 0.394055 0.261714 
0.300015 0.891963 0.313802 0.197761 0.555072 
0.223213 0.683045 0.563288 0.971312 0.281801 
0.769203 0.439352 0.612604 0.483904 0.662099 
0.0570066 0.134606 0.0211756 0.276492 0.147086 
0.122432 0.104253 0.551109 0.126988 0.0294127 
0.789943 0.71569 0.244094 0.52645 0.244979 
0.34053 0.599466 0.542559 0.291191 0.0477902 
0.129224 0.0590177 0.749986 0.146461 0.766431 
0.477292 0.582907 0.690526 0.725633 0.683491 
0.624698 0.719355 0.127219 0.759802 0.51182 
0.212398 0.81618 0.121699 0.998818 0.908356 
0.00627089 0.890859 0.301204 0.163264 0.12268 
0.714064 0.994786 0.978999 0.875685 0.245445 
0.991276 0.888892 0.963473 0.855034 0.782675 
0.267537 0.214269 0.0542051 0.127246 0.00656458 
0.206618 0.923181 0.541801 0.0674824 0.333694 
0.947636 0.0887486 0.507626 0.1403 0.523971 
0.382545 0.186071 0.442964 0.416006 0.342997 
0.913153 0.116584 0.758289 0.145941 0.570838 
0.15968 0.520874 0.548572 0.009541 0.746292 
0.0460935 0.895751 0.581511 0.201668 0.510537 
0.920125 0.989381 0.406116 0.60433 0.407022 
0.904941 0.934876 0.585402 0.85128 0.299346 
0.497144 0.823188 0.170363 0.989956 0.75379 
0.332315 0.0767455 0.511988 0.208213 0.0515844 
0.139326 0.616744 0.701924 0.259628 0.324046 
0.292063 0.299622 0.437488 0.973784 0.164489 
0.285445 0.774257 0.947466 0.0875461 0.115821 
0.130491 0.782641 0.00635695 0.231101 0.404147 
0.462183 0.76334 0.822449 0.13901 0.44138 
0.855454 0.565125 0.573262 0.0325684 0.199171 
0.514766 0.194629 0.530328 0.125048 0.525291 
0.818469 0.743439 0.974667 0.0635388 0.268264 
0.56965 0.941364 0.190733 0.153005 0.467356 
0.0093352 0.0742038 0.168892 0.787643 0.3828 
0.190348 0.184973 0.269692 0.706159 0.504452 
0.405783 0.220466 0.94587 0.301489 0.697291 
0.299697 0.648169 0.546948 0.598234 0.613744 
0.21404 0.673729 0.0628972 0.157077 0.574704 
0.826545 0.5537 0.0224408 0.651397 0.662877 
0.369048 0.979619 0.716187 0.241844 0.946892 
0.872124 0.188078 0.979232 0.11131 0.276917 
0.445503 0.379281 0.20572 0.16816 0.251693 
0.717363 0.863666 0.993375 0.31229 0.367896 
0.559138 0.697475 0.975619 0.421442 0.0145346 
0.145944 0.686695 0.00499187 0.56396 0.0560331 
0.742192 0.560236 0.352361 0.47539 0.945237 
0.96083 0.779554 0.67652 0.732307 0.444302 
0.484193 0.966606 0.0194916 0.438827 0.187928 
0.891321 0.343021 0.763252 0.866749 0.273771 
0.478598 0.70067 0.420504 0.893669 0.29746 
0.280572 0.214107 0.711249 0.428745 0.899952 
0.354973 0.703768 0.952095 0.894548 0.932814 
0.0944627 0.341734 0.625079 0.0818637 0.731605 
0.519757 0.528216 0.607178 0.952291 0.408868 
0.660306 0.647329 0.427945 0.884754 0.842182 
0.691631 0.19649 0.251865 0.131804 0.243627 
0.849231 0.175917 0.751123 0.55527 0.082694 
0.565375 0.147285 0.79961 0.857314 0.253746 
0.092305 0.150343 0.696726 0.287575 0.853788 
0.253241 0.363201 0.460651 0.275293 0.800895 
0.552797 0.747255 0.635167 0.986154 0.726821 
0.792409 0.136736 0.491529 0.196435 0.767975 
0.00978118 0.272897 0.698455 0.925511 0.265827 
0.327146 0.868545 0.194205 0.945909 0.229278 
0.183455 0.841696 0.278285 0.680794 0.425104 
0.347298 0.375148 0.981869 0.0746981 0.595458 
0.298754 0.241323 0.0994529 0.735598 0.809069 
0.415598 0.525272 0.919675 0.382055 0.701169 
0.510411 0.936451 0.869463 0.414014 0.655037 
0.183285 0.902264 0.130957 0.765635 0.233635 
0.370672 0.795228 0.297949 0.918261 0.363467 
0.783299 0.109672 0.222663 0.127031 0.5863 
0.876461 0.620989 0.00114663 0.296163 0.805092 
0.411719 0.856676 0.119497 0.499988 0.468895 
0.374366 0.939093 0.426257 0.655545 0.471349 
0.754478 0.326725 0.409631 0.952881 0.384172 
0.127768 0.865505 0.397211 0.879589 0.878918 
0.897423 0.109261 0.77257 0.625672 0.899665 
0.859125 0.20959 0.97772 0.324619 0.56781 
0.112256 0.738129 0.090613 0.587496 0.245573 
0.138252 0.0194371 0.87296 0.996758 0.843865 
0.398086 0.981455 0.893879 0.587837 0.712647 
0.361263 0.371598 0.437867 0.487347 0.336563 
0.122283 0.0878682 0.581667 0.637835 0.547258 
0.938058 0.030486 0.273892 0.0581683 0.764569 
0.689427 0.043184 0.81072 0.143965 0.949827 
0.655996 0.875243 0.57779 0.137692 0.145783 
0.350577 0.327712 0.767866 0.187702 0.31122 
0.205355 0.671145 0.244745 0.999875 0.441792 
0.859218 0.512721 0.208003 0.216257 0.889137 
0.157852 0.417346 0.662629 0.919985 0.575205 
0.255002 0.579026 0.979586 0.124181 0.791524 
0.808534 0.228844 0.232764 0.0356015 0.694964 
0.00266216 0.20649 0.586197 0.98321 0.00288733 
0.961103 0.791386 0.407293 0.583593 0.48476 
0.820778 0.447305 0.52194 0.000859036 0.286188 
0.777308 0.0187466 0.321447 0.600992 0.708203 
0.778165 0.684638 0.712252 0.130875 0.208804 
0.673818 0.675447 0.196751 0.682101 0.567524 
0.907645 0.952184 0.871891 0.573027 0.557877 
0.990906 0.307164 0.66985 0.535722 0.0390344 
0.900709 0.417477 0.517669 0.383752 0.398956 
0.0948772 0.413729 0.597778 0.611403 0.571435 
0.439485 0.473559 0.0956776 0.859181 0.684975 
0.736213 0.847044 0.165291 0.70585 0.138076 
0.743667 0.385731 0.533596 0.247673 0.0761744 
0.776905 0.860669 0.568529 0.836083 0.0334906 
0.0594194 0.365281 0.559121 0.876724 0.581552 
0.191331 0.986337 0.782678 0.982452 0.412913 
0.761202 0.385496 0.814814 0.144836 0.457903 
0.731523 0.923481 0.446425 0.237374 0.0991212 
0.404451 0.155558 0.264581 0.00854857 0.635725 
0.0386208 0.337449 0.911267 0.402902 0.688012 
0.17097 0.955052 0.998557 0.114465 0.0523765 
0.49752 0.702172 0.339918 0.722261 0.178074 
0.49849 0.0766162 0.838242 0.173502 0.0173117 
0.987935 0.943997 0.451198 0.433418 0.137614 
0.533613 0.339359 0.208548 0.724677 0.922726 
0.286736 0.817873 0.553461 0.828193 0.240707 
0.09475 0.745674 0.731409 0.798608 0.0338868 
0.511574 0.547595 0.171681 0.8212 0.550918 
0.162498 0.886266 0.0498749 0.566644 0.155444 
0.98664 0.242262 0.60714 0.73248 0.0101774 
0.461031 0.964569 0.0198227 0.739245 0.448777 
0.147872 0.943474 0.916495 0.68376 0.693993 
0.768622 0.526224 0.0127567 0.753901 0.211813 
0.244152 0.815919 0.91428 0.350142 0.577747 
0.987996 0.458266 0.2523 0.520447 0.192339 
0.349726 0.627375 0.0869111 0.865917 0.247784 
0.0883172 0.782064 0.793052 0.844546 0.188789 
0.0877166 0.704961 0.873237 0.906644 0.586865 
0.256055 0.854225 0.887413 0.107571 0.620469 
0.409966 0.284006 0.633069 0.996434 0.251955 
0.293002 0.296883 0.070084 0.298088 0.229005 
0.0874572 0.314029 0.499638 0.628557 0.524655 
0.595723 0.128456 0.955422 0.649813 0.120922 
0.360298 0.87924 0.992259 0.274165 0.643155 
0.035077 0.0425278 0.248469 0.631581 0.0607091 
0.66494 0.0169351 0.391215 0.62903 0.0413713 
0.349919 0.324104 0.18245 0.860909 0.055695 
0.307389 0.1957 0.256733 0.440411 0.0274984 
0.9212 0.86758 0.710701 0.82252 0.602981 
0.433393 0.205421 0.682247 0.566922 0.893918 
0.479886 0.598375 0.934084 0.590263 0.422832 
0.921162 0.96288 0.98625 0.933821 0.937984 
0.876584 0.861607 0.605803 0.853881 0.0992799 
0.804763 0.64126 0.080914 0.979656 0.253002 
0.546197 0.966083 0.983005 0.632178 0.813896 
0.413153 0.110515 0.0259281 0.404561 0.973397 
0.366272 0.688175 0.517312 0.515344 0.665478 
0.865034 0.423249 0.539003 0.565911 0.208019 
0.859761 0.618924 0.894718 0.294092 0.0915133 
0.169808 0.594839 0.806289 0.985257 0.625378 
0.967625 0.0125105 0.648116 0.0003162 0.557907 
0.418072 0.910081 0.0590103 0.197986 0.942523 
0.281126 0.917364 0.626424 0.258649 0.185085 
0.692406 0.284398 0.588017 0.298342 0.907706 
0.370988 0.682558 0.257014 0.41833 0.392002 
0.375376 0.923317 0.50298 0.752555 0.764698 
0.117682 0.936365 0.127008 0.140968 0.994379 
0.128114 0.538343 0.643442 0.456915 0.256519 
0.277143 0.137926 0.714666 0.967595 0.523269 
0.869889 0.344078 0.0613874 0.991615 0.38634 
0.94471 0.904696 0.30695 0.526992 0.408683 
0.887171 0.891046 0.941533 0.150865 0.52281 
0.550478 0.107025 0.821168 0.473012 0.345335 
0.0817463 0.351478 0.937487 0.623064 0.106187 
0.947166 0.726842 0.716017 0.780135 0.483727 
0.819573 0.573371 0.958624 0.792635 0.00991084 
0.662051 0.609246 0.27272 0.750898 0.171691 
0.376351 0.440204 0.998751 0.0800823 0.265825 
0.667857 0.949822 0.22264 0.041701 0.0889261 
0.974286 0.423011 0.784497 0.159089 0.718167 
0.328002 0.969413 0.433232 0.204724 0.986098 
0.453628 0.652376 0.402339 0.0604724 0.0975401 
0.574638 0.571515 0.190526 0.117803 0.88869 
0.525667 0.71349 0.0366499 0.406807 0.635391 
0.173781 0.960053 0.954032 0.837052 0.939881 
0.958066 0.342625 0.171662 0.731282 0.456147 
0.7551 0.749487 0.661501 0.869822 0.717509 
0.114695 0.118727 0.413043 0.161597 0.489735 
0.958981 0.265799 0.159586 0.601592 0.64472 
0.685926 0.172165 0.232249 0.750472 0.0897035 
0.97715 0.98152 0.821525 0.837291 0.0688904 
0.780617 0.0929779 0.59656 0.179387 0.856963 
0.58708 0.934034 0.903711 0.227654 0.646682 
0.965886 0.184582 0.211652 0.830619 0.281006 
0.363669 0.173349 0.265649 0.258736 0.666045 
0.341562 0.938051 0.936269 0.829177 0.120297 
0.395952 0.460446 0.0415745 0.162199 0.245744 
0.320378 0.624573 0.514674 0.759495 0.402768 
0.325359 0.56563 0.758673 0.0964055 0.171937 
0.0747597 0.355592 0.967655 0.357118 0.76036 
0.984905 0.220028 0.930137 0.117574 0.936202 
0.325215 0.113751 0.503973 0.00351649 0.952646 
0.82232 0.763572 0.0763688 0.568912 0.896046 
0.655335 0.891471 0.960684 0.30052 0.546313 
0.671992 0.515698 0.569039 0.460515 0.404279 
0.41437 0.869005 0.0980717 0.331379 0.290085 
0.69592 0.915167 0.719524 0.577778 0.681433 
0.037198 0.75436 0.142676 0.314909 0.902103 
0.786977 0.367521 0.699633 0.225356 0.852367 
0.328421 0.82645 0.580535 0.261254 0.768923 
0.339654 0.404742 0.758106 0.48434 0.214674 
0.955253 0.720985 0.284623 0.956794 0.974409 
0.992741 0.855832 0.0554458 0.862479 0.700907 
0.658559 0.243514 0.715355 0.0782174 0.618882 
0.253975 0.981251 0.787882 0.345636 0.690172 
0.245369 0.809735 0.236517 0.585121 0.426612 
0.277842 0.152518 0.905671 0.0960569 0.751553 
0.884216 0.819343 0.298186 0.0551103 0.795402 
0.509787 0.343297 0.785369 0.492091 0.0119549 
0.188279 0.265301 0.412694 0.124122 0.923458 
0.757893 0.636674 0.0377692 0.789965 0.794316 
0.180052 0.635218 0.328535 0.534311 0.24787 
0.344094 0.395755 0.00573949 0.085816 0.304865 
0.846202 0.177179 0.708537 0.241481 0.722364 
0.190467 0.583568 0.794202 0.878725 0.903681 
0.488691 0.0762003 0.567636 0.990032 0.631171 
0.133154 0.0768284 0.0272323 0.991546 0.85293 
0.265673 0.879583 0.555333 0.993965 0.598911 
0.20702 0.270671 0.51681 0.652972 0.803517 
0.938487 0.15919 0.912709 0.887951 0.842956 
0.306861 0.904042 0.85037 0.514362 0.593901 
0.611097 0.715509 0.617454 0.993396 0.540836 
0.391199 0.322428 0.607865 0.0113596 0.878203 
0.965969 0.80047 0.0379074 0.571483 0.0780223 
0.991343 0.292447 0.507471 0.878768 0.32418 
0.888515 0.00189989 0.163908 0.686499 0.402057 
0.777066 0.498576 0.577861 0.927421 0.0912447 
0.375883 0.569998 0.467944 0.541482 0.445592 
0.838317 0.908532 0.971057 0.793578 0.569468 
0.444883 0.69403 0.221073 0.0574043 0.297095 
0.664578 0.54522 0.771179 0.389815 0.0874102 
0.755524 0.791954 0.145728 0.197353 0.836111 
0.599939 0.281001 0.049309 0.77695 0.47423 
0.119427 0.991823 0.177751 0.930654 0.0480234 
0.056586 0.908051 0.620203 0.034996 0.459539 
0.181626 0.459991 0.416603 0.562065 0.724301 
0.930958 0.0850716 0.000347653 0.733466 0.557862 
0.395599 0.873758 0.672245 0.128945 0.715289 
0.860998 0.484909 0.890917 0.64877 0.00749385 
0.792781 0.352262 0.105464 0.114523 0.488189 
0.118034 0.0615821 0.263448 0.452328 0.761566 
0.557509 0.117416 0.264661 0.837395 0.2235 
0.612352 0.404031 0.942376 0.4695 0.12076 
0.619231 0.724728 0.0833729 0.252844 0.980305 
0.123842 0.000251688 0.111398 0.826698 0.752638 
0.10545 0.45675 0.345033 0.661082 0.578284 
0.932195 0.707605 0.140929 0.328813 0.209613 
0.50484 0.415968 0.957642 0.637503 0.935442 
0.978477 0.658978 0.892815 0.199595 0.336343 
0.0290358 0.865434 0.263987 0.767773 0.893919 
0.750593 0.412573 0.41375 0.621699 0.605634 
0.632022 0.757912 0.952966 0.15186 0.875226 
0.585584 0.31925 0.478199 0.888822 0.759768 
0.788179 0.417293 0.245537 0.785844 0.108592 
0.550007 0.258742 0.718052 0.524916 0.724305 
0.848871 0.430409 0.928438 0.0228965 0.327552 
0.331367 0.177966 0.268117 0.0522945 0.971496 
0.416447 0.547948 0.0236391 0.838782 0.0211796 
0.211025 0.746804 0.258925 0.888217 0.891185 
0.337292 0.203227 0.15241 0.843251 0.0979662 
0.365193 0.0156419 0.357384 0.392744 0.0668924 
0.090693 0.867723 0.644419 0.721613 0.0919756 
0.0604266 0.335296 0.122818 0.298898 0.261194 
0.409679 0.168939 0.92682 0.758662 0.445238 
0.113033 0.474878 0.163134 0.873977 0.99226 
0.0956787 0.7116 0.861182 0.986042 0.696717 
0.261501 0.80507 0.573985 0.0982835 0.383474 
0.974694 0.631395 0.0806509 0.549646 0.758246 
0.579638 0.898107 0.0781403 0.250943 0.96519 
0.732025 0.465572 0.595774 0.631221 0.256358 
0.918208 0.575735 0.529824 0.942742 0.323059 
0.161114 0.184042 0.762458 0.931284 0.547084 
0.652706 0.478217 0.793868 0.128164 0.739185 
0.471217 0.909734 0.0637371 0.24965 0.862289 
0.611356 0.0406523 0.213643 0.364763 0.508462 
0.898861 0.0886696 0.518484 0.863001 0.893543 
0.0516536 0.502361 0.294589 0.998028 0.0532781 
0.982977 0.307036 0.980053 0.712832 0.980834 
0.625992 0.597409 0.906852 0.302926 0.314114 
0.357332 0.191549 0.776777 0.437794 0.740192 
0.625211 0.775462 0.282163 0.42902 0.901553 
0.881904 0.274052 0.413164 0.925856 0.957814 
0.749368 0.637192 0.0786572 0.655076 0.351582 
0.813812 0.297204 0.284702 0.820181 0.306802 
0.854531 0.332354 0.626945 0.647515 0.313292 
0.0335969 0.782137 0.813923 0.0885991 0.820909 
0.0111128 0.327378 0.650583 0.339733 0.411127 
0.980554 0.00234783 0.983496 0.921219 0.627308 
0.363812 0.592634 0.472809 0.698842 0.315581 
0.338894 0.606724 0.773282 0.952125 0.949214 
0.0954518 0.835509 0.822927 0.0291841 0.549089 
0.624981 0.516305 0.819942 0.40828 0.582536 
0.52532 0.500646 0.223642 0.151747 0.0493556 
0.969987 0.304966 0.42512 0.564261 0.217574 
0.929209 0.93248 0.10117 0.74094 0.0502074 
0.407235 0.589544 0.869678 0.60116 0.168828 
0.45558 0.403792 0.81187 0.84348 0.235428 
0.303754 0.758973 0.975217 0.878395 0.761342 
0.109147 0.925397 0.0517254 0.841227 0.844459 
0.5192 0.632131 0.873503 0.598021 0.0353243 
0.995262 0.706689 0.37281 0.814914 0.062637 
0.189026 0.724357 0.427498 0.27614 0.0674611 
0.485216 0.937137 0.609454 0.0496005 0.0724976 
0.498447 0.840897 0.968167 0.171841 0.967076 
0.016078 0.185417 0.411193 0.0815411 0.579006 
0.299018 0.200924 0.90656 0.708985 0.0517432 
0.898108 0.88869 0.937243 0.0519299 0.0791656 
0.288317 0.834238 0.514947 0.0379888 0.443795 
0.346645 0.36635 0.977273 0.780818 0.879615 
0.0459809 0.50857 0.401005 0.501966 0.254145 
0.324192 0.693294 0.00650058 0.702926 0.74078 
0.835386 0.0961624 0.784016 0.165507 0.394413 
0.839349 0.782569 0.432099 0.491627 0.143181 
0.879049 0.776363 0.101789 0.261341 0.956559 
0.724432 0.971858 0.925465 0.573708 0.701787 
0.187589 0.581589 0.197948 0.20042 0.0491766 
0.450529 0.401321 0.949611 0.610131 0.847339 
0.197597 0.0571993 0.406504 0.247538 0.932657 
0.132241 0.0182608 0.963663 0.426073 0.453902 
0.80624 0.328557 0.594142 0.953202 0.926821 
0.122224 0.45024 0.188277 0.869072 0.493616 
0.847482 0.350243 0.77921 0.185549 0.271326 
0.276175 0.346257 0.46399 0.183043 0.864961 
0.183065 0.417693 0.904411 0.613981 0.936603 
0.452133 0.381954 0.231206 0.813075 0.93969 
0.196561 0.516408 0.383294 0.121808 0.208455 
0.869074 0.664248 0.600778 0.603558 0.721769 
0.113799 0.271335 0.358598 0.17459 0.0548906 
0.623023 0.865947 0.0712172 0.69598 0.578208 
0.763176 0.681837 0.40993 0.502092 0.487399 
0.743726 0.293498 0.649802 0.564148 0.915909 
0.711843 0.0510864 0.577145 0.0617047 0.787855 
0.0876739 0.579718 0.158335 0.533416 0.635123 
0.638421 0.388688 0.187105 0.690148 0.865872 
0.684788 0.855936 0.1415 0.869933 0.75496 
0.121771 0.0180332 0.964212 0.528676 0.454015 
0.98098 0.765177 0.879242 0.221596 0.550029 
0.19479 0.851972 0.477686 0.248796 0.833547 
0.864092 0.157172 0.673552 0.723231 0.00160387 
0.791042 0.645523 0.484366 0.266448 0.309775 
0.342177 0.968219 0.257928 0.850621 0.214631 
0.618343 0.469954 0.0974581 0.105639 0.619197 
0.112693 0.559496 0.265923 0.385576 0.335229 
0.904684 0.920584 0.169308 0.106382 0.413586 
0.841414 0.386794 0.421193 0.871103 0.154248 
0.499409 0.717613 0.452509 0.0791096 0.0411118 
0.100103 0.099318 0.580642 0.663381 0.585625 
0.142976 0.890852 0.822169 0.377467 0.533776 
0.562579 0.90718 0.379981 0.322655 0.621325 
0.494568 0.442408 0.0475387 0.0446326 0.644488 
0.566528 0.619054 0.172289 0.173249 0.0371562 
0.158174 0.75178 0.119387 0.653646 0.764453 
0.0512128 0.542891 0.872926 0.916029 0.120939 
0.590169 0.98687 0.694365 0.219623 0.886904 
0.0378192 0.287369 0.81072 0.648456 0.775418 
0.0718744 0.923049 0.346301 0.870738 0.566992 
0.769179 0.859328 0.974303 0.230281 0.267279 
0.441429 0.841256 0.00784625 0.0510361 0.771907 
0.949034 0.0314446 0.316496 0.209291 0.147206 
0.215516 0.155483 0.696705 0.816038 0.884448 
0.632928 0.296689 0.146968 0.667173 0.342425 
0.337591 0.682315 0.975126 0.341799 0.276797 
0.949482 0.0881138 0.274059 0.468102 0.193188 
0.223182 0.30693 0.766552 0.217455 0.723793 
0.87338 0.620667 0.235196 0.714815 0.454337 
0.0127295 0.589928 0.901341 0.440461 0.788248 
0.926048 0.667392 0.403124 0.0445911 0.620418 
0.317952 0.522472 0.779584 0.218074 0.825608 
0.567966 0.568138 0.688346 0.818124 0.67236 
0.869747 0.460862 0.326425 0.22636 0.201029 
0.0626452 0.52293 0.692245 0.658566 0.022555 
0.307559 0.636654 0.545148 0.544128 0.868948 
0.0593292 0.602444 0.355785 0.160628 0.822888 
0.400711 0.631421 0.696378 0.645901 0.36678 
0.156577 0.770596 0.959084 0.893393 0.973222 
0.393812 0.81869 0.71386 0.738056 0.372076 
0.0449687 0.22478 0.836005 0.830207 0.0484274 
0.797657 0.372259 0.963188 0.598002 0.650505 
0.0783069 0.413651 0.982191 0.929107 0.103058 
0.122767 0.0648583 0.42517 0.717979 0.352482 
0.0878643 0.130051 0.786154 0.807745 0.0183038 
0.932355 0.775858 0.891182 0.0105343 0.548035 
0.403409 0.134533 0.823684 0.938234 0.709712 
0.290831 0.761647 0.50617 0.207074 0.955709 
0.52022 0.385964 0.052882 0.3277 0.658451 
0.302751 0.482709 0.327882 0.187201 0.0346387 
0.325354 0.324874 0.203921 0.379744 0.913545 
0.523891 0.501939 0.201779 0.731092 0.901922 
0.437423 0.248675 0.730901 0.264066 0.398361 
0.888176 0.181208 0.640889 0.316489 0.946087 
0.736512 0.315666 0.370677 0.411802 0.619691 
0.311824 0.838736 0.648021 0.179193 0.881828 
0.989238 0.66003 0.0788997 0.119956 0.0212328 
0.597506 0.411737 0.690206 0.163577 0.36197 
0.554417 0.764782 0.605734 0.802254 0.355053 
0.285731 0.00316474 0.513832 0.524867 0.328547 
0.181978 0.0123662 0.800226 0.458603 0.20409 
0.115305 0.121461 0.515543 0.772851 0.98507 
0.668077 0.00286651 0.068677 0.541671 0.441056 
0.519926 0.667278 0.372202 0.156264 0.0947672 
0.0360916 0.25073 0.910368 0.695133 0.574051 
0.119232 0.422965 0.143074 0.457837 0.291717 
0.461713 0.53075 0.821161 0.722156 0.506076 
0.621792 0.893815 0.103145 0.925814 0.0126183 
0.257269 0.0877006 0.408403 0.238949 0.898338 
0.362128 0.859417 0.784844 0.79837 0.356638 
0.186996 0.846248 0.576487 0.567049 0.506929 
0.0728525 0.207752 0.145828 0.366024 0.541808 
0.689315 0.0771169 0.589335 0.156655 0.515425 
0.103139 0.262431 0.398454 0.19214 0.665984 
0.492281 0.0261113 0.324443 0.692617 0.446754 
0.0592832 0.539079 0.498237 0.607481 0.124742 
0.366666 0.36297 0.529587 0.641843 0.487545 
0.859311 0.655945 0.0698767 0.659773 0.363858 
0.422429 0.568348 0.284145 0.187903 0.408829 
0.698764 0.0693339 0.1639 0.803746 0.77292 
0.0521828 0.59824 0.210979 0.454491 0.0586989 
0.251979 0.319694 0.033059 0.911145 0.93813 
0.64349 0.321894 0.671841 0.155079 0.877697 
0.647764 0.269196 0.0905443 0.762152 0.44442 
0.845713 0.492302 0.554663 0.914357 0.582577 
0.43961 0.0648611 0.207083 0.74856 0.0900271 
0.638093 0.585119 0.362606 0.679919 0.856305 
0.399046 0.344009 0.636731 0.132645 0.422433 
0.662084 0.899741 0.320697 0.213102 0.509727 
0.310417 0.762882 0.214728 0.654204 0.414007 
0.842331 0.353895 0.904244 0.790453 0.949977 
0.0803378 0.380329 0.178112 0.797234 0.951644 
0.461558 0.424426 0.920122 0.641048 0.673771 
0.764436 0.819556 0.416476 0.672306 0.187688 
0.113987 0.495677 0.928856 0.89152 0.468012 
0.338992 0.430012 0.58168 0.0655048 0.299829 
0.200636 0.253644 0.395625 0.0427063 0.878662 
0.911888 0.594725 0.457416 0.795426 0.916834 
0.623977 0.998713 0.166613 0.186232 0.134003 
0.721657 0.495899 0.31408 0.904474 0.229102 
0.875382 0.247475 0.183337 0.74122 0.566551 
0.963206 0.80019 0.035334 0.0907343 0.406879 
0.243913 0.178665 0.207787 0.135412 0.0777819 
0.262732 0.924435 0.539011 0.113294 0.965396 
0.435365 0.757842 0.605162 0.531829 0.914069 
0.972123 0.296471 0.878138 0.666544 0.511397 
0.406235 0.097925 0.0738546 0.618769 0.832914 
0.227975 0.523984 0.561999 0.899755 0.346227 
0.617399 0.172868 0.715997 0.538977 0.617019 
0.911987 0.221841 0.25526 0.113768 0.416674 
0.901759 0.580673 0.704957 0.737527 0.90796 
0.049294 0.150091 0.946196 0.621055 0.921767 
0.655133 0.433494 0.416007 0.137314 0.0163285 
0.307084 0.274708 0.470204 0.132396 0.207017 
0.213072 0.964267 0.4524 0.357098 0.422333 
0.413695 0.402738 0.957965 0.589658 0.440774 
0.981786 0.562786 0.620412 0.578348 0.813808 
0.53691 0.640946 0.739786 0.785787 0.989546 
0.696594 0.162152 0.200874 0.802386 0.232674 
0.509773 0.256525 0.728435 0.426845 0.154974 
0.606239 0.170086 0.93796 0.0111736 0.845879 
0.482702 0.68272 0.458256 0.0807322 0.63494 
0.00521722 0.45613 0.901468 0.784341 0.535454 
0.53646 0.919928 0.608145 0.103194 0.429177 
0.178475 0.225714 0.743281 0.564091 0.581582 
0.925066 0.92184 0.805623 0.779356 0.692992 
0.132037 0.795289 0.563192 0.23117 0.449114 
0.904854 0.640554 0.0778904 0.599009 0.734422 
0.514175 0.483436 0.886049 0.807527 0.889036 
0.901681 0.13056 0.0452082 0.462753 0.704404 
0.898606 0.526867 0.110664 0.0749539 0.030363 
0.993889 0.704986 0.570158 0.345282 0.634722 
0.899087 0.102796 0.756121 0.0738722 0.594268 
0.979876 0.234511 0.0169259 0.898533 0.788064 
0.739923 0.683262 0.211649 0.869549 0.322579 
0.997796 0.674998 0.754612 0.87474 0.39668 
0.567598 0.706647 0.292231 0.252297 0.0459853 
0.608145 0.64641 0.223121 0.484197 0.447838 
0.477544 0.16934 0.250221 0.823369 0.871071 
0.83691 0.2398 0.712316 0.469233 0.0790927 
0.952631 0.200983 0.915853 0.715452 0.328239 
0.718453 0.753087 0.156767 0.391767 0.258134 
0.423198 0.580043 0.682247 0.654984 0.408213 
0.519784 0.81734 0.279322 0.997275 0.877987 
0.41413 0.307075 0.334049 0.897551 0.827325 
0.851116 0.190057 0.811589 0.398712 0.235048 
0.69119 0.704274 0.246791 0.298862 0.61872 
0.173411 0.171663 0.503806 0.538672 0.661419 
0.530089 0.0893696 0.982167 0.547328 0.108326 
0.341476 0.70749 0.450783 0.0566145 0.326363 
0.346481 0.0829506 0.0326334 0.381407 0.915776 
0.418518 0.557135 0.0703725 0.977175 0.481798 
0.243673 0.151481 0.977252 0.732836 0.974506 
0.2697 0.799129 0.833066 0.988944 0.982738 
0.373623 0.770935 0.383422 0.404955 0.692017 
0.437194 0.891564 0.482085 0.038525 0.433137 
0.286692 0.661842 0.0224769 0.426567 0.847207 
0.434624 0.0254278 0.31416 0.11316 0.409804 
0.206137 0.0849446 0.665082 0.986334 0.38744 
0.0493511 0.645074 0.379436 0.508087 0.729327 
0.110978 0.270558 0.87021 0.174885 0.610929 
0.478712 0.242053 0.215913 0.288553 0.684597 
0.969359 0.810804 0.775134 0.148143 0.938767 
0.455091 0.113855 0.854746 0.233196 0.157961 
0.983676 0.0815007 0.069382 0.788882 0.618849 
0.730676 0.210602 0.172732 0.44225 0.83523 
0.197449 0.121163 0.947608 0.700111 0.959544 
0.617307 0.26211 0.283272 0.450704 0.0143084 
0.888809 0.667987 0.971943 0.851143 0.746367 
0.62425 0.275033 0.945969 0.881863 0.790058 
0.654607 0.413485 0.292305 0.366851 0.397221 
0.104888 0.918991 0.991298 0.45765 0.981325 
0.249564 0.35676 0.218942 0.178727 0.680573 
0.479354 0.415221 0.912158 0.613927 0.922346 
0.90436 0.742458 0.529622 0.912464 0.269168 
0.804619 0.879908 0.581494 0.44634 0.754476 
0.643566 0.54263 0.570894 0.782507 0.484254 
0.347998 0.67488 0.938765 0.357126 0.623011 
0.426415 0.501266 0.165065 0.835016 0.650655 
0.367976 0.123613 0.712227 0.838217 0.338411 
0.623155 0.675099 0.690092 0.237754 0.634237 
0.716111 0.961143 0.00401351 0.744606 0.53641 
0.810367 0.306514 0.451516 0.819783 0.803111 
0.460984 0.72794 0.85074 0.0609637 0.601953 
0.902499 0.958724 0.725217 0.736205 0.926343 
0.649455 0.2081 0.328843 0.935265 0.852949 
0.145672 0.759299 0.185257 0.669923 0.294164 
0.750508 0.659906 0.708782 0.533772 0.607321 
0.907996 0.625038 0.410176 0.500823 0.78271 
0.873818 0.338865 0.0834893 0.620007 0.157844 
0.886492 0.300867 0.268882 0.111864 0.581825 
0.919677 0.865974 0.0267324 0.789478 0.376192 
0.085317 0.525585 0.263628 0.382914 0.51455 
0.234639 0.233919 0.117672 0.926571 0.264608 
0.765675 0.107814 0.984801 0.968013 0.0698991 
0.240061 0.636725 0.769143 0.795471 0.504666 
0.427448 0.441152 0.815208 0.321779 0.5036 
0.0581581 0.445297 0.98991 0.564119 0.785707 
0.745173 0.34668 0.465224 0.402238 0.834494 
0.287715 0.922434 0.378572 0.626936 0.529046 
0.194615 0.734332 0.942239 0.0311591 0.751795 
0.336548 0.510308 0.380916 0.5313 0.737392 
0.650921 0.415433 0.523897 0.883218 0.896025 
0.342815 0.328273 0.634708 0.70815 0.426946 
0.857896 0.879408 0.306385 0.443063 0.0869704 
0.352789 0.975313 0.600106 0.681482 0.482017 
0.290206 0.479813 0.337143 0.433725 0.941082 
0.836827 0.669384 0.102988 0.662615 0.246453 
0.149082 0.47658 0.931337 0.334244 0.386973 
0.329336 0.587822 0.367175 0.0403579 0.634294 
0.141903 0.879888 0.7083 0.616828 0.832242 
0.153148 0.20381 0.923642 0.170878 0.474757 
0.0632094 0.698986 0.615627 0.903345 0.943529 
0.982418 0.700946 0.200863 0.519948 0.499302 
0.775895 0.723252 0.68049 0.921755 0.513735 
0.0649181 0.0913 0.464013 0.459975 0.194651 
0.634925 0.70146 0.9971 0.422287 0.637407 
0.708927 0.426863 0.738679 0.902451 0.825579 
0.867102 0.719883 0.508267 0.511148 0.848446 
0.847134 0.319641 0.328877 0.83511 0.121359 
0.0944873 0.410943 0.954169 0.649709 0.651736 
0.4841 0.0847148 0.0911584 0.883898 0.337151 
0.738321 0.815673 0.355478 0.459242 0.345671 
0.499944 0.653622 0.296776 0.969667 0.252071 
0.761233 0.559566 0.480224 0.448427 0.170728 
0.513216 0.175903 0.762475 0.72953 0.932042 
0.411408 0.353591 0.367052 0.252344 0.598868 
0.715174 0.132752 0.696984 0.0240734 0.955209 
0.635131 0.127543 0.354681 0.185241 0.193825 
0.948414 0.457258 0.471781 0.752704 0.423082 
0.361346 0.00267204 0.373527 0.159322 0.572774 
0.634653 0.64566 0.988215 0.762204 0.936681 
0.121792 0.469063 0.288532 0.643458 0.399035 
0.228406 0.0651495 0.101958 0.565907 0.613176 
0.652199 0.510815 0.410796 0.685311 0.021961 
0.178294 0.516329 0.563613 0.80489 0.862783 
0.351385 0.202472 0.812002 0.284789 0.191028 
0.321683 0.0327757 0.354642 0.858195 0.419503 
0.50618 0.653899 0.727175 0.146582 0.278206 
0.67202 0.823694 0.487451 0.508651 0.389011 
0.0742127 0.357835 0.46679 0.991729 0.0137188 
0.267347 0.105642 0.633774 0.36523 0.317983 
0.296604 0.609271 0.903391 0.499403 0.424118 
0.632243 0.0313605 0.941948 0.486493 0.528189 
0.259299 0.869765 0.859182 0.816359 0.0572111 
0.0265128 0.267764 0.10892 0.100803 0.381909 
0.448842 0.361007 0.570795 0.149633 0.287666 
0.747897 0.420428 0.490628 0.212918 0.503088 
0.927269 0.741025 0.796114 0.649364 0.208585 
0.511172 0.999689 0.32433 0.174858 0.675172 
0.571398 0.698444 0.581381 0.672327 0.110442 
0.355331 0.433519 0.394146 0.213155 0.448548 
0.332493 0.50593 0.141794 0.574261 0.511976 
0.197003 0.102048 0.260612 0.930126 0.0384992 
0.632692 0.937422 0.107 0.609326 0.321466 
0.126163 0.643628 0.96077 0.884693 0.558899 
0.921503 0.424796 0.552521 0.539765 0.124822 
0.743158 0.30736 0.573406 0.212507 0.302351 
0.911103 0.78728 0.266268 0.559984 0.00435392 
0.586962 0.410048 0.845969 0.486218 0.408382 
0.759772 0.419356 0.564094 0.281401 0.659288 
0.0619597 0.924883 0.526863 0.249119 0.857672 
0.605153 0.978262 0.15995 0.485121 0.254373 
0.10972 0.137659 0.738614 0.963164 0.401101 
0.97162 0.647384 0.197345 0.440548 0.383944 
0.504685 0.791194 0.307473 0.457373 0.459649 
0.754527 0.0626554 0.0770213 0.453384 0.67102 
0.10796 0.551352 0.340482 0.866079 0.473236 
0.0247243 0.728605 0.839785 0.780322 0.28986 
0.156643 0.391515 0.128592 0.941502 0.360723 
0.740158 0.797853 0.00660351 0.385357 0.623468 
0.351054 0.933548 0.20514 0.226975 0.592252 
0.456341 0.930346 0.680577 0.809239 0.403562 
