4300 5
0.580607 0.358354 0.427181 0.792214 0.300104 
0.10841 0.259127 0.983831 0.453103 0.118011 
0.840009 0.493276 0.463787 0.673939 0.713483 
0.323005 0.639884 0.869444 0.472069 0.800346 
0.467844 0.620977 0.265666 0.292485 0.64107 
0.900379 0.174433 0.19882 0.787645 0.314382 
0.0514257 0.85655 0.747879 0.444938 0.992579 
0.48107 0.586167 0.752803 0.052814 0.595235 
0.18057 0.230387 0.0191635 0.70047 0.559421 
0.363007 0.361201 0.0446019 0.825054 0.395822 
0.0582122 0.620178 0.0870493 0.165179 0.0363209 
0.374126 0.138156 0.27275 0.796956 0.330176 
0.010281 0.045452 0.243141 0.663953 0.303156 
0.195137 0.747013 0.464546 0.28618 0.802199 
0.968253 0.716935 0.426947 0.181093 0.964483 
0.934874 0.838181 0.2402 0.403858 0.302402 
0.772206 0.258331 0.111749 0.661273 0.840688 
0.661083 0.453787 0.15351 0.140095 0.779384 
0.0761678 0.322444 0.532905 0.920902 0.575561 
0.150949 0.0554783 0.625557 0.520749 0.274312 
0.522525 0.97129 0.541892 0.629675 0.615758 
0.545574 0.96625 0.728555 0.494956 0.940056 
0.679699 0.219658 0.435643 0.610515 0.685947 
0.0928804 0.459364 0.361581 0.832789 0.199099 
0.0929284 0.332518 0.50469 0.793243 0.656621 
0.431416 0.285852 0.177695 0.465669 0.787539 
0.232071 0.49963 0.287082 0.301872 0.918042 
0.790793 0.848375 0.066853 0.144252 0.610551 
0.225339 0.89216 0.0624319 0.419567 0.965552 
0.742524 0.69611 0.103582 0.578616 0.237206 
0.317006 0.996936 0.125668 0.867754 0.513035 
0.960759 0.26244 0.649078 0.952741 0.458183 
0.327775 0.627921 0.807334 0.204536 0.457197 
0.443459 0.486691 0.306809 0.728335 0.960803 
0.193961 0.987377 0.897462 0.183961 0.191906 
0.0893855 0.52016 0.165399 0.411003 0.906122 
0.565014 0.963102 0.460178 0.944084 0.488605 
0.39382 0.244584 0.471749 0.906721 0.433171 
0.982733 0.205462 0.897002 0.492697 0.355295 
0.234492 0.17435 0.733635 0.416274 0.0837457 
0.175562 0.273031 0.547681 0.97532 0.972852 
0.191396 0.16355 0.0110007 0.0962061 0.0961048 
0.676211 0.998873 0.308453 0.964779 0.658069 
0.850363 0.277321 0.238292 0.401928 0.287014 
0.406906 0.354801 0.68039 0.185081 0.911487 
0.372223 0.807744 0.55583 0.690752 0.796215 
0.605027 0.68398 0.460941 0.0833349 0.754517 
0.995062 0.912919 0.383862 0.629778 0.991176 
0.630182 0.833215 0.191994 0.277028 0.714073 
0.700355 0.264596 0.135591 0.548472 0.100175 
0.25905 0.120693 0.830655 0.130062 0.605257 
0.225046 0.583366 0.487849 0.731289 0.154618 
0.654337 0.944035 0.213831 0.213326 0.05069 
0.416806 0.135218 0.599489 0.905865 0.107377 
0.518919 0.886569 0.840481 0.142068 0.591588 
0.906429 0.712415 0.20162 0.910156 0.963234 
0.448373 0.573015 0.915848 0.633541 0.0465275 
0.496874 0.897028 0.959129 0.561293 0.508083 
0.986613 0.549786 0.679399 0.663325 0.582245 
0.874152 0.19881 0.823347 0.372532 0.590414 
0.504027 0.888759 0.200125 0.478626 0.826385 
0.219716 0.65085 0.561105 0.00244516 0.769662 
0.844766 0.664819 0.762296 0.272149 0.378894 
0.393706 0.437438 0.211936 0.0255881 0.934341 
0.231279 0.816479 0.938819 0.621478 0.066948 
0.644958 0.946742 0.0450322 0.215956 0.804874 
0.267466 0.405119 0.0213924 0.883345 0.402102 
0.97861 0.979002 0.120351 0.0260628 0.0285131 
0.766197 0.546069 0.152656 0.323837 0.127256 
0.242511 0.594848 0.076392 0.706774 0.352555 
0.584926 0.740393 0.361812 0.445376 0.560064 
0.70958 0.870922 0.184825 0.0724642 0.171448 
0.726529 0.931114 0.307848 0.577259 0.838384 
0.511638 0.47202 0.135399 0.97523 0.619164 
0.0716746 0.207262 0.260764 0.768621 0.157022 
0.245637 0.359214 0.756137 0.282194 0.634491 
0.507357 0.861506 0.38887 0.0665627 0.753844 
0.0414469 0.303894 0.835492 0.196839 0.470347 
0.249958 0.476887 0.209226 0.0394659 0.253442 
0.180965 0.981094 0.118347 0.906129 0.389299 
0.523498 0.992993 0.604338 0.74195 0.275139 
0.110874 0.929221 0.844055 0.434429 0.303256 
0.629099 0.655932 0.552379 0.640382 0.231117 
0.853559 0.752221 0.404644 0.297256 0.322212 
0.927501 0.426279 0.734316 0.974255 0.254446 
0.464277 0.754542 0.527831 0.971699 0.386864 
0.72667 0.227071 0.991435 0.0435989 0.0223653 
0.974415 0.219453 0.0757802 0.63677 0.207985 
0.995734 0.994148 0.193375 0.132226 0.2337 
0.507803 0.181239 0.891642 0.838604 0.916643 
0.404151 0.722292 0.588124 0.821644 0.714755 
0.448008 0.856295 0.0686964 0.193374 0.499838 
0.150147 0.290229 0.154372 0.456928 0.608095 
0.213413 0.906051 0.812189 0.329069 0.851457 
0.0495526 0.768731 0.698778 0.0318739 0.502917 
0.428691 0.57921 0.120098 0.52838 0.652389 
0.646204 0.694335 0.389817 0.687271 0.480482 
0.150694 0.95751 0.138353 0.756891 0.616798 
0.399814 0.128232 0.441913 0.435023 0.991124 
0.563209 0.212944 0.758968 0.210915 0.00542606 
0.230562 0.0769197 0.282147 0.466913 0.138729 
0.760604 0.0126527 0.283426 0.220869 0.537057 
0.710048 0.842949 0.247611 0.553643 0.163814 
0.439516 0.952733 0.141796 0.203922 0.693597 
0.979836 0.8609 0.0607638 0.358352 0.232368 
0.295856 0.665519 0.34332 0.501189 0.252469 
0.12034 0.711127 0.0282636 0.374984 0.366122 
0.794228 0.784177 0.8424 0.0130296 0.237124 
0.574364 0.0803836 0.658736 0.67165 0.297926 
0.339473 0.853899 0.329265 0.545913 0.678734 
0.789076 0.152845 0.750182 0.0949269 0.157137 
0.066996 0.230088 0.116934 0.412788 0.0418314 
0.378323 0.378587 0.0687946 0.887519 0.921903 
0.180423 0.476906 0.703894 0.625029 0.0137797 
0.54962 0.0278612 0.938284 0.824126 0.644531 
0.672736 0.250815 0.686995 0.286024 0.831308 
0.769935 0.152821 0.266187 0.832958 0.660626 
0.0901664 0.528371 0.347918 0.949209 0.382387 
0.474461 0.872055 0.156077 0.831121 0.380952 
0.121992 0.182929 0.201871 0.204775 0.873022 
0.326182 0.893937 0.598219 0.0609864 0.0818752 
0.367165 0.937754 0.975476 0.594165 0.682393 
0.286062 0.408463 0.650899 0.760681 0.00113261 
0.53817 0.183073 0.0404499 0.332917 0.137767 
0.096452 0.0881849 0.903111 0.425916 0.725266 
0.804176 0.855393 0.438084 0.581741 0.559009 
0.698553 0.410655 0.963198 0.166533 0.939296 
0.430238 0.480808 0.722727 0.591518 0.244466 
0.205385 0.250159 0.0568145 0.887252 0.598365 
0.0535404 0.206977 0.849726 0.991076 0.00292948 
0.174657 0.281666 0.90068 0.981387 0.281913 
0.558403 0.844862 0.382986 0.793737 0.0155531 
0.00229548 0.82518 0.942472 0.417929 0.0037646 
0.546202 0.739225 0.467118 0.0553067 0.548119 
0.39095 0.751162 0.0373648 0.0464938 0.894601 
0.0197308 0.957675 0.735375 0.469773 0.445579 
0.690311 0.912292 0.752904 0.355948 0.297477 
0.278576 0.566254 0.764561 0.0807567 0.197173 
0.933499 0.781187 0.579756 0.885471 0.642194 
0.0618102 0.753831 0.320387 0.832408 0.20573 
0.807582 0.44446 0.594708 0.114577 0.569004 
0.133891 0.11433 0.209702 0.123366 0.441389 
0.710322 0.275979 0.0892135 0.360547 0.595009 
0.662945 0.821864 0.468141 0.695051 0.785587 
0.412715 0.600474 0.238148 0.615181 0.0183774 
0.512508 0.320581 0.879362 0.727658 0.0612645 
0.440844 0.257171 0.707692 0.0604862 0.652036 
0.758031 0.985178 0.126897 0.789467 0.588961 
0.779441 0.495123 0.465245 0.203196 0.789392 
0.711236 0.165853 0.929414 0.783546 0.706793 
0.107084 0.553228 0.150001 0.474781 0.884743 
0.4876 0.144047 0.934499 0.971538 0.644305 
0.273028 0.544588 0.0024757 0.752787 0.693187 
0.459446 0.0906754 0.395415 0.863158 0.0610125 
0.495042 0.911343 0.68072 0.681924 0.822647 
0.663442 0.83879 0.798986 0.477692 0.444046 
0.555029 0.38961 0.00567457 0.0134517 0.736214 
0.128375 0.673504 0.809403 0.844801 0.941526 
0.350205 0.437739 0.920456 0.925948 0.930606 
0.446595 0.800399 0.718558 0.549594 0.649794 
0.755464 0.760965 0.523354 0.678287 0.976263 
0.137039 0.840958 0.383047 0.513702 0.248628 
0.941422 0.810119 0.46636 0.352282 0.698601 
0.456105 0.712728 0.885797 0.951098 0.344687 
0.312923 0.984487 0.520222 0.479154 0.315521 
0.135906 0.0959375 0.562828 0.352833 0.596182 
0.797189 0.714837 0.652042 0.526401 0.720735 
0.0749044 0.866408 0.685664 0.351044 0.00835701 
0.589584 0.421415 0.174017 0.815834 0.831178 
0.806075 0.460883 0.546534 0.687249 0.801954 
0.964188 0.507009 0.857396 0.494452 0.829396 
0.406968 0.936298 0.355561 0.173331 0.677703 
0.112607 0.584204 0.141798 0.93877 0.596785 
0.522824 0.132009 0.821463 0.707487 0.388497 
0.145291 0.0769571 0.128453 0.168498 0.119749 
0.16444 0.350464 0.942008 0.928261 0.259694 
0.513658 0.537872 0.711409 0.267805 0.547862 
0.15015 0.193903 0.00677823 0.057602 0.623095 
0.945882 0.398088 0.869113 0.985283 0.00444461 
0.357147 0.314244 0.00770344 0.523432 0.86927 
0.152566 0.543659 0.383089 0.267345 0.222808 
0.496509 0.855316 0.506137 0.630942 0.948436 
0.405718 0.448983 0.145372 0.253617 0.447576 
0.811742 0.0796364 0.892318 0.115822 0.983908 
0.900548 0.964936 0.900027 0.0734903 0.387997 
0.0423826 0.242396 0.496432 0.456849 0.932756 
0.519241 0.317051 0.50899 0.994233 0.901161 
0.760439 0.0986692 0.399946 0.217662 0.498395 
0.0069404 0.0671137 0.676368 0.610393 0.0878699 
0.629834 0.654898 0.933124 0.234127 0.611852 
0.173335 0.297207 0.373597 0.435641 0.230821 
0.723701 0.0988803 0.0113701 0.143202 0.00133909 
0.750147 0.13142 0.524154 0.932486 0.973712 
0.0406836 0.240049 0.417223 0.447411 0.505781 
0.143595 0.489878 0.00228837 0.877537 0.304602 
0.118041 0.258908 0.678341 0.054648 0.300214 
0.0903357 0.34779 0.716747 0.636706 0.104071 
0.472516 0.250917 0.895677 0.485476 0.427275 
0.250213 0.493537 0.413805 0.112489 0.00212756 
0.719047 0.156605 0.55193 0.633924 0.542498 
0.388236 0.151326 0.696609 0.733535 0.228208 
0.0747138 0.584167 0.936845 0.974637 0.32705 
0.04164 0.152705 0.802032 0.32344 0.257667 
0.624401 0.027004 0.893903 0.666725 0.788534 
0.992837 0.0174577 0.963912 0.472876 0.706171 
0.131518 0.296174 0.0316544 0.421326 0.4439 
0.935606 0.661121 0.058219 0.804819 0.484975 
0.610112 0.406643 0.404252 0.480479 0.099866 
0.525127 0.41763 0.224514 0.300569 0.0774197 
0.354944 0.369856 0.569111 0.682116 0.753558 
0.30926 0.591678 0.646836 0.0303011 0.246569 
0.969951 0.198782 0.435827 0.995941 0.37536 
0.336046 0.743616 0.641948 0.832091 0.125543 
0.886616 0.374516 0.121807 0.889029 0.155515 
0.963083 0.0385141 0.346329 0.300051 0.192452 
0.463843 0.387485 0.637273 0.644798 0.77017 
0.3734 0.374021 0.951209 0.828605 0.373712 
0.276299 0.72325 0.754985 0.690916 0.501765 
0.334239 0.990731 0.425467 0.579298 0.738617 
0.736676 0.362517 0.663768 0.581599 0.999858 
0.0647129 0.0596591 0.153157 0.512167 0.466301 
0.489573 0.657594 0.77642 0.992425 0.76577 
0.787787 0.0087496 0.484915 0.493735 0.197419 
0.271897 0.935018 0.701567 0.00197627 0.0993627 
0.623955 0.824007 0.611834 0.966064 0.171559 
0.777751 0.944348 0.163154 0.822163 0.64494 
0.0947881 0.662466 0.0137881 0.296622 0.843563 
0.973259 0.327827 0.322446 0.337003 0.206764 
0.0372603 0.910544 0.605823 0.616293 0.990492 
0.351612 0.067726 0.516576 0.585183 0.78339 
0.402263 0.359004 0.854359 0.644355 0.108412 
0.411302 0.413194 0.420212 0.676263 0.286403 
0.738787 0.853243 0.756328 0.413694 0.0438463 
0.986178 0.546947 0.25695 0.273483 0.602604 
0.82848 0.619194 0.314479 0.531984 0.251651 
0.134682 0.989472 0.819715 0.939992 0.547152 
0.272834 0.537135 0.692152 0.0842336 0.699006 
0.154802 0.41599 0.261065 0.958895 0.427952 
0.998652 0.122813 0.858606 0.831142 0.909198 
0.898852 0.288178 0.704944 0.377569 0.920038 
0.753714 0.751989 0.658976 0.938078 0.376009 
0.242055 0.0991011 0.256272 0.680676 0.988894 
0.917216 0.204161 0.862044 0.646556 0.988571 
0.945895 0.84369 0.848856 0.581669 0.0860203 
0.108302 0.659344 0.194536 0.753915 0.789438 
0.170888 0.342231 0.997325 0.855542 0.21654 
0.0206249 0.164583 0.167053 0.591541 0.679696 
0.942463 0.940878 0.985452 0.255766 0.71665 
0.901504 0.768339 0.346737 0.813149 0.276339 
0.721161 0.211778 0.564141 0.924983 0.317043 
0.642736 0.213589 0.874398 0.791095 0.755132 
0.91819 0.861388 0.660147 0.0649224 0.401912 
0.0114143 0.199989 0.0556707 0.0764733 0.137642 
0.529295 0.0808291 0.894759 0.874242 0.400339 
0.491476 0.824824 0.0467413 0.548766 0.106125 
0.742762 0.09641 0.914265 0.624592 0.910767 
0.294091 0.0797205 0.424862 0.132876 0.235283 
0.135651 0.533504 0.302531 0.293255 0.66737 
0.873233 0.82874 0.563851 0.0422899 0.46028 
0.669087 0.458496 0.975621 0.233243 0.875686 
0.806235 0.575126 0.288924 0.98871 0.17843 
0.0854042 0.565991 0.0786162 0.772687 0.26666 
0.154255 0.329011 0.452723 0.0162466 0.267272 
0.122241 0.109242 0.0442896 0.532466 0.388053 
0.433944 0.6402 0.0161066 0.81879 0.800697 
0.356815 0.191927 0.304707 0.546705 0.0700871 
0.71779 0.11837 0.000789849 0.424809 0.711556 
0.70209 0.291495 0.561262 0.8179 0.853591 
0.746895 0.300339 0.090108 0.680296 0.98167 
0.672114 0.622628 0.719017 0.410375 0.218962 
0.697107 0.449267 0.657435 0.129389 0.582408 
0.787576 0.658436 0.373859 0.573337 0.26443 
0.0579484 0.216699 0.597893 0.0478041 0.743281 
0.201108 0.792616 0.152666 0.806226 0.859039 
0.0394318 0.164847 0.5769 0.735586 0.910874 
0.00321888 0.310521 0.942394 0.188983 0.180893 
0.847106 0.613105 0.735606 0.162598 0.655897 
0.0320268 0.591318 0.234744 0.00445943 0.316737 
0.948339 0.356363 0.581079 0.19727 0.0711828 
0.4619 0.279372 0.378223 0.19253 0.353273 
0.841425 0.756323 0.276418 0.923528 0.0625184 
0.868538 0.775613 0.00703503 0.672751 0.78098 
0.474815 0.937087 0.633741 0.853351 0.371575 
0.485693 0.363152 0.753581 0.536191 0.688345 
0.536204 0.859985 0.541452 0.300999 0.723352 
0.483395 0.307551 0.410425 0.54651 0.334541 
0.143503 0.0865403 0.354638 0.290142 0.22335 
0.844183 0.0671631 0.565115 0.117686 0.122318 
0.268492 0.678856 0.224473 0.534781 0.89274 
0.321432 0.593188 0.0680525 0.886447 0.311459 
0.0630513 0.427135 0.878532 0.841609 0.826565 
0.102928 0.600499 0.642523 0.615876 0.822531 
0.621182 0.487311 0.735255 0.534868 0.730834 
0.109202 0.502924 0.326188 0.325558 0.435371 
0.481713 0.484826 0.465518 0.0718553 0.274517 
0.290109 0.441846 0.190666 0.96278 0.936092 
0.509124 0.848569 0.153541 0.734993 0.184415 
0.522103 0.144042 0.804932 0.953869 0.482809 
0.268995 0.590082 0.0675827 0.150122 0.529395 
0.641255 0.511438 0.135854 0.913582 0.176128 
0.351106 0.7701 0.723653 0.277627 0.0267495 
0.180499 0.549528 0.792501 0.140012 0.229435 
0.0704558 0.0771563 0.670582 0.701511 0.263152 
0.1737 0.849232 0.123101 0.723906 0.773743 
0.129084 0.353707 0.0601188 0.518837 0.0460319 
0.0197873 0.926651 0.0225814 0.816444 0.700324 
0.465995 0.799731 0.662049 0.513062 0.247568 
0.234397 0.609779 0.558983 0.44861 0.365074 
0.233468 0.0156603 0.895176 0.670638 0.0577905 
0.405351 0.379833 0.977172 0.487579 0.109224 
0.415799 0.687869 0.641594 0.0855637 0.776134 
0.313181 0.256506 0.816843 0.627788 0.775294 
0.824388 0.438856 0.790788 0.832705 0.750974 
0.0136271 0.336402 0.397599 0.357847 0.899062 
0.978966 0.619401 0.444126 0.118134 0.228886 
0.102742 0.446789 0.337498 0.505281 0.953944 
0.752438 0.660425 0.445534 0.0193147 0.825675 
0.312522 0.143195 0.718041 0.242303 0.760458 
0.322222 0.8061 0.931283 0.205654 0.310794 
0.247133 0.684391 0.450843 0.624279 0.0359523 
0.120997 0.58482 0.814765 0.104447 0.313224 
0.601264 0.620991 0.273668 0.480582 0.273622 
0.93212 0.060155 0.0517936 0.319061 0.808122 
0.514525 0.322211 0.557004 0.618868 0.434249 
0.453728 0.709043 0.0227938 0.0174747 0.533479 
0.990823 0.77577 0.854542 0.91575 0.514763 
0.395583 0.538237 0.381366 0.184404 0.54208 
0.984765 0.427503 0.37063 0.906923 0.713222 
0.152794 0.945224 0.974962 0.746813 0.845191 
0.67018 0.111624 0.888894 0.658649 0.862675 
0.133773 0.0280453 0.127358 0.921419 0.933757 
0.76989 0.357701 0.570353 0.0900345 0.957666 
0.791326 0.617533 0.398184 0.859387 0.763454 
0.467848 0.0836152 0.677389 0.505793 0.163077 
0.297555 0.710897 0.461084 0.600163 0.934908 
0.401193 0.53655 0.440907 0.516974 0.219373 
0.972533 0.935476 0.518431 0.61612 0.175252 
0.586612 0.381202 0.559538 0.0261219 0.929023 
0.156201 0.734991 0.494794 0.71541 0.523067 
0.950195 0.133403 0.382669 0.747561 0.32757 
0.801792 0.840776 0.878884 0.425843 0.528072 
0.870918 0.951574 0.923082 0.467973 0.474209 
0.245122 0.39305 0.370378 0.683742 0.412148 
0.293423 0.686964 0.181455 0.628412 0.29875 
0.431328 0.219054 0.809595 0.932003 0.938519 
0.590432 0.907129 0.276986 0.632268 0.153529 
0.890097 0.928663 0.663839 0.219267 0.0987458 
0.423138 0.541655 0.468883 0.139389 0.373422 
0.0554869 0.988982 0.987229 0.445677 0.190721 
0.218395 0.104273 0.362842 0.330905 0.78953 
0.166789 0.312029 0.492008 0.242957 0.366228 
0.673235 0.256001 0.818037 0.604015 0.344982 
0.6603 0.532887 0.977517 0.20722 0.319806 
0.803343 0.369417 0.638772 0.399067 0.00879652 
0.91854 0.420508 0.829166 0.686878 0.198013 
0.901369 0.54258 0.850366 0.992107 0.19971 
0.491777 0.500181 0.134493 0.63014 0.15822 
0.917985 0.721631 0.124409 0.111578 0.612736 
0.361661 0.263592 0.732597 0.894914 0.195963 
0.0239677 0.19875 0.185327 0.684112 0.484711 
0.0598559 0.545005 0.377752 0.307014 0.439126 
0.960669 0.572607 0.43766 0.0682512 0.480538 
0.450013 0.614184 0.742196 0.402288 0.851668 
0.644388 0.0506455 0.993046 0.394514 0.478209 
0.0601683 0.423561 0.0482631 0.770644 0.9674 
0.194305 0.19122 0.462276 0.143089 0.976155 
0.604822 0.69424 0.267217 0.208955 0.239355 
0.21037 0.904207 0.146791 0.798782 0.995815 
0.984786 0.581949 0.243302 0.584824 0.654143 
0.823407 0.903078 0.742508 0.214679 0.703037 
0.187719 0.240494 0.137836 0.218778 0.543749 
0.900016 0.943502 0.9719 0.539798 0.166693 
0.736329 0.106576 0.148734 0.613362 0.794453 
0.489919 0.657422 0.182669 0.837014 0.735372 
0.256115 0.548059 0.214 0.915244 0.216157 
0.0589979 0.853833 0.836285 0.431747 0.94188 
0.2683 0.385505 0.462628 0.0497989 0.846423 
0.441087 0.749357 0.259561 0.377109 0.597 
0.293236 0.819147 0.546525 0.812973 0.0891951 
0.0218468 0.147625 0.626314 0.779812 0.556964 
0.39173 0.960461 0.899968 0.811328 0.981067 
0.247992 0.429632 0.547562 0.00183342 0.224261 
0.853918 0.700353 0.642049 0.762188 0.865157 
0.315057 0.178065 0.443965 0.778324 0.545767 
0.210712 0.693825 0.167837 0.216537 0.0912238 
0.558164 0.454814 0.421641 0.69954 0.490907 
0.832435 0.99164 0.991589 0.784979 0.481544 
0.403186 0.347659 0.396407 0.186252 0.833682 
0.7655 0.0715963 0.795649 0.0576392 0.34787 
0.534291 0.0698812 0.777147 0.886884 0.124956 
0.904911 0.27982 0.0684532 0.796987 0.743641 
0.864833 0.51022 0.392658 0.299434 0.0690764 
0.7802 0.934607 0.479807 0.105264 0.739924 
0.062356 0.905228 0.968032 0.136805 0.958709 
0.877584 0.760798 0.6521 0.436237 0.0122672 
0.168824 0.845735 0.175653 0.954932 0.763539 
0.225044 0.395019 0.967518 0.206783 0.0411982 
0.845424 0.483349 0.820852 0.598945 0.232354 
0.548456 0.744664 0.0800233 0.964598 0.881825 
0.963082 0.957863 0.194856 0.863823 0.0599078 
0.0688421 0.258949 0.363461 0.0896082 0.677201 
0.178726 0.870263 0.606392 0.70317 0.764314 
0.734776 0.381722 0.774265 0.229086 0.100894 
0.837087 0.703884 0.954787 0.729831 0.981512 
0.475459 0.925793 0.961468 0.935795 0.257389 
0.971255 0.0402455 0.422835 0.0810211 0.0667902 
0.547197 0.871107 0.278401 0.00211557 0.356511 
0.977977 0.737392 0.0972698 0.758696 0.224717 
0.612016 0.202995 0.283523 0.246417 0.43337 
0.587852 0.613293 0.47339 0.895735 0.680018 
0.342582 0.747498 0.553407 0.88541 0.24513 
0.615024 0.554779 0.629333 0.0395813 0.491554 
0.530711 0.0498587 0.208832 0.166185 0.342975 
0.316709 0.956358 0.653295 0.329375 0.510509 
0.832414 0.0631491 0.0427601 0.749704 0.569762 
0.970102 0.551382 0.617977 0.418252 0.950788 
0.0467382 0.672693 0.135 0.701324 0.0603041 
0.312179 0.211913 0.727992 0.811181 0.497132 
0.906044 0.309288 0.850455 0.874784 0.379074 
0.564927 0.776818 0.23296 0.530655 0.894805 
0.562567 0.503633 0.540206 0.905348 0.546447 
0.757019 0.754043 0.285338 0.353524 0.936182 
0.0565456 0.470035 0.58425 0.087085 0.211852 
0.238734 0.348378 0.275515 0.740119 0.305215 
0.626639 0.36807 0.844532 0.493161 0.0711169 
0.848376 0.52853 0.403937 0.942807 0.0981413 
0.991969 0.346992 0.105606 0.21343 0.864322 
0.380119 0.879052 0.478915 0.526316 0.437083 
0.740883 0.454944 0.0811999 0.109575 0.164972 
0.236636 0.875154 0.0503438 0.0529152 0.513014 
0.353501 0.514624 0.111186 0.0046836 0.615204 
0.92272 0.517009 0.472117 0.360424 0.0309015 
0.39572 0.0642003 0.437885 0.490151 0.777147 
0.337069 0.637163 0.206939 0.0627278 0.633835 
0.0472352 0.664061 0.143885 0.0328644 0.622398 
0.0563754 0.0501473 0.0539818 0.719186 0.116625 
0.620776 0.241745 0.661276 0.499633 0.433317 
0.468994 0.589509 0.313285 0.153657 0.887823 
0.71674 0.139014 0.62594 0.963926 0.418203 
0.440699 0.124791 0.704964 0.742674 0.825716 
0.300929 0.101913 0.951932 0.969794 0.687784 
0.0340569 0.0318994 0.336573 0.58344 0.0902559 
0.0774233 0.916923 0.912741 0.139871 0.496446 
0.656912 0.711857 0.56474 0.515833 0.532693 
0.0800161 0.285654 0.0393549 0.156324 0.0630904 
0.202954 0.642809 0.854729 0.688142 0.480035 
0.300957 0.588319 0.998728 0.339584 0.522141 
0.0394483 0.681536 0.275595 0.0483767 0.677393 
0.00322473 0.509004 0.285646 0.201709 0.554384 
0.648125 0.377242 0.686928 0.94974 0.475397 
0.324367 0.980492 0.102583 0.669221 0.923682 
0.934882 0.242999 0.695331 0.960996 0.419524 
0.793865 0.222509 0.542665 0.299642 0.433017 
0.562511 0.962409 0.470396 0.249964 0.695832 
0.51783 0.256638 0.247747 0.110771 0.451301 
0.654744 0.0519389 0.860709 0.0285532 0.936734 
0.892695 0.537328 0.35763 0.332388 0.584364 
0.915034 0.731907 0.924809 0.832654 0.0617251 
0.65288 0.995035 0.645175 0.351584 0.886288 
0.904831 0.130807 0.535547 0.334246 0.439966 
0.873867 0.904063 0.835864 0.237649 0.654557 
0.874918 0.483318 0.427335 0.805091 0.455956 
0.537049 0.352472 0.214511 0.622505 0.902721 
0.0221644 0.170278 0.901304 0.888325 0.606195 
0.246283 0.203511 0.121639 0.376726 0.812951 
0.198443 0.538366 0.811943 0.807027 0.341981 
0.0727007 0.0754141 0.741396 0.539626 0.898635 
0.801485 0.649012 0.00128519 0.816489 0.516622 
0.365879 0.64846 0.321434 0.814063 0.436195 
0.103389 0.546631 0.794927 0.0364417 0.38469 
0.685368 0.979813 0.646676 0.835911 0.0528352 
0.974091 0.880289 0.448963 0.38665 0.362355 
0.646825 0.395189 0.380399 0.714029 0.320637 
0.663402 0.153829 0.658492 0.831554 0.522141 
0.281781 0.000500076 0.48132 0.0750096 0.648415 
0.371976 0.723944 0.319002 0.232239 0.795197 
0.95989 0.671176 0.474042 0.542744 0.252501 
0.366601 0.410872 0.150429 0.0791943 0.645361 
0.024387 0.427074 0.526449 0.857869 0.545679 
0.0674356 0.62742 0.647236 0.91317 0.908293 
0.904622 0.73315 0.240693 0.761223 0.300277 
0.424463 0.0727122 0.568431 0.1896 0.824359 
0.917982 0.570758 0.844835 0.565475 0.175438 
0.799734 0.498091 0.231708 0.88901 0.36908 
0.319807 0.541445 0.437491 0.296229 0.0222808 
0.231488 0.905875 0.015344 0.747693 0.823513 
0.470082 0.393923 0.131631 0.083242 0.139182 
0.907638 0.595149 0.071066 0.419025 0.119225 
0.80187 0.621239 0.21455 0.169174 0.539009 
0.392605 0.16823 0.429495 0.961476 0.762588 
0.657106 0.717152 0.771999 0.819974 0.190091 
0.953279 0.839922 0.32227 0.272524 0.930429 
0.271892 0.636238 0.548905 0.785238 0.230768 
0.614048 0.367915 0.745389 0.0954714 0.426698 
0.0318893 0.749822 0.089297 0.710511 0.0691869 
0.6268 0.622594 0.173133 0.326853 0.383888 
0.12933 0.748404 0.422376 0.355479 0.911503 
0.145415 0.926881 0.348562 0.93986 0.487268 
0.776759 0.346075 0.856971 0.63149 0.31532 
0.332805 0.66216 0.230333 0.936675 0.818323 
0.248011 0.317741 0.586988 0.0838288 0.328568 
0.855539 0.929401 0.734348 0.780461 0.889259 
0.521317 0.479843 0.0747929 0.124293 0.201168 
0.675618 0.928734 0.636313 0.0753247 0.984109 
0.807035 0.70087 0.593309 0.76288 0.764552 
0.609208 0.0966035 0.972392 0.559959 0.143625 
0.603465 0.933728 0.268428 0.699232 0.536087 
0.922877 0.911199 0.756092 0.788848 0.465104 
0.565689 0.509592 0.15592 0.839748 0.573399 
0.0736612 0.12401 0.388153 0.352598 0.642659 
0.362261 0.602498 0.175818 0.752014 0.0653444 
0.805823 0.602869 0.776571 0.364846 0.493833 
0.401001 0.158754 0.753191 0.994129 0.171909 
0.975839 0.293318 0.255136 0.941008 0.606756 
0.381485 0.286386 0.375189 0.670941 0.284191 
0.496365 0.628729 0.266105 0.189943 0.0874522 
0.940645 0.855104 0.901903 0.847885 0.0474709 
0.256885 0.259121 0.324948 0.672712 0.112893 
0.235918 0.563977 0.267046 0.115911 0.597912 
0.608115 0.874193 0.447703 0.908863 0.326814 
0.635418 0.291757 0.166441 0.978257 0.528287 
0.785386 0.568179 0.0776213 0.444919 0.334731 
0.560802 0.693048 0.520002 0.51068 0.824664 
0.402566 0.540989 0.914509 0.985928 0.579002 
0.229622 0.45772 0.835946 0.826591 0.394946 
0.0121548 0.355049 0.253141 0.506393 0.645062 
0.157907 0.197579 0.0121001 0.796291 0.509671 
0.490484 0.377228 0.919473 0.43364 0.468388 
0.181185 0.767181 0.630809 0.26183 0.443773 
0.837488 0.115877 0.4274 0.0702919 0.874816 
0.165586 0.900728 0.786155 0.821841 0.506902 
0.272765 0.472665 0.568415 0.273579 0.15245 
0.494883 0.42809 0.405206 0.764239 0.480719 
0.252687 0.98915 0.709655 0.766091 0.460681 
0.349963 0.479504 0.961884 0.788065 0.191837 
0.181116 0.862265 0.813441 0.289703 0.448917 
0.27858 0.644149 0.791153 0.478843 0.546865 
0.217134 0.721383 0.466586 0.567514 0.450798 
0.101543 0.407977 0.123918 0.800474 0.969569 
0.665823 0.467696 0.253316 0.697733 0.0916211 
0.576316 0.941969 0.441123 0.273261 0.316213 
0.119671 0.230625 0.723675 0.207107 0.541287 
0.961008 0.994483 0.346068 0.300157 0.946336 
0.0587247 0.0143278 0.723559 0.883045 0.437927 
0.297907 0.459879 0.365175 0.567807 0.859213 
0.610093 0.66405 0.580657 0.65176 0.0472619 
0.144332 0.375274 0.132367 0.444224 0.278569 
0.76663 0.638225 0.149582 0.85412 0.704266 
0.328746 0.134476 0.596621 0.00537251 0.693578 
0.236681 0.54095 0.328214 0.48274 0.845095 
0.0538993 0.0375237 0.370965 0.332824 0.896781 
0.0364032 0.733905 0.580779 0.256858 0.568469 
0.114791 0.890625 0.460094 0.768182 0.933329 
0.213069 0.503738 0.37304 0.0515252 0.598708 
0.233994 0.576294 0.65974 0.513755 0.483973 
0.243192 0.934883 0.203702 0.665205 0.555285 
0.808225 0.935612 0.617865 0.080512 0.76388 
0.669811 0.865003 0.68596 0.911708 0.216409 
0.933272 0.283864 0.64676 0.671222 0.554113 
0.202574 0.0801171 0.189697 0.187301 0.413372 
0.413248 0.616678 0.635906 0.0306708 0.16062 
0.16473 0.789772 0.417485 0.142183 0.819053 
0.972849 0.177178 0.189853 0.0355211 0.401673 
0.44867 0.759312 0.52217 0.936721 0.273436 
0.274973 0.72629 0.790271 0.654749 0.954589 
0.921177 0.324102 0.439439 0.33607 0.834145 
0.852621 0.391039 0.542501 0.0642298 0.088065 
0.0952794 0.559489 0.646774 0.66264 0.766764 
0.00807416 0.214733 0.523996 0.138335 0.0231826 
0.974208 0.824723 0.30785 0.300831 0.739908 
0.657452 0.274108 0.887318 0.082948 0.919859 
0.83203 0.154297 0.57402 0.52272 0.60185 
0.0279584 0.12934 0.0992539 0.511058 0.220236 
0.778682 0.924042 0.358981 0.140406 0.313648 
0.815248 0.872493 0.395931 0.413636 0.1644 
0.771395 0.15527 0.465935 0.0114333 0.216027 
0.19666 0.195085 0.882959 0.0208695 0.406018 
0.0409311 0.93152 0.808308 0.425242 0.834976 
0.52228 0.186216 0.226021 0.367578 0.0186965 
0.594693 0.736151 0.483576 0.765181 0.598716 
0.467366 0.111412 0.730518 0.978197 0.499645 
0.827903 0.0704945 0.0813237 0.508233 0.466037 
0.427843 0.932013 0.850108 0.43804 0.323445 
0.0121675 0.314081 0.0939486 0.793533 0.0764191 
0.0512774 0.444962 0.16085 0.706378 0.0975521 
0.802813 0.94205 0.830535 0.74944 0.866923 
0.890147 0.494187 0.821314 0.852679 0.544547 
0.813333 0.264846 0.817277 0.588586 0.957891 
0.536267 0.581315 0.936262 0.646749 0.449463 
0.0370548 0.0965494 0.213734 0.361769 0.559818 
0.499082 0.394238 0.903803 0.269535 0.0388466 
0.137303 0.561314 0.967432 0.790234 0.0843389 
0.865269 0.941818 0.524464 0.248369 0.558311 
0.398772 0.326305 0.614808 0.51082 0.693572 
0.259996 0.349443 0.329368 0.558669 0.631758 
0.429328 0.437389 0.818825 0.491763 0.534196 
0.408691 0.631101 0.846924 0.172613 0.34271 
0.973335 0.158713 0.783369 0.314873 0.477615 
0.83689 0.902742 0.578683 0.14059 0.202342 
0.570199 0.497213 0.491028 0.455122 0.260983 
0.0393639 0.167423 0.884524 0.349794 0.492398 
0.250656 0.517837 0.447244 0.0578039 0.908536 
0.67623 0.232735 0.220449 0.530863 0.515521 
0.394403 0.233784 0.385113 0.340759 0.996513 
0.165178 0.0189515 0.322274 0.250897 0.91719 
0.610868 0.690986 0.207446 0.636013 0.398955 
0.170538 0.79507 0.243788 0.640357 0.679858 
0.664977 0.731335 0.497975 0.0264895 0.750599 
0.864484 0.55397 0.629384 0.757473 0.679526 
0.252675 0.134103 0.154486 0.722538 0.193055 
0.156753 0.95041 0.706775 0.285539 0.155854 
0.339788 0.726862 0.219232 0.85494 0.457479 
0.412679 0.655167 0.861975 0.817897 0.0576438 
0.798255 0.768966 0.890464 0.87662 0.318137 
0.836816 0.988353 0.920601 0.99032 0.474465 
0.15261 0.141476 0.370064 0.813896 0.310385 
0.51889 0.163921 0.310893 0.465892 0.544811 
0.0678154 0.519161 0.872578 0.314785 0.603056 
0.999887 0.0958191 0.75511 0.140964 0.335651 
0.0829387 0.408236 0.249606 0.866327 0.537161 
0.850571 0.342885 0.290353 0.618085 0.468918 
0.0786094 0.128451 0.274625 0.40597 0.2011 
0.0602676 0.933954 0.426473 0.485734 0.681261 
0.418257 0.126862 0.0600668 0.402767 0.281893 
0.055372 0.924851 0.326726 0.683606 0.390119 
0.371493 0.406173 0.916472 0.0938363 0.680611 
0.0768496 0.193144 0.717287 0.60188 0.863619 
0.410302 0.574251 0.464868 0.351675 0.352902 
0.877415 0.412472 0.930969 0.748441 0.796233 
0.499738 0.654707 0.18716 0.0994229 0.617853 
0.563581 0.0040611 0.605829 0.413997 0.0709557 
0.780318 0.381888 0.665986 0.519116 0.645815 
0.76754 0.845312 0.962415 0.749391 0.651252 
0.226737 0.530234 0.00730467 0.0766406 0.197559 
0.194546 0.311558 0.549989 0.0259995 0.649402 
0.461292 0.183463 0.830047 0.0443084 0.22468 
0.565115 0.82237 0.238972 0.354654 0.457806 
0.907422 0.974859 0.999508 0.635323 0.922144 
0.509873 0.258357 0.628712 0.612844 0.377858 
0.127311 0.963337 0.936287 0.204041 0.897501 
0.905081 0.829211 0.610966 0.485354 0.260024 
0.391833 0.0958659 0.0113132 0.411906 0.870384 
0.279017 0.322383 0.666734 0.976914 0.787607 
0.189916 0.434119 0.758649 0.0814431 0.627495 
0.772505 0.995214 0.910775 0.821402 0.794878 
0.481972 0.278165 0.641813 0.725932 0.498636 
0.0751145 0.990115 0.952702 0.7577 0.427607 
0.513992 0.575919 0.127999 0.454456 0.707499 
0.507207 0.723595 0.998157 0.586905 0.382407 
0.594434 0.59106 0.478891 0.0863858 0.730312 
0.863977 0.701644 0.113099 0.898373 0.143681 
0.108914 0.394216 0.690842 0.355774 0.950369 
0.705429 0.325906 0.124554 0.643427 0.0975149 
0.958338 0.422269 0.908513 0.819909 0.798455 
0.815326 0.820421 0.172649 0.10729 0.262588 
0.391292 0.197862 0.901334 0.19394 0.395446 
0.423744 0.320889 0.0655247 0.224687 0.777316 
0.487517 0.386999 0.794402 0.0474124 0.821453 
0.0505092 0.798523 0.802817 0.970249 0.58806 
0.172894 0.672461 0.679482 0.908456 0.332908 
0.0401764 0.489555 0.532629 0.208879 0.26551 
0.958256 0.590631 0.403264 0.645402 0.702109 
0.135155 0.743454 0.507458 0.362778 0.482413 
0.172064 0.873101 0.745268 0.955684 0.918481 
0.65511 0.147867 0.704542 0.713273 0.924239 
0.320521 0.181372 0.517241 0.0531265 0.411744 
0.177425 0.900605 0.0100149 0.127435 0.13326 
0.505084 0.460901 0.255556 0.433492 0.0271708 
0.877769 0.579796 0.701172 0.074554 0.72802 
0.0455043 0.45743 0.137983 0.885568 0.766577 
0.500846 0.349593 0.513706 0.232876 0.442741 
0.254553 0.0913079 0.888783 0.624191 0.929868 
0.639021 0.71343 0.143091 0.876501 0.251859 
0.981532 0.443421 0.493141 0.619677 0.449775 
0.564567 0.706917 0.738846 0.675027 0.413206 
0.78494 0.452501 0.465267 0.214364 0.29906 
0.898066 0.585 0.220105 0.447956 0.521297 
0.740278 0.929266 0.312305 0.730858 0.410509 
0.216455 0.486941 0.199662 0.398167 0.447678 
0.279347 0.406195 0.66847 0.236207 0.841359 
0.946673 0.548593 0.504689 0.00702441 0.880584 
0.459123 0.0633712 0.786117 0.496617 0.00434554 
0.668269 0.689121 0.809028 0.864902 0.62005 
0.200038 0.845858 0.835966 0.945185 0.90076 
0.751639 0.353854 0.861664 0.435311 0.228806 
0.265154 0.415458 0.13155 0.818822 0.178239 
0.83759 0.934876 0.0903423 0.239237 0.131722 
0.404665 0.13053 0.968816 0.878315 0.379161 
0.243927 0.934557 0.212699 0.231672 0.454752 
0.755277 0.26735 0.645754 0.224509 0.635175 
0.845759 0.0984203 0.40427 0.0809449 0.109587 
0.391198 0.820593 0.0042456 0.386853 0.0512315 
0.969043 0.458447 0.300043 0.755375 0.471281 
0.0633936 0.183848 0.886632 0.654158 0.64484 
0.872652 0.522057 0.981296 0.968155 0.718297 
0.38103 0.826332 0.263401 0.0401268 0.733894 
0.000878594 0.833501 0.0257781 0.214509 0.810508 
0.504559 0.467475 0.118156 0.0108297 0.325262 
0.19802 0.634542 0.220409 0.657096 0.853766 
0.643314 0.637265 0.400951 0.966919 0.627882 
0.231606 0.211359 0.70689 0.437138 0.601953 
0.129692 0.386131 0.749617 0.970198 0.802868 
0.97858 0.206263 0.665588 0.947714 0.63216 
0.0608993 0.760349 0.303432 0.520372 0.108693 
0.270544 0.184861 0.600299 0.161591 0.667297 
0.534185 0.687298 0.84145 0.561357 0.776581 
0.656419 0.669565 0.943077 0.632367 0.483652 
0.767344 0.365488 0.843971 0.400419 0.253655 
0.61471 0.0593387 0.00817717 0.845726 0.610666 
0.977763 0.601853 0.207331 0.295438 0.777848 
0.557747 0.224164 0.444002 0.770742 0.138607 
0.482298 0.487801 0.0786027 0.697798 0.69969 
0.655265 0.562894 0.445226 0.103213 0.48923 
0.477264 0.317386 0.347936 0.638799 0.9766 
0.723909 0.999297 0.578924 0.876079 0.575357 
0.54621 0.465226 0.435195 0.159293 0.915363 
0.682671 0.215691 0.0998738 0.1972 0.163289 
0.333983 0.356856 0.668016 0.523325 0.410089 
0.137828 0.476742 0.422324 0.676211 0.113731 
0.217741 0.96297 0.574147 0.402587 0.780507 
0.324991 0.250541 0.493422 0.105457 0.108368 
0.637362 0.834092 0.291941 0.902627 0.948699 
0.618947 0.785776 0.785508 0.893021 0.607106 
0.146029 0.914121 0.552765 0.69517 0.891653 
0.503185 0.546305 0.146231 0.663813 0.991032 
0.825614 0.134513 0.549294 0.837918 0.251348 
0.603707 0.615569 0.057292 0.392202 0.195109 
0.348101 0.340815 0.226025 0.0302704 0.313744 
0.498839 0.492187 0.498847 0.987705 0.704182 
0.938435 0.0479275 0.922548 0.411119 0.74483 
0.618819 0.62684 0.104493 0.57261 0.690926 
0.43245 0.693966 0.0682295 0.183724 0.0898218 
0.065702 0.50809 0.557718 0.570517 0.891001 
0.100539 0.428258 0.653262 0.88981 0.276052 
0.29327 0.580902 0.189601 0.492504 0.0255383 
0.435764 0.69318 0.166378 0.96603 0.571368 
0.591549 0.900789 0.823543 0.552527 0.898572 
0.271603 0.271209 0.708639 0.304421 0.355565 
0.24854 0.887227 0.9495 0.941985 0.151875 
0.294738 0.825914 0.525472 0.914109 0.0203616 
0.0616764 0.76765 0.416847 0.63968 0.933705 
0.121686 0.694013 0.99567 0.647091 0.994818 
0.935443 0.314952 0.387383 0.142977 0.251125 
0.913528 0.30033 0.0756711 0.598304 0.16307 
0.505671 0.759519 0.690295 0.279969 0.616568 
0.76623 0.702138 0.803626 0.149281 0.47551 
0.189372 0.98022 0.622529 0.26985 0.359672 
0.548893 0.925633 0.797782 0.131314 0.835082 
0.212658 0.357805 0.912905 0.57187 0.573858 
0.466288 0.283922 0.680766 0.414952 0.494441 
0.84977 0.172263 0.313197 0.862607 0.310078 
0.49317 0.5636 0.992299 0.0117855 0.655332 
0.151353 0.0595186 0.558126 0.661266 0.981753 
0.961776 0.30833 0.220539 0.0038549 0.894539 
0.674641 0.562004 0.179363 0.195408 0.0867918 
0.792062 0.430249 0.998138 0.673479 0.40872 
0.403174 0.332987 0.49368 0.0639553 0.982578 
0.243671 0.538407 0.458035 0.253005 0.307753 
0.706042 0.958541 0.920216 0.465711 0.353906 
0.401935 0.288748 0.638094 0.00911014 0.646035 
0.705655 0.0283408 0.402244 0.602241 0.231472 
0.763361 0.800055 0.309006 0.230868 0.536624 
0.834219 0.155516 0.510958 0.200744 0.145353 
0.633815 0.780002 0.717587 0.0792446 0.280231 
0.11924 0.127895 0.983387 0.149174 0.138926 
0.474597 0.607159 0.3309 0.105971 0.404012 
0.0604153 0.403151 0.113538 0.552067 0.887436 
0.182548 0.882327 0.874763 0.521067 0.462852 
0.941817 0.335299 0.468958 0.438893 0.480933 
0.86858 0.457685 0.250807 0.83385 0.234795 
0.733395 0.605701 0.115015 0.115217 0.521917 
0.246798 0.70694 0.261425 0.18483 0.0368219 
0.694753 0.720647 0.979078 0.544994 0.348713 
0.44587 0.161259 0.0234244 0.230389 0.476541 
0.369347 0.237776 0.181599 0.845889 0.524478 
0.561938 0.635979 0.160549 0.843543 0.789515 
0.427572 0.835484 0.263035 0.849315 0.76219 
0.0136178 0.937561 0.725823 0.826875 0.313985 
0.854083 0.53016 0.700854 0.617693 0.608928 
0.462731 0.449384 0.0569441 0.0796942 0.65735 
0.377419 0.301826 0.735786 0.664433 0.256092 
0.379086 0.285859 0.0623844 0.226984 0.473016 
0.473593 0.800221 0.228767 0.218399 0.464949 
0.603606 0.0688494 0.941723 0.163598 0.34618 
0.240436 0.785768 0.0530652 0.19012 0.596222 
0.239448 0.130458 0.957908 0.138605 0.675573 
0.185184 0.79719 0.641211 0.797955 0.142733 
0.74699 0.754715 0.664726 0.733075 0.369628 
0.130869 0.691384 0.565298 0.0274373 0.612624 
0.243498 0.247592 0.281593 0.699406 0.556472 
0.643728 0.712465 0.238843 0.0822079 0.723827 
0.244835 0.200617 0.702355 0.351692 0.308663 
0.651825 0.549935 0.50662 0.568295 0.428515 
0.0626051 0.942986 0.118921 0.618122 0.133097 
0.352739 0.150322 0.326916 0.410872 0.511509 
0.144609 0.830443 0.616684 0.41975 0.424692 
0.515542 0.961863 0.231434 0.389024 0.365982 
0.936656 0.466171 0.326965 0.58429 0.687726 
0.403321 0.849926 0.0990793 0.2975 0.0566941 
0.923782 0.594959 0.356026 0.711581 0.73768 
0.357581 0.804973 0.428817 0.854298 0.283736 
0.669689 0.232793 0.127862 0.317464 0.925647 
0.0592937 0.510853 0.396156 0.643517 0.709774 
0.725205 0.463484 0.548225 0.119123 0.149222 
0.719513 0.854713 0.283129 0.268631 0.190293 
0.481108 0.236633 0.102196 0.321653 0.249099 
0.634618 0.638361 0.186493 0.350768 0.417656 
0.313021 0.44233 0.891178 0.804266 0.641807 
0.722542 0.0988942 0.298547 0.813483 0.948128 
0.70364 0.98144 0.842469 0.85991 0.101677 
0.596091 0.561074 0.60079 0.477149 0.179607 
0.60858 0.851593 0.600628 0.644193 0.812229 
0.976134 0.351167 0.388963 0.505637 0.303834 
0.830394 0.661524 0.676751 0.177807 0.964302 
0.694015 0.100257 0.735903 0.79533 0.65921 
0.392277 0.426119 0.817619 0.0340865 0.929447 
0.545376 0.145679 0.148264 0.389178 0.345217 
0.868426 0.367751 0.133881 0.695952 0.599368 
0.632356 0.338953 0.0600935 0.227765 0.0652171 
0.626734 0.816703 0.628476 0.845371 0.955226 
0.639041 0.105453 0.106122 0.169832 0.172276 
0.282322 0.239449 0.498868 0.381043 0.678188 
0.0621242 0.504838 0.453063 0.256164 0.341506 
0.611563 0.411316 0.494706 0.102794 0.54701 
0.44018 0.422624 0.798306 0.0346824 0.202969 
0.57417 0.716031 0.980547 0.314554 0.542977 
0.189829 0.474224 0.215015 0.500213 0.82889 
0.57462 0.137674 0.00194833 0.502049 0.670853 
0.240117 0.479771 0.69773 0.111101 0.413446 
0.0587287 0.280151 0.956279 0.190332 0.370775 
0.222502 0.012123 0.890544 0.145911 0.586021 
0.880582 0.187213 0.400427 0.548687 0.810419 
0.728179 0.733012 0.0389359 0.707811 0.634584 
0.881697 0.798147 0.256096 0.428474 0.100165 
0.944812 0.59248 0.904813 0.301279 0.306321 
0.181217 0.664427 0.991904 0.384255 0.315532 
0.998305 0.564623 0.489204 0.477966 0.447797 
0.798202 0.959849 0.032996 0.528406 0.995671 
0.470789 0.261669 0.00126219 0.389105 0.792528 
0.464479 0.317531 0.874521 0.353585 0.274555 
0.601353 0.444542 0.197691 0.93544 0.0818034 
0.362235 0.654118 0.187391 0.0678656 0.355907 
0.174664 0.582152 0.731865 0.658203 0.873981 
0.028338 0.438406 0.422344 0.0847918 0.606158 
0.797105 0.519646 0.896033 0.150636 0.971872 
0.933271 0.110605 0.519917 0.843165 0.598337 
0.166276 0.485737 0.0892401 0.518557 0.970941 
0.867568 0.298845 0.0120513 0.50336 0.373105 
0.383192 0.516355 0.939022 0.766214 0.347595 
0.315805 0.421808 0.906442 0.963236 0.505831 
0.444425 0.340133 0.252348 0.573933 0.557859 
0.734544 0.0393593 0.729354 0.473587 0.550084 
0.618433 0.935179 0.765269 0.424732 0.720267 
0.0394978 0.34124 0.966278 0.989926 0.980146 
0.904197 0.761285 0.191687 0.37659 0.916697 
0.191393 0.0538914 0.589646 0.630124 0.4401 
0.27584 0.26011 0.753309 0.0100184 0.542113 
0.993464 0.10571 0.679017 0.804253 0.286992 
0.740207 0.371009 0.0126855 0.953687 0.438026 
0.630499 0.649162 0.365195 0.407668 0.388688 
0.0823985 0.491538 0.566538 0.339441 0.233476 
0.314576 0.881921 0.184306 0.556912 0.389919 
0.947176 0.621677 0.643302 0.830597 0.341789 
0.0357562 0.682137 0.951466 0.96906 0.485402 
0.42637 0.564079 0.549351 0.681312 0.272668 
0.0330876 0.583862 0.162957 0.483186 0.225986 
0.275261 0.70796 0.252599 0.761813 0.218401 
0.452544 0.137945 0.158255 0.626166 0.550893 
0.369818 0.0516465 0.88295 0.874661 0.132163 
0.967142 0.952928 0.739247 0.959183 0.488924 
0.751359 0.082082 0.495414 0.208783 0.180958 
0.660909 0.802799 0.692303 0.943244 0.776341 
0.792875 0.295821 0.83636 0.444919 0.90603 
0.550871 0.466968 0.0767531 0.495184 0.0277839 
0.825577 0.0372968 0.326691 0.207945 0.26645 
0.23549 0.107046 0.87605 0.593431 0.28232 
0.813671 0.495987 0.656123 0.319526 0.456142 
0.154389 0.689938 0.445427 0.925665 0.855266 
0.0970457 0.855208 0.183416 0.448531 0.75594 
0.435569 0.238574 0.504811 0.347616 0.569182 
0.38202 0.938556 0.394755 0.706938 0.386169 
0.868593 0.2368 0.404584 0.656888 0.972063 
0.569248 0.697431 0.86324 0.841021 0.345769 
0.225286 0.331556 0.531154 0.712998 0.47908 
0.595464 0.247614 0.0869062 0.560153 0.125342 
0.218363 0.615133 0.870156 0.0225189 0.770494 
0.59805 0.0866522 0.32487 0.210696 0.6105 
0.639955 0.133122 0.660776 0.285399 0.587053 
0.642388 0.909006 0.935972 0.473186 0.989861 
0.24393 0.902922 0.713981 0.801396 0.345665 
0.853754 0.750889 0.677136 0.100494 0.0370106 
0.938265 0.952023 0.082922 0.477745 0.150961 
0.981753 0.913204 0.595947 0.506581 0.983119 
0.917774 0.798788 0.755423 0.644693 0.927974 
0.664806 0.381862 0.567437 0.860466 0.387515 
0.355487 0.242364 0.722965 0.993473 0.872485 
0.130508 0.124761 0.787266 0.0323405 0.541147 
0.503312 0.288454 0.05756 0.344976 0.429232 
0.805082 0.581711 0.502698 0.478723 0.468017 
0.897976 0.238452 0.0789659 0.217418 0.468495 
0.364801 0.466722 0.169461 0.393648 0.705884 
0.891327 0.621945 0.364382 0.623119 0.188224 
0.36523 0.297505 0.0579166 0.0643934 0.679633 
0.0753163 0.767223 0.114566 0.777686 0.810982 
0.58602 0.472024 0.867914 0.225617 0.850426 
0.355646 0.189802 0.417974 0.585308 0.949252 
0.152931 0.69595 0.774686 0.207382 0.450615 
0.426981 0.106832 0.988632 0.125786 0.300725 
0.041623 0.432575 0.89827 0.657182 0.084376 
0.607284 0.0640754 0.332342 0.42437 0.295261 
0.156499 0.263568 0.958879 0.991152 0.496 
0.621158 0.516677 0.263268 0.9415 0.155979 
0.0803575 0.547366 0.693614 0.809873 0.975944 
0.174149 0.523793 0.769034 0.640547 0.180786 
0.168673 0.599501 0.793948 0.339404 0.599286 
0.164132 0.0983103 0.922622 0.153669 0.558231 
0.843397 0.800678 0.81905 0.851809 0.489852 
0.697634 0.21988 0.718758 0.416441 0.394263 
0.850443 0.222778 0.836978 0.540331 0.779733 
0.512144 0.851956 0.598847 0.0919804 0.0417796 
0.708477 0.204684 0.82766 0.379716 0.885597 
0.411823 0.0235907 0.577819 0.346715 0.979279 
0.933527 0.753029 0.425437 0.967964 0.174204 
0.311911 0.962011 0.617577 0.290298 0.000133877 
0.465658 0.210341 0.693451 0.384453 0.124746 
0.116798 0.585792 0.991647 0.930792 0.928243 
0.668335 0.557775 0.0401833 0.310808 0.0411649 
0.0225027 0.688466 0.224886 0.0261942 0.53517 
0.979258 0.315684 0.997371 0.0281805 0.406422 
0.417919 0.551997 0.380325 0.443059 0.340966 
0.00726983 0.0257001 0.689397 0.960779 0.994521 
0.611495 0.175891 0.235868 0.783953 0.113346 
0.833054 0.875252 0.491561 0.381039 0.391859 
0.932773 0.165442 0.574817 0.935285 0.555831 
0.647748 0.499248 0.31147 0.696327 0.223075 
0.317356 0.965768 0.860827 0.772761 0.765211 
0.811012 0.682804 0.251326 0.0364204 0.357951 
0.0351123 0.825403 0.266735 0.715135 0.331558 
0.618877 0.882486 0.0459235 0.864923 0.209191 
0.124163 0.512053 0.611029 0.531178 0.0922622 
0.0638336 0.639423 0.90596 0.239353 0.426927 
0.0686648 0.773257 0.395556 0.160092 0.744331 
0.276973 0.663385 0.78962 0.151749 0.570451 
0.723881 0.82579 0.326846 0.755705 0.618206 
0.480411 0.335078 0.782317 0.620533 0.0465726 
0.901436 0.921554 0.848575 0.0775852 0.331576 
0.37987 0.950212 0.67842 0.74732 0.641369 
0.0710431 0.78657 0.675128 0.268967 0.775324 
0.160405 0.849426 0.334534 0.165637 0.678837 
0.281978 0.970992 0.902291 0.0684163 0.991477 
0.782644 0.848418 0.468786 0.326366 0.646665 
0.886736 0.410612 0.677555 0.728349 0.642219 
0.369657 0.696595 0.999784 0.649187 0.403573 
0.644739 0.438996 0.709577 0.407056 0.00427707 
0.489988 0.69646 0.866126 0.229992 0.923942 
0.780957 0.0823502 0.670864 0.153378 0.358221 
0.865953 0.456193 0.00324974 0.864965 0.504255 
0.143294 0.244307 0.400991 0.78854 0.607021 
0.878539 0.179931 0.729339 0.119434 0.166073 
0.287922 0.945253 0.257629 0.271258 0.40771 
0.231539 0.320531 0.998685 0.594544 0.786552 
0.146995 0.890722 0.302792 0.180436 0.695123 
0.114552 0.269876 0.239669 0.663907 0.70347 
0.834146 0.853654 0.156637 0.676267 0.695496 
0.474073 0.826469 0.312962 0.123889 0.773645 
0.365286 0.455418 0.700483 0.512407 0.890557 
0.684376 0.668127 0.0528427 0.0546935 0.669285 
0.19889 0.87532 0.471119 0.240043 0.512864 
0.418574 0.560333 0.298777 0.560376 0.744394 
0.726082 0.83246 0.473013 0.20562 0.279314 
0.915497 0.399336 0.108956 0.0830281 0.384113 
0.697172 0.384539 0.915133 0.653148 0.819333 
0.473079 0.476216 0.258854 0.94897 0.0428482 
0.26222 0.452033 0.900011 0.803928 0.388465 
0.12892 0.299174 0.436011 0.125685 0.803923 
0.452797 0.663019 0.363301 0.238587 0.782334 
0.611174 0.798839 0.363858 0.228693 0.118919 
0.247493 0.537494 0.567154 0.659783 0.377579 
0.0401419 0.955112 0.28212 0.888153 0.409083 
0.757405 0.0713596 0.522971 0.264265 0.22638 
0.684451 0.555709 0.579632 0.203383 0.609625 
0.662793 0.112787 0.847481 0.342882 0.318174 
0.693336 0.778571 0.0889754 0.204558 0.52946 
0.786652 0.202626 0.55022 0.58382 0.999 
0.160888 0.847325 0.0801836 0.521263 0.826306 
0.961768 0.701434 0.929616 0.908718 0.383195 
0.376573 0.396769 0.426247 0.234654 0.789525 
0.684092 0.958485 0.0385326 0.417422 0.476338 
0.363213 0.805226 0.315748 0.121243 0.224883 
0.206925 0.779904 0.126009 0.321857 0.321616 
0.850111 0.196457 0.384713 0.419558 0.551843 
0.161824 0.823841 0.20185 0.395947 0.759384 
0.970787 0.226014 0.477958 0.214028 0.482245 
0.212613 0.591747 0.618751 0.754863 0.3378 
0.957268 0.865182 0.880071 0.0710427 0.674042 
0.208915 0.561116 0.816382 0.525691 0.273873 
0.916122 0.264484 0.765784 0.228437 0.225513 
0.974555 0.355554 0.106289 0.652813 0.681249 
0.157739 0.302514 0.255009 0.824774 0.558453 
0.151603 0.246534 0.319161 0.384275 0.991592 
0.179614 0.217076 0.339358 0.758627 0.581402 
0.523686 0.303474 0.307493 0.357152 0.409932 
0.0742688 0.628464 0.662379 0.987804 0.962602 
0.296085 0.604936 0.934059 0.785524 0.78187 
0.497447 0.999651 0.614081 0.475037 0.0866545 
0.835674 0.781032 0.428568 0.326875 0.58956 
0.837878 0.19508 0.0643412 0.646238 0.532162 
0.39217 0.771306 0.362654 0.790435 0.19299 
0.294831 0.954697 0.714115 0.30786 0.66504 
0.954329 0.306407 0.115826 0.79817 0.057736 
0.779044 0.763751 0.7529 0.580392 0.413712 
0.707054 0.979418 0.0763825 0.0564677 0.738734 
0.250191 0.287477 0.0699158 0.334067 0.219833 
0.827608 0.666225 0.323278 0.981566 0.415083 
0.847883 0.609651 0.497702 0.336814 0.898611 
0.56106 0.368549 0.0351147 0.864056 0.661039 
0.96006 0.89757 0.600401 0.120401 0.469516 
0.210865 0.700501 0.486013 0.0641188 0.985339 
0.724009 0.327013 0.473738 0.996092 0.703441 
0.537691 0.0814251 0.749218 0.315043 0.896267 
0.751244 0.159433 0.424575 0.957353 0.959777 
0.695049 0.646959 0.299709 0.910311 0.431336 
0.425782 0.0551294 0.728052 0.690517 0.433786 
0.239839 0.170523 0.796653 0.631315 0.676975 
0.202453 0.0357518 0.992246 0.271171 0.722716 
0.575057 0.163133 0.52031 0.235303 0.518274 
0.914601 0.429529 0.436373 0.486181 0.591332 
0.681909 0.269398 0.630969 0.83436 0.834554 
0.1721 0.138833 0.898849 0.689821 0.819256 
0.114836 0.270302 0.667686 0.316659 0.699519 
0.573945 0.82637 0.457617 0.0879668 0.209818 
0.550012 0.157206 0.793524 0.911612 0.581654 
0.970715 0.34486 0.095411 0.66369 0.541553 
0.937777 0.0780914 0.543299 0.469841 0.0633739 
0.0302509 0.496639 0.124711 0.526689 0.293798 
0.76936 0.733221 0.756024 0.962033 0.286182 
0.353533 0.65582 0.267143 0.104839 0.772131 
0.473503 0.503923 0.511296 0.351582 0.852025 
0.0649454 0.0658956 0.410389 0.0187748 0.580365 
0.893051 0.692687 0.25451 0.609935 0.382416 
0.692265 0.858368 0.961681 0.00484189 0.207303 
0.649207 0.760249 0.803074 0.650465 0.0809565 
0.00824739 0.904734 0.702453 0.182364 0.515032 
