3300 5
0.249311 0.44208 0.254486 0.480798 0.752482 
0.119866 0.170468 0.361411 0.0574797 0.622094 
0.821275 0.354677 0.151786 0.818716 0.274093 
0.453545 0.042079 0.13053 0.454387 0.617071 
0.337233 0.709747 0.244059 0.456587 0.95429 
0.337484 0.298874 0.0720586 0.120005 0.0126026 
0.252246 0.552467 0.959483 0.00463071 0.128371 
0.581197 0.900157 0.633726 0.85443 0.985846 
0.264699 0.994382 0.293811 0.197694 0.757393 
0.44081 0.380451 0.748676 0.0418698 0.580997 
0.0561055 0.350938 0.271164 0.290759 0.540206 
0.927707 0.970053 0.140349 0.936475 0.135525 
0.135968 0.104061 0.0136692 0.453308 0.61918 
0.834432 0.282384 0.201382 0.429163 0.726984 
0.205297 0.03932 0.295506 0.700972 0.571224 
0.491382 0.358831 0.939954 0.945267 0.418623 
0.0989691 0.620603 0.537329 0.724694 0.154611 
0.154665 0.773983 0.941995 0.793593 0.512361 
0.0921757 0.915242 0.0316195 0.284348 0.13971 
0.691444 0.728825 0.058709 0.436596 0.814991 
0.0864813 0.94537 0.585227 0.189488 0.0362104 
0.627607 0.484963 0.563594 0.6937 0.220617 
0.912485 0.0869003 0.869785 0.683315 0.153615 
0.563361 0.496435 0.11436 0.533249 0.275667 
0.436586 0.580912 0.494784 0.989935 0.164392 
0.575324 0.793522 0.828191 0.00894549 0.238075 
0.862463 0.408138 0.334194 0.996008 0.181381 
0.382785 0.424166 0.677413 0.643324 0.671054 
0.984713 0.151593 0.402573 0.698723 0.438737 
0.81764 0.579734 0.633453 0.491308 0.535876 
0.713909 0.564792 0.836975 0.833099 0.551782 
0.182278 0.079013 0.889072 0.354548 0.523112 
0.20789 0.534846 0.0595248 0.995928 0.179821 
0.78742 0.864534 0.0989026 0.795292 0.563088 
0.603454 0.0887106 0.491646 0.990425 0.959151 
0.449304 0.647497 0.624574 0.307378 0.365723 
0.920416 0.246019 0.53868 0.0376807 0.609987 
0.218816 0.727013 0.939972 0.639544 0.610313 
0.676453 0.0383991 0.0822502 0.433884 0.177683 
0.431385 0.8145 0.851147 0.397984 0.539838 
0.0874386 0.0379793 0.0836011 0.492188 0.997883 
0.474611 0.873383 0.632225 0.129768 0.808091 
0.322625 0.539207 0.377285 0.490963 0.811639 
0.871015 0.0342289 0.201141 0.568941 0.944483 
0.489105 0.0710199 0.932621 0.370029 0.0821391 
0.0570452 0.791386 0.413656 0.794249 0.19369 
0.655249 0.27717 0.902237 0.18678 0.776092 
0.352528 0.0628799 0.0992008 0.392353 0.526989 
0.453777 0.615105 0.287764 0.114755 0.266084 
0.869053 0.0699302 0.714203 0.533821 0.184514 
0.526102 0.00469553 0.0267377 0.17086 0.316192 
0.0896558 0.0282284 0.902066 0.674076 0.975554 
0.55969 0.0200659 0.486463 0.655304 0.984442 
0.786839 0.688583 0.67195 0.244543 0.535825 
0.443341 0.124797 0.866221 0.258662 0.167822 
0.902828 0.355341 0.393974 0.964374 0.883881 
0.474613 0.627215 0.990511 0.176257 0.417591 
0.216873 0.393692 0.459927 0.750572 0.866624 
0.510053 0.550637 0.662423 0.873419 0.72204 
0.506378 0.907471 0.311339 0.970125 0.0252327 
0.386116 0.415408 0.487196 0.568596 0.0872858 
0.642823 0.119155 0.233045 0.714122 0.856122 
0.529307 0.428897 0.222248 0.967747 0.640141 
0.786653 0.143411 0.25439 0.466662 0.927109 
0.333129 0.79579 0.678478 0.116827 0.735998 
0.0730087 0.495395 0.848488 0.920249 0.676488 
0.30817 0.697679 0.70332 0.566331 0.895867 
0.552998 0.520311 0.414178 0.344798 0.818189 
0.352007 0.475819 0.434511 0.759722 0.473108 
0.984916 0.512102 0.442735 0.854573 0.511516 
0.615244 0.293806 0.697638 0.868878 0.631047 
0.779989 0.249609 0.296154 0.752104 0.577036 
0.183708 0.81371 0.987611 0.38088 0.126679 
0.688652 0.114291 0.886064 0.118488 0.222005 
0.670539 0.00184159 0.971724 0.443775 0.897177 
0.758304 0.441864 0.96841 0.779535 0.385922 
0.474043 0.720503 0.0284637 0.938858 0.104098 
0.362313 0.531166 0.854386 0.325239 0.467551 
0.227043 0.432482 0.826614 0.114127 0.983942 
0.265749 0.0460703 0.472069 0.426448 0.460709 
0.752514 0.417945 0.968741 0.959606 0.876288 
0.803306 0.292039 0.898725 0.526785 0.847238 
0.113254 0.613097 0.197877 0.878022 0.933742 
0.217502 0.200221 0.576822 0.334089 0.553364 
0.177822 0.408032 0.497561 0.384998 0.245319 
0.50631 0.864609 0.433844 0.992561 0.78875 
0.505249 0.625076 0.393392 0.17615 0.335507 
0.235833 0.0728491 0.671061 0.563524 0.0696876 
0.956343 0.791796 0.249754 0.585085 0.663049 
0.690639 0.937418 0.950745 0.216187 0.190262 
0.349265 0.26038 0.0769401 0.762247 0.12289 
0.369552 0.722396 0.566105 0.190282 0.783641 
0.470367 0.300722 0.328508 0.498525 0.847273 
0.0470901 0.897231 0.58126 0.735184 0.0663929 
0.289508 0.715827 0.670888 0.878866 0.25249 
0.813373 0.914317 0.469781 0.742943 0.124067 
0.218671 0.760305 0.435092 0.140926 0.503524 
0.455269 0.336431 0.568774 0.409366 0.680748 
0.680489 0.502867 0.391284 0.79783 0.246699 
0.328513 0.280964 0.964531 0.306596 0.417856 
0.332355 0.583649 0.778507 0.364061 0.815797 
0.162095 0.301502 0.256195 0.2126 0.815258 
0.782193 0.926243 0.508065 0.465505 0.484792 
0.576212 0.313204 0.365431 0.163415 0.622376 
0.486916 0.128004 0.454864 0.459442 0.794679 
0.948938 0.779447 0.389557 0.38188 0.736936 
0.0206278 0.93281 0.287756 0.970413 0.23293 
0.177439 0.372049 0.519248 0.0109959 0.670169 
0.427225 0.598285 0.88276 0.864589 0.612176 
0.490655 0.647983 0.826506 0.5341 0.179266 
0.509656 0.540243 0.61089 0.403249 0.789773 
0.382447 0.213946 0.36074 0.0097222 0.217991 
0.158462 0.0947173 0.876339 0.469006 0.621623 
0.403168 0.616535 0.481976 0.582758 0.451779 
0.651016 0.0670747 0.307445 0.924594 0.719059 
0.0321058 0.447882 0.693025 0.713408 0.88378 
0.098233 0.269953 0.806512 0.152473 0.295336 
0.865111 0.68861 0.578873 0.502894 0.51815 
0.968379 0.745417 0.211283 0.94832 0.385617 
0.460974 0.670316 0.199232 0.219175 0.509534 
0.450293 0.299977 0.930551 0.734711 0.947826 
0.37653 0.323446 0.635727 0.483228 0.187397 
0.545103 0.96646 0.553153 0.214142 0.983125 
0.295711 0.25883 0.0509654 0.402151 0.565629 
0.655847 0.263332 0.439795 0.737115 0.114867 
0.254828 0.72388 0.527563 0.333528 0.170727 
0.384341 0.181678 0.350134 0.920975 0.0256416 
0.022047 0.855214 0.480885 0.964273 0.482802 
0.0396843 0.825371 0.660894 0.128488 0.218889 
0.129256 0.503601 0.374462 0.714961 0.347231 
0.875554 0.204567 0.388161 0.834589 0.302646 
0.0648525 0.823514 0.763376 0.199925 0.0250959 
0.587885 0.803091 0.0882773 0.858164 0.272472 
0.865137 0.531547 0.76206 0.883224 0.0545457 
0.483425 0.650577 0.581195 0.873887 0.849385 
0.572215 0.420039 0.488484 0.0634518 0.454763 
0.474762 0.482057 0.268937 0.939683 0.180598 
0.148772 0.630815 0.684688 0.77747 0.0139819 
0.592247 0.383521 0.924149 0.300756 0.457713 
0.681548 0.3755 0.360215 0.41461 0.279921 
0.487226 0.724269 0.973012 0.657966 0.220709 
0.179032 0.0535386 0.694414 0.234939 0.555686 
0.400888 0.745915 0.182891 0.158947 0.511302 
0.0547702 0.745793 0.633748 0.456067 0.0997195 
0.0530215 0.858707 0.600641 0.130003 0.577915 
0.819083 0.833254 0.234592 0.795541 0.939225 
0.363174 0.237242 0.644356 0.878605 0.850778 
0.189009 0.350392 0.00824633 0.169769 0.306903 
0.095554 0.458727 0.775884 0.268468 0.217768 
0.362459 0.823503 0.880066 0.414829 0.621605 
0.80288 0.0626411 0.701466 0.526926 0.158995 
0.917781 0.931485 0.727704 0.611812 0.788445 
0.568016 0.161064 0.769143 0.540651 0.311144 
0.69359 0.870243 0.678838 0.935136 0.51148 
0.30394 0.180304 0.237272 0.502851 0.759531 
0.664356 0.0277506 0.725669 0.689077 0.413311 
0.441433 0.771353 0.783937 0.0338207 0.7639 
0.676869 0.338631 0.847689 0.422333 0.63664 
0.929957 0.115824 0.907873 0.269077 0.237896 
0.544053 0.114914 0.458884 0.719335 0.276313 
0.517585 0.500645 0.0434506 0.492785 0.706365 
0.208708 0.123189 0.0666861 0.822507 0.507575 
0.955414 0.378714 0.613063 0.689222 0.599791 
0.496625 0.259606 0.827051 0.0352369 0.613484 
0.616031 0.16296 0.567904 0.303012 0.365143 
0.877518 0.587602 0.73452 0.566646 0.654908 
0.0372232 0.864897 0.306073 0.0738923 0.118823 
0.50044 0.143944 0.0799799 0.949448 0.0541123 
0.367081 0.433806 0.0407687 0.68608 0.867798 
0.160899 0.510937 0.794209 0.953322 0.380257 
0.36824 0.643356 0.570963 0.470327 0.72453 
0.882624 0.317316 0.00992658 0.284746 0.341211 
0.904232 0.39764 0.943369 0.0102659 0.976545 
0.960895 0.567518 0.214339 0.731266 0.231744 
0.282794 0.858459 0.256477 0.7058 0.806411 
0.971079 0.918287 0.546763 0.606085 0.0602866 
0.489372 0.88122 0.413563 0.168522 0.963993 
0.975194 0.438432 0.567607 0.979951 0.991117 
0.016569 0.361458 0.227806 0.156223 0.794085 
0.35609 0.253945 0.413927 0.85273 0.776048 
0.634161 0.151236 0.794798 0.79244 0.116532 
0.679566 0.643313 0.565595 0.926605 0.940046 
0.0809987 0.425246 0.845232 0.0837943 0.341598 
0.490851 0.495793 0.50366 0.377006 0.350181 
0.287879 0.245723 0.731893 0.605644 0.0785683 
0.170206 0.409522 0.621887 0.94303 0.43774 
0.586889 0.91503 0.0806842 0.297215 0.304359 
0.514714 0.97838 0.568618 0.195918 0.521393 
0.699851 0.498754 0.118147 0.62639 0.9756 
0.805226 0.262946 0.669548 0.0210908 0.00736512 
0.142775 0.802991 0.471227 0.373071 0.09194 
0.728508 0.869184 0.366392 0.165805 0.980128 
0.142085 0.666157 0.48377 0.35249 0.224894 
0.187808 0.562506 0.579997 0.348844 0.400501 
0.415941 0.916693 0.563825 0.717056 0.12912 
0.888048 0.530112 0.554559 0.396171 0.237784 
0.194421 0.859328 0.874417 0.738462 0.140544 
0.109995 0.343119 0.316657 0.805681 0.894715 
0.110764 0.42292 0.983091 0.890169 0.767393 
0.606433 0.212435 0.786565 0.92888 0.218989 
0.453629 0.690187 0.392865 0.892219 0.422789 
0.650603 0.836492 0.375002 0.678826 0.182882 
0.597673 0.580088 0.0220318 0.569512 0.239709 
0.588893 0.822072 0.867333 0.535277 0.454551 
0.551355 0.28639 0.0870555 0.278616 0.0359179 
0.305556 0.669837 0.721743 0.916802 0.476552 
0.302651 0.259189 0.545382 0.850143 0.215174 
0.989003 0.559981 0.892308 0.302047 0.109495 
0.965793 0.227259 0.884523 0.909654 0.867033 
0.648483 0.629094 0.966673 0.645742 0.658185 
0.838731 0.729007 0.248926 0.746886 0.410932 
0.52532 0.573716 0.00270876 0.314203 0.933394 
0.774384 0.435138 0.886559 0.420871 0.20551 
0.031293 0.329816 0.256707 0.643286 0.896973 
0.904941 0.455262 0.145897 0.317436 0.592416 
0.627684 0.592534 0.788722 0.0109975 0.596849 
0.343611 0.650185 0.504197 0.538475 0.279947 
0.815263 0.0923424 0.539269 0.266697 0.670601 
0.681957 0.801803 0.950991 0.921347 0.00400447 
0.548425 0.457951 0.293586 0.35223 0.854094 
0.859602 0.292214 0.41064 0.744228 0.263363 
0.712152 0.205613 0.57368 0.855911 0.778502 
0.135102 0.0311988 0.777839 0.624394 0.882417 
0.370689 0.0293892 0.369907 0.598339 0.158523 
0.329143 0.0292059 0.653026 0.185452 0.790515 
0.222213 0.481773 0.709318 0.978292 0.461534 
0.450841 0.00823188 0.478456 0.0479692 0.964154 
0.406635 0.46877 0.0811252 0.118523 0.914694 
0.928948 0.668452 0.0261258 0.849365 0.246226 
0.651146 0.494519 0.230376 0.199814 0.128636 
0.884931 0.0801384 0.523303 0.203847 0.978533 
0.911933 0.273756 0.237193 0.446124 0.363095 
0.428105 0.97023 0.894831 0.328582 0.933813 
0.963678 0.184799 0.262785 0.111298 0.620172 
0.355502 0.674547 0.89311 0.558704 0.718684 
0.0910408 0.380625 0.243578 0.0552514 0.601379 
0.0310227 0.369471 0.571579 0.379552 0.493395 
0.806877 0.895243 0.186666 0.880977 0.858653 
0.246257 0.299302 0.10202 0.0358137 0.927959 
0.642873 0.327894 0.582011 0.213841 0.717511 
0.00839722 0.8503 0.541266 0.281187 0.991045 
0.570499 0.261524 0.776992 0.173336 0.938472 
0.932709 0.180296 0.975291 0.599376 0.247453 
0.211553 0.384207 0.580056 0.767094 0.28558 
0.0557049 0.118506 0.392119 0.445731 0.794865 
0.512333 0.141681 0.221861 0.924593 0.948528 
0.827945 0.610973 0.611399 0.20816 0.451601 
0.875471 0.0755726 0.374275 0.793238 0.259458 
0.376005 0.401776 0.0869538 0.90296 0.187203 
0.109272 0.449723 0.72528 0.110654 0.583915 
0.33817 0.811398 0.773897 0.58773 0.959154 
0.428088 0.149203 0.743988 0.388933 0.193865 
0.852416 0.222627 0.430966 0.0492474 0.396637 
0.276747 0.780833 0.242562 0.164945 0.166149 
0.24305 0.727761 0.400624 0.0115842 0.521204 
0.877409 0.936931 0.719289 0.99275 0.714906 
0.883438 0.410203 0.572114 0.427793 0.898818 
0.931558 0.847578 0.407754 0.762194 0.0939329 
0.968365 0.956163 0.328037 0.413742 0.4587 
0.187379 0.589864 0.443409 0.186012 0.494476 
0.829039 0.764238 0.186238 0.706087 0.116636 
0.279148 0.580164 0.517293 0.335091 0.583612 
0.893439 0.949237 0.84028 0.858754 0.355865 
0.852669 0.593261 0.2797 0.969532 0.202655 
0.810386 0.125761 0.622298 0.523541 0.403557 
0.268212 0.182004 0.199766 0.901969 0.775123 
0.554678 0.275741 0.858796 0.393951 0.973629 
0.963778 0.917093 0.768048 0.419978 0.399213 
0.803837 0.817276 0.459297 0.243949 0.477863 
0.79563 0.979529 0.587632 0.359873 0.812721 
0.108087 0.157152 0.610243 0.606425 0.905807 
0.0449744 0.721371 0.605229 0.319525 0.832275 
0.68424 0.773178 0.0832056 0.794968 0.728565 
0.818431 0.159191 0.609687 0.0879864 0.171012 
0.869825 0.331694 0.263605 0.847588 0.226383 
0.889136 0.910049 0.765021 0.16961 0.611596 
0.333317 0.124127 0.849592 0.516367 0.680233 
0.288227 0.372465 0.139233 0.490159 0.271255 
0.0439337 0.31128 0.0948696 0.0139965 0.499607 
0.837268 0.944294 0.77877 0.413539 0.782672 
0.352463 0.408624 0.494302 0.86555 0.591948 
0.166194 0.821349 0.130206 0.039718 0.320129 
0.316609 0.759435 0.298716 0.825663 0.395388 
0.388539 0.0442592 0.37573 0.830722 0.634514 
0.752112 0.459678 0.158809 0.840287 0.468084 
0.162264 0.171432 0.0318039 0.92134 0.0722978 
0.06975 0.961663 0.954794 0.0215282 0.422562 
0.669821 0.861108 0.970801 0.943579 0.262461 
0.583143 0.802154 0.47437 0.694166 0.553497 
0.114032 0.684444 0.124607 0.578111 0.78394 
0.0695131 0.360135 0.909758 0.657204 0.892528 
0.506518 0.269293 0.952906 0.918156 0.28351 
0.113547 0.141784 0.605588 0.788803 0.307697 
0.770586 0.339675 0.597094 0.211131 0.440166 
0.805006 0.930936 0.959753 0.0512266 0.864106 
0.538511 0.0556126 0.267208 0.489968 0.806672 
0.516995 0.266618 0.0321353 0.115164 0.427742 
0.946874 0.0665915 0.797528 0.825122 0.389205 
0.0677649 0.178277 0.427682 0.0316814 0.798608 
0.201296 0.974606 0.707234 0.849524 0.97422 
0.399205 0.363264 0.464172 0.0356722 0.635005 
0.538902 0.160762 0.0342471 0.557895 0.496374 
0.00617127 0.204174 0.561561 0.247491 0.183237 
0.0293746 0.181457 0.736146 0.314122 0.689257 
0.697362 0.104804 0.174596 0.500246 0.660303 
0.0908207 0.158096 0.201487 0.855508 0.348558 
0.641607 0.394324 0.634948 0.345485 0.435209 
0.447495 0.963008 0.559136 0.562923 0.230434 
0.856865 0.887974 0.576151 0.0358325 0.215988 
0.838715 0.153428 0.217786 0.631047 0.976963 
0.222509 0.32644 0.172378 0.234811 0.131134 
0.0614163 0.862621 0.463547 0.391402 0.650723 
0.760664 0.339721 0.40573 0.533662 0.396571 
0.136186 0.854811 0.0654615 0.564776 0.353075 
0.397933 0.995102 0.523783 0.529901 0.232804 
0.892302 0.400077 0.51112 0.673921 0.258328 
0.26145 0.0557228 0.565517 0.287527 0.5071 
0.668593 0.185874 0.297123 0.17825 0.537359 
0.459441 0.745827 0.241747 0.433001 0.868316 
0.13434 0.176061 0.525609 0.988789 0.544167 
0.419752 0.123656 0.118031 0.849178 0.315722 
0.0814618 0.500258 0.364628 0.339775 0.616122 
0.0647358 0.963685 0.0945133 0.014394 0.360886 
0.788671 0.618908 0.631443 0.627066 0.29535 
0.27427 0.285967 0.546675 0.114998 0.975077 
0.761607 0.558197 0.496661 0.705349 0.5746 
0.616274 0.598839 0.935457 0.210984 0.661166 
0.156808 0.281796 0.956926 0.133886 0.868437 
0.523232 0.715281 0.041901 0.331214 0.446842 
0.757823 0.845658 0.476809 0.171834 0.262248 
0.161585 0.506456 0.845674 0.183111 0.0905801 
0.529383 0.642262 0.0225846 0.377326 0.95717 
0.526794 0.407366 0.32674 0.181728 0.616131 
0.414177 0.598485 0.0559965 0.614003 0.220938 
0.116532 0.0470123 0.747718 0.97945 0.96972 
0.163393 0.230145 0.425975 0.40815 0.101567 
0.622993 0.101271 0.174941 0.100162 0.0191847 
0.432081 0.468104 0.579363 0.513739 0.383131 
0.324488 0.362576 0.294981 0.915331 0.504236 
0.114435 0.799577 0.132006 0.238844 0.843648 
0.463391 0.86066 0.846062 0.567899 0.147919 
0.798488 0.392919 0.046902 0.459984 0.75557 
0.943848 0.678407 0.679884 0.282468 0.729503 
0.586112 0.763466 0.910663 0.926487 0.250901 
0.737686 0.103931 0.522005 0.200235 0.787486 
0.413664 0.354432 0.167025 0.0164797 0.408057 
0.495685 0.605407 0.819879 0.44308 0.551299 
0.920204 0.0949846 0.464881 0.062463 0.165174 
0.00445324 0.613294 0.819734 0.50059 0.920706 
0.868689 0.410121 0.712109 0.742408 0.338764 
0.651088 0.792373 0.0445559 0.0459279 0.0993269 
0.261248 0.453135 0.613016 0.390364 0.885704 
0.684536 0.0120887 0.294052 0.470287 0.0913175 
0.140107 0.840069 0.746256 0.771588 0.457058 
0.189551 0.911365 0.727341 0.908814 0.453852 
0.582143 0.927912 0.719889 0.560344 0.257745 
0.638054 0.487283 0.500629 0.662837 0.985577 
0.359186 0.939864 0.21259 0.746052 0.595126 
0.0502326 0.7289 0.930855 0.375115 0.972381 
0.61026 0.881105 0.4072 0.802563 0.456113 
0.249728 0.563641 0.123859 0.162483 0.303947 
0.616768 0.790203 0.841607 0.718737 0.370712 
0.210857 0.765277 0.664616 0.190336 0.190084 
0.984038 0.555505 0.946971 0.389174 0.121326 
0.0453957 0.0541196 0.393461 0.374318 0.305652 
0.0227645 0.254327 0.129822 0.21078 0.290395 
0.697564 0.337537 0.102838 0.280855 0.148727 
0.833736 0.437591 0.310941 0.281509 0.32462 
0.126991 0.00429677 0.39253 0.465826 0.745963 
0.11775 0.240281 0.36587 0.821378 0.323681 
0.419096 0.77029 0.604878 0.430394 0.727577 
0.0749787 0.712645 0.782088 0.721146 0.900512 
0.697478 0.755135 0.772287 0.267669 0.769115 
0.834122 0.800816 0.582084 0.182312 0.393483 
0.682331 0.584598 0.038938 0.638189 0.529464 
0.0956421 0.775926 0.520491 0.921945 0.316684 
0.493518 0.675544 0.285256 0.311886 0.810146 
0.854351 0.0680381 0.478829 0.560759 0.404321 
0.683475 0.578934 0.459001 0.849659 0.529221 
0.32933 0.596713 0.819547 0.471175 0.105284 
0.638098 0.612483 0.346723 0.173727 0.522015 
0.183022 0.361289 0.0962163 0.44064 0.587314 
0.00843888 0.0422606 0.224975 0.286584 0.679066 
0.831123 0.152416 0.271003 0.778113 0.757772 
0.490474 0.247946 0.102046 0.796676 0.773038 
0.045746 0.76096 0.488642 0.21999 0.493997 
0.371444 0.0917874 0.597848 0.137319 0.272702 
0.763382 0.25606 0.25499 0.640945 0.590297 
0.267839 0.129948 0.419083 0.250797 0.489703 
0.50614 0.849225 0.28718 0.347113 0.640387 
0.592236 0.361013 0.825979 0.402997 0.476201 
0.943153 0.962653 0.580795 0.106046 0.73405 
0.0700543 0.0781394 0.234913 0.557397 0.338014 
0.181752 0.377118 0.316271 0.361904 0.420207 
0.896528 0.862189 0.698052 0.197441 0.760103 
0.46091 0.679303 0.751256 0.245965 0.948819 
0.932671 0.234042 0.191435 0.651655 0.0988492 
0.612292 0.569237 0.45097 0.946647 0.196837 
0.632778 0.0550882 0.689055 0.103856 0.659744 
0.646122 0.0483163 0.0702892 0.846462 0.480991 
0.94672 0.713214 0.960047 0.0468873 0.177845 
0.776495 0.61231 0.139325 0.0840842 0.708634 
0.645218 0.316511 0.0373951 0.877372 0.99013 
0.536579 0.446912 0.11543 0.18005 0.615643 
0.562667 0.616655 0.925211 0.268059 0.312153 
0.561721 0.616117 0.972267 0.419018 0.727302 
0.656129 0.135113 0.0343352 0.116234 0.552461 
0.221893 0.480671 0.124485 0.383247 0.740836 
0.913376 0.588526 0.661946 0.439994 0.787742 
0.166734 0.305208 0.108048 0.788204 0.913468 
0.812282 0.789078 0.550964 0.51462 0.988682 
0.115588 0.451285 0.744093 0.23597 0.0879539 
0.919108 0.104408 0.677998 0.524493 0.437728 
0.0867753 0.550203 0.682055 0.272943 0.565076 
0.0689596 0.597518 0.189716 0.806268 0.47131 
0.309289 0.997829 0.327364 0.223753 0.946302 
0.992493 0.542823 0.950087 0.0132952 0.861352 
0.613747 0.991632 0.673129 0.913774 0.404779 
0.516305 0.596887 0.284421 0.528689 0.978166 
0.955607 0.840273 0.384737 0.228282 0.654519 
0.936493 0.665208 0.108254 0.946029 0.230223 
0.396907 0.302418 0.86442 0.459863 0.129171 
0.732782 0.291047 0.902234 0.37101 0.160284 
0.0831521 0.363759 0.180069 0.549198 0.551008 
0.634971 0.1938 0.386705 0.560909 0.168423 
0.740954 0.060448 0.399939 0.11575 0.00985254 
0.501525 0.409134 0.203873 0.901483 0.778483 
0.870441 0.932404 0.0310858 0.733244 0.544612 
0.9342 0.306639 0.928412 0.567636 0.76709 
0.110672 0.246734 0.215531 0.398499 0.449609 
0.414237 0.625003 0.747974 0.240303 0.344333 
0.304373 0.481223 0.36108 0.0404112 0.758441 
0.106372 0.0167872 0.850718 0.0613626 0.0671973 
0.243404 0.346891 0.659026 0.379491 0.363207 
0.0641989 0.960309 0.429548 0.77892 0.515101 
0.821194 0.998345 0.710171 0.995148 0.416238 
0.852121 0.0260007 0.383525 0.489494 0.770657 
0.936521 0.888061 0.312827 0.185634 0.587257 
0.821386 0.174118 0.779071 0.317378 0.897017 
0.252901 0.83905 0.733073 0.798939 0.174141 
0.863568 0.627565 0.343961 0.140952 0.421498 
0.337097 0.749376 0.295616 0.53548 0.421922 
0.0746028 0.309056 0.774638 0.884971 0.701246 
0.61323 0.367266 0.367814 0.823588 0.472184 
0.27118 0.670817 0.696031 0.454388 0.363809 
0.840381 0.121098 0.102118 0.898232 0.642789 
0.578525 0.92046 0.374954 0.630309 0.373537 
0.439198 0.705144 0.70664 0.881082 0.749965 
0.571006 0.262196 0.982292 0.598404 0.977278 
0.13597 0.592356 0.570783 0.0649421 0.252068 
0.981333 0.623846 0.472401 0.553597 0.115778 
0.94305 0.236524 0.403903 0.898591 0.12367 
0.591507 0.675751 0.744872 0.281427 0.902797 
0.482952 0.403753 0.347389 0.954648 0.295734 
0.525647 0.565059 0.772389 0.751129 0.68703 
0.643916 0.765936 0.234709 0.369326 0.0618046 
0.684153 0.860524 0.598325 0.284029 0.0973662 
0.0198746 0.376752 0.962849 0.418117 0.913377 
0.16286 0.681134 0.884 0.955633 0.740618 
0.715484 0.466703 0.842722 0.596278 0.252085 
0.217306 0.982715 0.444226 0.458706 0.0588528 
0.668829 0.0093366 0.225539 0.406166 0.543741 
0.119466 0.173861 0.883132 0.988543 0.0428765 
0.125908 0.0989049 0.214521 0.430864 0.954402 
0.386454 0.0631147 0.920203 0.0157119 0.601283 
0.937725 0.307465 0.600645 0.729735 0.731117 
0.971154 0.787482 0.194098 0.92122 0.254597 
0.234336 0.899324 0.993343 0.539192 0.203012 
0.0307374 0.0964566 0.482322 0.517827 0.413894 
0.375562 0.0156447 0.489654 0.873846 0.203003 
0.073217 0.858866 0.303623 0.118776 0.612727 
0.0916326 0.312085 0.0379519 0.176861 0.137945 
0.624547 0.934365 0.843198 0.298593 0.10312 
0.250035 0.529771 0.581774 0.437701 0.263899 
0.0994648 0.434291 0.499803 0.789932 0.9382 
0.0989578 0.0490449 0.481657 0.223936 0.166594 
0.984095 0.379484 0.958139 0.749519 0.121212 
0.486685 0.362974 0.890338 0.785322 0.930889 
0.902732 0.405237 0.10833 0.357244 0.485372 
0.723872 0.723362 0.981187 0.106055 0.998058 
0.842642 0.0314708 0.541699 0.972259 0.558635 
0.326538 0.60833 0.0497238 0.65288 0.948622 
0.127498 0.602257 0.326811 0.581885 0.170664 
0.740119 0.0984992 0.999613 0.905353 0.0216269 
0.804079 0.572778 0.715855 0.704857 0.982121 
0.534716 0.674543 0.68348 0.909982 0.853738 
0.809246 0.22496 0.0132769 0.075627 0.521253 
0.198545 0.975446 0.770706 0.662668 0.225585 
0.953518 0.313894 0.10148 0.244746 0.931367 
0.901074 0.402783 0.644275 0.381851 0.597616 
0.257017 0.383349 0.18737 0.312706 0.0573282 
0.292165 0.279463 0.900442 0.732029 0.605036 
0.141868 0.323046 0.0815595 0.35857 0.0162588 
0.5549 0.310555 0.97122 0.197197 0.575042 
0.524631 0.918607 0.638221 0.0440892 0.595336 
0.162354 0.132184 0.373126 0.240982 0.119507 
0.715076 0.227529 0.137511 0.539845 0.493932 
0.794386 0.904614 0.195487 0.837514 0.20928 
0.730108 0.569091 0.176098 0.850489 0.36524 
0.788409 0.31217 0.38612 0.443368 0.291259 
0.919332 0.951802 0.647449 0.0850635 0.169141 
0.312767 0.0989277 0.0632497 0.0120854 0.846225 
0.330421 0.0562031 0.661057 0.0457081 0.294094 
0.19303 0.195517 0.199783 0.783191 0.142779 
0.569542 0.839712 0.981363 0.288824 0.74031 
0.538598 0.468102 0.714913 0.578962 0.999618 
0.420875 0.618334 0.0491971 0.863191 0.8282 
0.690119 0.749015 0.482507 0.0943357 0.293398 
0.855346 0.666979 0.108048 0.270271 0.545435 
0.62692 0.979623 0.413405 0.508921 0.693938 
0.897295 0.166925 0.788747 0.280769 0.569114 
0.446654 0.0366032 0.378613 0.126637 0.288748 
0.609189 0.466185 0.190545 0.206954 0.410077 
0.158085 0.142373 0.798177 0.510854 0.0448762 
0.713378 0.810849 0.452553 0.139297 0.389709 
0.737208 0.876699 0.37346 0.998676 0.613342 
0.0740538 0.692036 0.292805 0.960875 0.0914003 
0.170188 0.996226 0.926843 0.129347 0.584072 
0.509997 0.738289 0.202437 0.1475 0.324877 
0.699035 0.206857 0.199391 0.329192 0.137946 
0.0394456 0.342167 0.946091 0.675739 0.705271 
0.580391 0.795677 0.19857 0.301206 0.639327 
0.773649 0.625055 0.70497 0.123955 0.00398706 
0.911578 0.647832 0.531637 0.540995 0.298153 
0.954635 0.170505 0.87352 0.592787 0.352927 
0.591407 0.0307238 0.557933 0.242778 0.951043 
0.0772392 0.580442 0.862252 0.938756 0.0482573 
0.501137 0.726832 0.296607 0.318706 0.558204 
0.41949 0.305371 0.344561 0.793761 0.893009 
0.160372 0.990656 0.62006 0.230352 0.458042 
0.447991 0.307984 0.196017 0.263736 0.842117 
0.344538 0.0199625 0.253213 0.420989 0.905703 
0.473741 0.606407 0.698862 0.975327 0.839908 
0.269764 0.765606 0.638664 0.935943 0.271722 
0.281894 0.199628 0.994692 0.571709 0.677532 
0.751081 0.95956 0.295415 0.492584 0.315217 
0.809619 0.625505 0.510707 0.584949 0.856698 
0.352467 0.935287 0.394601 0.136052 0.824912 
0.579739 0.728872 0.511632 0.735568 0.573202 
0.316558 0.903604 0.344958 0.978157 0.703946 
0.538803 0.351973 0.957982 0.719982 0.918954 
0.220295 0.227537 0.0364027 0.525415 0.803977 
0.827513 0.0573206 0.4958 0.287633 0.813705 
0.333557 0.625247 0.480872 0.311705 0.014768 
0.864268 0.373381 0.0730996 0.890807 0.163418 
0.76196 0.994476 0.162682 0.215626 0.34398 
0.41237 0.632034 0.823806 0.745716 0.38227 
0.459991 0.364312 0.796742 0.954577 0.656532 
0.0592023 0.330991 0.938228 0.135246 0.128781 
0.676865 0.887909 0.737408 0.742627 0.38775 
0.684083 0.208004 0.144311 0.121325 0.596258 
0.539532 0.408195 0.828738 0.0547116 0.386615 
0.429038 0.836846 0.650513 0.279774 0.363837 
0.939488 0.533614 0.186025 0.105266 0.0254246 
0.915338 0.157171 0.772487 0.395656 0.3072 
0.88161 0.11337 0.565414 0.260819 0.0444247 
0.946331 0.00727139 0.648336 0.93439 0.538435 
0.0181107 0.402817 0.115688 0.257933 0.683393 
0.218446 0.370645 0.980269 0.604587 0.932209 
0.79655 0.657564 0.629197 0.423679 0.250541 
0.50368 0.219307 0.73 0.454769 0.118151 
0.906671 0.376007 0.32459 0.206407 0.661679 
0.435189 0.573239 0.130534 0.778224 0.960569 
0.0367507 0.489042 0.351618 0.621317 0.384163 
0.867729 0.268266 0.883971 0.904202 0.185628 
0.162977 0.400581 0.0261284 0.0339199 0.347549 
0.438631 0.0488117 0.678604 0.998308 0.558279 
0.390758 0.177377 0.536808 0.982839 0.425839 
0.255467 0.591859 0.285176 0.152797 0.475187 
0.364341 0.137519 0.969076 0.996717 0.362138 
0.765357 0.359944 0.442279 0.0663834 0.104051 
0.350713 0.776943 0.403364 0.576237 0.474203 
0.257555 0.955392 0.713797 0.0826159 0.742902 
0.4145 0.333848 0.743007 0.742974 0.24881 
0.263815 0.412614 0.39478 0.906159 0.945916 
0.379739 0.456664 0.52648 0.223804 0.803877 
0.804273 0.0471504 0.188645 0.523789 0.347906 
0.925184 0.0503609 0.286036 0.120342 0.593227 
0.252436 0.718895 0.596458 0.31284 0.292662 
0.388357 0.9553 0.620487 0.543706 0.22415 
0.516635 0.400896 0.173682 0.197067 0.902137 
0.0496114 0.580355 0.0470884 0.178578 0.856871 
0.623892 0.0105495 0.987376 0.523573 0.906109 
0.245379 0.982501 0.0357954 0.599738 0.190035 
0.844266 0.0464028 0.30449 0.563566 0.473921 
0.441065 0.126671 0.406087 0.0638298 0.879661 
0.512503 0.6418 0.719811 0.607277 0.177405 
0.0922558 0.0199602 0.752334 0.331562 0.060647 
0.0374325 0.463654 0.18137 0.0501385 0.369483 
0.225513 0.263362 0.785645 0.143344 0.757103 
0.76626 0.767987 0.969396 0.164775 0.134264 
0.957183 0.578258 0.778884 0.440703 0.136155 
0.412438 0.597657 0.0281655 0.362378 0.362201 
0.276106 0.750001 0.15236 0.805147 0.650622 
0.798797 0.0509428 0.0729342 0.352399 0.449154 
0.26532 0.577369 0.122308 0.232627 0.777317 
0.400305 0.111278 0.981569 0.0886137 0.388565 
0.475768 0.142422 0.510385 0.637037 0.534609 
0.33332 0.740076 0.298146 0.0265729 0.304374 
0.960797 0.23858 0.0858925 0.336003 0.991041 
0.67483 0.463017 0.928083 0.932905 0.0994714 
0.659795 0.440329 0.942571 0.604742 0.0915529 
0.947581 0.0278913 0.177256 0.308387 0.301776 
0.386814 0.398479 0.725802 0.20283 0.517006 
0.435942 0.730158 0.280956 0.406659 0.760686 
0.720968 0.0667955 0.0434758 0.582859 0.712173 
0.959596 0.599629 0.755263 0.402156 0.991845 
0.935074 0.494864 0.515248 0.0245315 0.351367 
0.866121 0.712857 0.28488 0.895238 0.825149 
0.0966447 0.0241515 0.995896 0.83155 0.424894 
0.974018 0.0768157 0.0579094 0.623965 0.906695 
0.230185 0.463527 0.141804 0.844265 0.267923 
0.639263 0.834198 0.489815 0.0743026 0.286832 
0.705782 0.709984 0.0740679 0.553867 0.482246 
0.597466 0.97109 0.322127 0.400319 0.562795 
0.235345 0.19972 0.819934 0.676886 0.341565 
0.594486 0.981914 0.408729 0.510254 0.0133573 
0.786038 0.815411 0.530807 0.668606 0.741867 
0.0982352 0.745001 0.748484 0.228132 0.281883 
0.265438 0.746874 0.709987 0.771652 0.432909 
0.695703 0.407827 0.263483 0.086779 0.0736909 
0.302231 0.922568 0.0666417 0.782597 0.509041 
0.0949738 0.360714 0.190682 0.570844 0.420713 
0.0132043 0.949082 0.878771 0.374667 0.404518 
0.331564 0.129108 0.0734353 0.512566 0.246177 
0.641427 0.829039 0.0760937 0.0950131 0.938973 
0.527722 0.347344 0.160977 0.18926 0.817139 
0.352117 0.343403 0.642171 0.322934 0.746989 
0.0233797 0.0038371 0.841738 0.82997 0.241302 
0.907102 0.653438 0.0918775 0.511632 0.630798 
0.562816 0.516821 0.565207 0.549403 0.684585 
0.0711133 0.676276 0.762106 0.109093 0.4678 
0.621731 0.151617 0.427408 0.425967 0.819496 
0.0109817 0.657364 0.77066 0.748529 0.779319 
0.792215 0.832165 0.978118 0.707944 0.447304 
0.607075 0.876271 0.358684 0.594719 0.722838 
0.539851 0.119591 0.496506 0.708081 0.123161 
0.304467 0.300269 0.142943 0.315597 0.102977 
0.474164 0.935002 0.336998 0.404588 0.806077 
0.61623 0.252814 0.866749 0.904362 0.414777 
0.588443 0.292279 0.0603423 0.978977 0.652908 
0.88601 0.661926 0.199004 0.963746 0.182908 
0.293015 0.807422 0.917174 0.838787 0.322583 
0.980865 0.00679194 0.812898 0.201062 0.226771 
0.753713 0.823219 0.423168 0.48076 0.737495 
0.648342 0.0771377 0.125175 0.461467 0.816499 
0.353154 0.325817 0.955798 0.302953 0.87694 
0.155635 0.415234 0.061745 0.156062 0.642191 
0.132888 0.48391 0.856266 0.364972 0.501056 
0.0535129 0.551797 0.83615 0.663679 0.0743563 
0.00930776 0.725874 0.242276 0.260052 0.857108 
0.809682 0.602412 0.58171 0.744837 0.625986 
0.460273 0.0430117 0.985993 0.41549 0.322327 
0.69727 0.781726 0.141865 0.0525427 0.692012 
0.746053 0.556475 0.471695 0.369337 0.722029 
0.696667 0.0736691 0.618631 0.150064 0.24707 
0.0128542 0.372747 0.666756 0.120256 0.9867 
0.0874594 0.630577 0.790465 0.629147 0.534268 
0.122662 0.172632 0.354885 0.931481 0.848618 
0.786921 0.677615 0.0136044 0.62485 0.558062 
0.595832 0.653343 0.818083 0.0659765 0.843851 
0.70654 0.544066 0.98964 0.39999 0.233365 
0.289431 0.947621 0.144584 0.458389 0.116853 
0.630789 0.188564 0.778181 0.136759 0.762002 
0.776709 0.387827 0.62522 0.0615121 0.0965919 
0.991385 0.492807 0.660907 0.563624 0.577675 
0.319219 0.788279 0.83844 0.299926 0.514198 
0.704386 0.0430165 0.0284853 0.99942 0.982731 
0.689424 0.252127 0.129085 0.730983 0.296392 
0.215806 0.624724 0.921913 0.948375 0.89334 
0.754107 0.157595 0.0523207 0.36659 0.879579 
0.827867 0.845326 0.341544 0.397971 0.296306 
0.709358 0.165011 0.230887 0.0221168 0.0384178 
0.533284 0.41176 0.239666 0.950434 0.212537 
0.0555484 0.779449 0.616831 0.842715 0.0938058 
0.995434 0.891492 0.896296 0.780485 0.746917 
0.27625 0.983922 0.207645 0.538826 0.958982 
0.675559 0.619905 0.610929 0.842314 0.636631 
0.200423 0.52066 0.944993 0.146175 0.762466 
0.90058 0.763539 0.157893 0.958914 0.533338 
0.0120211 0.831661 0.0607475 0.427491 0.0733733 
0.0628402 0.492166 0.902097 0.765656 0.170508 
0.0507217 0.941291 0.856526 0.847676 0.948721 
0.956893 0.32534 0.938541 0.0118218 0.377785 
0.46544 0.385143 0.922854 0.726232 0.29867 
0.8052 0.693939 0.671734 0.542616 0.770015 
0.623293 0.973686 0.491098 0.28233 0.818806 
0.907668 0.186367 0.960966 0.928542 0.152553 
0.225112 0.472254 0.47663 0.723294 0.997559 
0.692418 0.989048 0.232208 0.0579855 0.587666 
0.0924193 0.96814 0.99484 0.460465 0.802517 
0.811097 0.190844 0.766504 0.203872 0.964693 
0.563746 0.893675 0.246999 0.0988155 0.462331 
0.171398 0.89142 0.52333 0.460362 0.76708 
0.870425 0.850587 0.695341 0.989431 0.342827 
0.3475 0.454176 0.629018 0.639881 0.178276 
0.734858 0.791659 0.428108 0.596587 0.358424 
0.42471 0.752027 0.272515 0.220516 0.312877 
0.447665 0.470732 0.122703 0.722465 0.154487 
0.355639 0.145833 0.0285996 0.964219 0.502646 
0.298046 0.480059 0.699957 0.807753 0.11698 
0.207925 0.365492 0.22069 0.516227 0.0802266 
0.496785 0.363553 0.47057 0.740064 0.314341 
0.415491 0.573216 0.84065 0.19618 0.245159 
0.140792 0.709591 0.76899 0.673816 0.390836 
0.146867 0.683301 0.574759 0.296208 0.979312 
0.334686 0.189637 0.949679 0.497682 0.0429099 
0.0336986 0.301257 0.905654 0.123966 0.433342 
0.491214 0.3285 0.783119 0.178215 0.609028 
0.536491 0.0203302 0.204791 0.878867 0.913114 
0.996298 0.128947 0.74588 0.714678 0.943733 
0.195117 0.787556 0.441956 0.336907 0.224587 
0.676494 0.773536 0.943684 0.496669 0.966147 
0.903091 0.710648 0.414172 0.328577 0.615092 
0.681174 0.200345 0.482517 0.534852 0.178339 
0.189728 0.190989 0.475137 0.819206 0.598678 
0.779984 0.325104 0.0578569 0.121381 0.27161 
0.310975 0.260465 0.528224 0.455182 0.997448 
0.218867 0.224991 0.0744268 0.0285909 0.735112 
0.213003 0.33303 0.216095 0.45959 0.0629699 
0.938848 0.331656 0.371549 0.985683 0.447642 
0.474219 0.30055 0.803155 0.224404 0.469358 
0.18808 0.559448 0.456746 0.57425 0.707225 
0.442992 0.32022 0.850018 0.111478 0.471723 
0.42847 0.188264 0.769853 0.1388 0.0832315 
0.180094 0.943919 0.472759 0.751804 0.213022 
0.24579 0.735601 0.699553 0.208975 0.414335 
0.0715344 0.843199 0.0315824 0.93497 0.134493 
0.712994 0.418215 0.507129 0.715155 0.742409 
0.400611 0.432932 0.931093 0.0536534 0.785286 
0.478701 0.533078 0.789511 0.335227 0.72146 
0.459314 0.433093 0.801004 0.29234 0.417695 
0.0977279 0.728665 0.449372 0.788472 0.522894 
0.209643 0.889517 0.863383 0.214723 0.719809 
0.397197 0.190189 0.900722 0.47611 0.195933 
0.937988 0.876272 0.283921 0.538533 0.409524 
0.0291725 0.697466 0.701427 0.807429 0.213713 
0.176674 0.642552 0.577081 0.767901 0.182834 
0.722761 0.380136 0.919378 0.0538913 0.786499 
0.0662796 0.964466 0.678038 0.00346909 0.679215 
0.908693 0.570605 0.37614 0.144145 0.0430045 
0.303247 0.0552829 0.741168 0.769421 0.0250207 
0.640367 0.774657 0.87065 0.390375 0.683654 
0.0328726 0.615215 0.27772 0.339779 0.506494 
0.800397 0.243593 0.507893 0.651918 0.0564199 
0.0229116 0.815665 0.0508105 0.697076 0.624924 
0.467751 0.358356 0.996212 0.129146 0.135458 
0.107913 0.866977 0.982903 0.271233 0.251309 
0.389561 0.705826 0.604078 0.173418 0.461097 
0.766502 0.214798 0.691856 0.235971 0.0799458 
0.3539 0.0031456 0.203131 0.587337 0.812292 
0.942212 0.0800456 0.875574 0.840879 0.721785 
0.297638 0.393194 0.794371 0.622532 0.019479 
0.421199 0.0544027 0.620479 0.839425 0.507729 
0.815162 0.701496 0.567862 0.373252 0.942967 
0.711242 0.670153 0.449377 0.827306 0.874048 
0.0159165 0.507181 0.711936 0.276059 0.898715 
0.45851 0.540123 0.72814 0.109665 0.741026 
0.104683 0.794325 0.727672 0.876631 0.0445601 
0.447308 0.321104 0.951214 0.20183 0.432536 
0.688361 0.510606 0.0874238 0.920177 0.320224 
0.775129 0.559918 0.188591 0.927812 0.111995 
0.859113 0.866122 0.0393747 0.107027 0.84843 
0.0298221 0.355163 0.563874 0.641627 0.995995 
0.211748 0.691197 0.80044 0.0934136 0.303347 
0.37085 0.804644 0.694407 0.47239 0.576149 
0.817378 0.412931 0.792931 0.489155 0.10187 
0.966225 0.840784 0.470948 0.182361 0.243481 
0.12897 0.136547 0.367376 0.956467 0.026966 
0.930116 0.771988 0.19091 0.205788 0.654058 
0.0868085 0.38651 0.442573 0.779475 0.468511 
0.750575 0.728981 0.221188 0.658396 0.916783 
0.0183834 0.817175 0.8389 0.431916 0.0429875 
0.898502 0.592431 0.142783 0.303607 0.689209 
0.851212 0.0600335 0.0817869 0.61853 0.64689 
0.0770277 0.0673573 0.636045 0.140276 0.638815 
0.901359 0.930833 0.189044 0.351177 0.242875 
0.0818904 0.47438 0.40036 0.784921 0.602977 
0.0362959 0.273771 0.0362435 0.51632 0.658263 
0.0664975 0.410814 0.0371335 0.138346 0.284873 
0.779652 0.963863 0.690352 0.808739 0.0648394 
0.484399 0.867561 0.400423 0.617053 0.00941233 
0.428625 0.44976 0.0374326 0.917083 0.774956 
0.528706 0.364529 0.582292 0.63606 0.445578 
0.352263 0.143753 0.567697 0.55793 0.834739 
0.912416 0.827019 0.926467 0.346934 0.947981 
0.503862 0.885937 0.876702 0.981475 0.937147 
0.344191 0.502254 0.0656538 0.939425 0.203303 
0.675084 0.713952 0.516386 0.870108 0.457167 
0.533115 0.915021 0.552873 0.558264 0.350118 
0.854004 0.480827 0.254363 0.503977 0.294655 
0.20633 0.793216 0.682208 0.822211 0.198211 
0.0200205 0.320232 0.61474 0.665611 0.0624413 
0.551344 0.365482 0.0174626 0.63643 0.144526 
0.848936 0.725669 0.933869 0.468147 0.24063 
0.716787 0.201629 0.551012 0.477957 0.628133 
0.889633 0.833898 0.03016 0.275434 0.618707 
0.0122003 0.204038 0.896074 0.431421 0.555228 
0.0310444 0.517094 0.0527732 0.74665 0.789544 
0.578186 0.199148 0.103511 0.403817 0.230922 
0.443994 0.206556 0.304615 0.0310222 0.180739 
0.0406179 0.245729 0.10437 0.126601 0.0141729 
0.0565937 0.945626 0.206988 0.512299 0.88378 
0.192206 0.646763 0.358637 0.0814238 0.0425379 
0.199213 0.0782334 0.0895525 0.587161 0.712608 
0.0482524 0.764145 0.238944 0.57602 0.0271888 
0.0852769 0.904077 0.0987443 0.512208 0.461834 
0.534676 0.670518 0.592308 0.553323 0.278522 
0.404888 0.162952 0.0848398 0.737725 0.619022 
0.0450916 0.319723 0.0647359 0.794456 0.313691 
0.758282 0.0612539 0.212085 0.866985 0.925429 
0.495079 0.961256 0.34179 0.16723 0.290166 
0.723211 0.767025 0.222512 0.237168 0.293689 
0.943452 0.361046 0.144977 0.873441 0.553984 
0.394643 0.228323 0.78898 0.627629 0.460987 
0.108594 0.786428 0.753232 0.290258 0.143961 
0.538082 0.80993 0.333966 0.0424745 0.637471 
0.407652 0.373857 0.461622 0.848057 0.600334 
0.491661 0.792264 0.312502 0.411967 0.101923 
0.180306 0.457621 0.917167 0.700735 0.065266 
0.967238 0.99244 0.526531 0.205757 0.954889 
0.22237 0.844601 0.0426137 0.336919 0.915893 
0.134732 0.491614 0.472236 0.120769 0.763823 
0.0782692 0.575167 0.551648 0.052765 0.758819 
0.155959 0.359223 0.0481023 0.158929 0.596534 
0.148407 0.553904 0.831827 0.399001 0.387569 
0.227047 0.7166 0.852552 0.453012 0.817609 
0.57751 0.269886 0.799708 0.0406157 0.063095 
0.734964 0.908735 0.854256 0.730665 0.89711 
0.955859 0.90196 0.368455 0.902324 0.241563 
0.284957 0.556845 0.139114 0.428351 0.872996 
0.0450855 0.219918 0.033442 0.381004 0.645737 
0.316436 0.323612 0.782728 0.126607 0.0304232 
0.583881 0.0800451 0.643186 0.684369 0.645799 
0.859522 0.884189 0.263981 0.966115 0.990088 
0.867029 0.850955 0.0641052 0.498282 0.520464 
0.228737 0.337318 0.545266 0.0307307 0.874144 
0.20369 0.798233 0.317368 0.829661 0.440348 
0.197301 0.571016 0.119866 0.298872 0.538032 
0.27627 0.283381 0.307351 0.173794 0.682829 
0.540473 0.724077 0.0892836 0.63376 0.989312 
0.754024 0.123848 0.491747 0.558186 0.578569 
0.307975 0.114132 0.382987 0.309989 0.584398 
0.408081 0.424994 0.596629 0.533365 0.972396 
0.462472 0.517382 0.93205 0.597554 0.234725 
0.258418 0.904644 0.26416 0.101236 0.0477275 
0.913212 0.560325 0.448461 0.23625 0.241132 
0.307368 0.485673 0.74517 0.428627 0.485554 
0.67116 0.836678 0.833635 0.557115 0.547628 
0.284202 0.061921 0.272359 0.0524854 0.674845 
0.756566 0.38432 0.139578 0.714574 0.823289 
0.588088 0.378946 0.525119 0.772421 0.988371 
0.832061 0.280482 0.409153 0.886317 0.9624 
0.0766057 0.495353 0.423841 0.154735 0.629094 
0.656266 0.516669 0.583466 0.797318 0.274734 
0.616286 0.0923324 0.260963 0.752573 0.507134 
0.195017 0.875294 0.959234 0.311679 0.148467 
0.0427871 0.714809 0.375876 0.00835108 0.577919 
0.947812 0.076243 0.687803 0.119424 0.654785 
0.520907 0.580058 0.361517 0.462253 0.283416 
0.878606 0.993161 0.684433 0.853931 0.340377 
0.955754 0.967757 0.0465864 0.275768 0.79423 
0.37995 0.46168 0.297869 0.902295 0.2811 
0.678434 0.234597 0.477968 0.267582 0.240297 
0.462214 0.494959 0.409032 0.833963 0.270982 
0.543136 0.486216 0.926894 0.841372 0.197796 
0.274715 0.901207 0.474729 0.851772 0.169152 
0.0965683 0.916223 0.758828 0.939455 0.782771 
0.959301 0.389689 0.00951524 0.434699 0.601578 
0.47619 0.0607189 0.847416 0.67862 0.778328 
0.0629224 0.120651 0.916061 0.307021 0.465201 
0.756748 0.393784 0.917572 0.644904 0.706875 
0.965883 0.209603 0.291744 0.90432 0.765552 
0.127719 0.349845 0.918217 0.906343 0.472827 
0.857787 0.513536 0.801993 0.271198 0.765186 
0.391664 0.460506 0.34888 0.133368 0.169064 
0.972999 0.097515 0.774993 0.84165 0.595975 
0.0102861 0.694913 0.123319 0.321807 0.516072 
0.767709 0.0452901 0.593881 0.395882 0.562025 
0.184412 0.856187 0.368623 0.798783 0.535474 
0.70139 0.610656 0.83948 0.878021 0.14908 
0.575327 0.64722 0.611163 0.649917 0.016787 
0.875524 0.783247 0.590241 0.440483 0.0775258 
0.386515 0.868969 0.900146 0.414584 0.333819 
0.614066 0.873188 0.700218 0.541944 0.736538 
0.17314 0.211181 0.967331 0.497404 0.618711 
0.543381 0.366989 0.414957 0.521187 0.352124 
0.15794 0.120121 0.171288 0.657623 0.140355 
0.94994 0.17812 0.917045 0.383528 0.786804 
0.668502 0.495142 0.586554 0.393862 0.723913 
0.769527 0.22266 0.210549 0.589799 0.00688174 
0.559773 0.0439815 0.392912 0.651318 0.44984 
0.4379 0.724769 0.707206 0.97275 0.438215 
0.316942 0.720667 0.838602 0.365097 0.216494 
0.111487 0.529626 0.65664 0.61172 0.455743 
0.441924 0.521848 0.789194 0.183455 0.296795 
0.588648 0.538306 0.21817 0.111793 0.280919 
0.823658 0.166312 0.799148 0.458334 0.662441 
0.483083 0.621717 0.952775 0.241725 0.171971 
0.11585 0.0293999 0.0487153 0.644198 0.175296 
0.341611 0.899476 0.574375 0.674059 0.61401 
0.740441 0.620167 0.193709 0.847308 0.894259 
0.666876 0.863684 0.0999174 0.0633802 0.736995 
0.880919 0.569307 0.106622 0.0976297 0.440631 
0.708584 0.361409 0.377813 0.959358 0.852317 
0.428521 0.811762 0.0280705 0.501452 0.349003 
0.0696159 0.304969 0.422659 0.263284 0.76329 
0.57712 0.085429 0.633302 0.545103 0.0547424 
0.197653 0.563063 0.285527 0.999531 0.899245 
0.174766 0.779614 0.090809 0.37374 0.553062 
0.0501956 0.846219 0.975378 0.397044 0.430176 
0.204559 0.216285 2.41878e-05 0.443149 0.837299 
0.267071 0.378579 0.124658 0.488544 0.158841 
0.0646452 0.590636 0.386446 0.67333 0.95939 
0.968952 0.543558 0.120301 0.225796 0.80767 
0.0235532 0.433927 0.513057 0.97947 0.15841 
0.279741 0.203936 0.0717915 0.53987 0.870807 
0.618691 0.189606 0.126562 0.973534 0.670629 
0.700771 0.988219 0.938166 0.612887 0.326419 
0.650533 0.479922 0.808782 0.189578 0.238135 
0.234324 0.931884 0.107606 0.629828 0.150943 
0.406732 0.63806 0.159991 0.0914629 0.832322 
0.938079 0.160303 0.832064 0.0578959 0.511928 
0.169813 0.153026 0.750181 0.573817 0.845162 
0.903767 0.331066 0.089624 0.291941 0.135096 
0.366699 0.275023 0.092649 0.111784 0.0504761 
0.917818 0.210285 0.743553 0.147822 0.1042 
0.0310368 0.193926 0.7607 0.991162 0.66726 
0.114098 0.024353 0.558246 0.602773 0.855449 
0.864951 0.13707 0.967708 0.529281 0.331094 
0.800427 0.251333 0.189617 0.472469 0.572579 
0.978916 0.255661 0.96707 0.89852 0.388929 
0.715537 0.256686 0.640604 0.296305 0.468049 
0.818945 0.269531 0.827878 0.255104 0.607124 
0.756842 0.21533 0.0611046 0.450067 0.892695 
0.883369 0.785941 0.038348 0.362077 0.26052 
0.863405 0.00776208 0.112994 0.615034 0.8935 
0.271501 0.0839346 0.518022 0.00700462 0.250054 
0.00489195 0.904933 0.301188 0.821609 0.453542 
0.573832 0.377326 0.591915 0.812111 0.626984 
0.432433 0.1606 0.753687 0.240266 0.746325 
0.42265 0.266307 0.677985 0.873311 0.596386 
0.766579 0.596945 0.134262 0.408362 0.0974797 
0.367682 0.345229 0.0223652 0.152573 0.171471 
0.377968 0.590941 0.66994 0.112018 0.543179 
0.838476 0.33226 0.776952 0.398398 0.65241 
0.622265 0.550359 0.773016 0.93897 0.676667 
0.568519 0.898157 0.416407 0.111306 0.0723104 
0.435728 0.891402 0.897599 0.799098 0.126828 
0.453743 0.135614 0.28981 0.8395 0.794556 
0.376774 0.356516 0.664693 0.101554 0.215145 
0.507196 0.625762 0.537141 0.263363 0.142148 
0.917432 0.801621 0.290157 0.959682 0.19468 
0.522446 0.225089 0.0351537 0.875461 0.894806 
0.747273 0.0940511 0.638528 0.832 0.968571 
0.470108 0.971254 0.557935 0.866385 0.801483 
0.0516064 0.476142 0.433997 0.679846 0.989638 
0.285359 0.627957 0.45057 0.000539453 0.48608 
0.720454 0.612638 0.668567 0.297118 0.905248 
0.681436 0.782219 0.599015 0.142957 0.239492 
0.892497 0.794258 0.189114 0.0921235 0.568187 
0.445347 0.786747 0.428308 0.187731 0.145104 
0.541911 0.235378 0.189987 0.398384 0.195926 
0.120458 0.819129 0.305541 0.982251 0.607705 
0.944802 0.090413 0.0475061 0.125491 0.571294 
0.038485 0.181761 0.334729 0.470855 0.594259 
0.262852 0.887712 0.075899 0.275638 0.363263 
0.613422 0.427928 0.138783 0.945375 0.934718 
0.392238 0.142801 0.774381 0.1163 0.887297 
0.306721 0.303687 0.67858 0.452704 0.97733 
0.726347 0.308709 0.379551 0.715592 0.135118 
0.62228 0.976456 0.286366 0.503215 0.817237 
0.947327 0.877654 0.654804 0.17845 0.439762 
0.000597788 0.878021 0.841967 0.949002 0.146756 
0.537157 0.600563 0.677982 0.418955 0.883931 
0.0502628 0.948176 0.104729 0.444271 0.843635 
0.545253 0.701643 0.299438 0.282429 0.743313 
0.392061 0.0549435 0.810091 0.483452 0.746991 
0.389914 0.472918 0.143384 0.50445 0.559869 
0.479458 0.158905 0.423732 0.0258169 0.352266 
0.222661 0.281733 0.0881103 0.797418 0.91119 
0.260221 0.393848 0.749002 0.0547314 0.516166 
0.937866 0.293996 0.0303206 0.105786 0.459423 
0.82124 0.282657 0.568118 0.774463 0.0885897 
0.0896164 0.723597 0.805615 0.21046 0.16512 
0.640319 0.0535352 0.669723 0.776179 0.955598 
0.384083 0.0824351 0.324783 0.890416 0.3683 
0.233833 0.547261 0.249635 0.0126417 0.356822 
0.660416 0.202773 0.562588 0.119934 0.350004 
0.609038 0.58188 0.101443 0.816613 0.574926 
0.413537 0.463188 0.299929 0.591808 0.477252 
0.793871 0.859321 0.353944 0.112951 0.131731 
0.664038 0.100707 0.53219 0.460919 0.928717 
0.890244 0.655687 0.508684 0.74019 0.297668 
0.626151 0.676738 0.52895 0.125762 0.176526 
0.394489 0.540123 0.911049 0.333758 0.817907 
0.210342 0.133421 0.478898 0.462469 0.0940072 
0.680611 0.778126 0.523549 0.762619 0.540189 
0.378351 0.148165 0.136825 0.345505 0.582751 
0.9676 0.463808 0.258781 0.589658 0.0019838 
0.0652249 0.950413 0.817193 0.337613 0.512321 
0.302279 0.179234 0.808091 0.0173863 0.575661 
0.783769 0.85621 0.361417 0.470594 0.587883 
0.321837 0.924091 0.945763 0.253328 0.321049 
0.00953613 0.347824 0.58107 0.635552 0.118955 
0.806739 0.0743904 0.0195923 0.517606 0.0648856 
0.239479 0.620023 0.736285 0.513288 0.777238 
0.811799 0.115338 0.688653 0.293828 0.169329 
0.0694776 0.136035 0.590408 0.703029 0.71587 
0.784249 0.313207 0.793738 0.0566467 0.474922 
0.934104 0.651237 0.377645 0.5774 0.132106 
0.113145 0.267999 0.0255342 0.935134 0.0905474 
0.365182 0.192732 0.269589 0.678514 0.683821 
0.540728 0.18553 0.245946 0.704502 0.00593221 
0.111408 0.971312 0.439491 0.253481 0.617857 
0.469864 0.244537 0.299712 0.834872 0.777877 
0.588935 0.131851 0.949401 0.150196 0.311405 
0.374966 0.857909 0.485978 0.730334 0.294661 
0.214154 0.880329 0.893849 0.694065 0.527032 
0.209638 0.15605 0.862696 0.667698 0.374395 
0.628326 0.398343 0.544739 0.788805 0.735914 
0.996057 0.151349 0.202848 0.905203 0.969003 
0.589304 0.0254727 0.341837 0.621795 0.0600625 
0.269233 0.29596 0.120971 0.169699 0.687231 
0.537563 0.390486 0.166554 0.310653 0.718984 
0.995171 0.244519 0.414764 0.662668 0.28659 
0.00895412 0.966291 0.914836 0.517759 0.784051 
0.0942785 0.931557 0.624486 0.770605 0.198441 
0.811001 0.872569 0.647156 0.146902 0.129242 
0.13421 0.530269 0.630718 0.368746 0.874808 
0.695395 0.389604 0.429955 0.931065 0.402879 
0.24154 0.51094 0.920609 0.088805 0.242094 
0.560997 0.458257 0.822333 0.0828496 0.560693 
0.487482 0.473247 0.50662 0.631707 0.850863 
0.369104 0.772059 0.188344 0.679217 0.0752459 
0.822163 0.708984 0.462252 0.643672 0.1591 
0.872361 0.173282 0.320356 0.863225 0.314941 
0.0537905 0.780908 0.0779597 0.983893 0.496918 
0.364202 0.616671 0.466558 0.594551 0.00477543 
0.844 0.363369 0.148493 0.401424 0.952014 
0.201043 0.279156 0.0407724 0.580355 0.33982 
0.240368 0.330106 0.90223 0.659083 0.701151 
0.461222 0.347812 0.818665 0.669227 0.158291 
