4900 5
0.562275 0.604564 0.923219 0.0919064 0.807871 
0.243108 0.488626 0.692917 0.472743 0.855922 
0.19917 0.0622615 0.881925 0.283477 0.675809 
0.987976 0.557336 0.918522 0.0205901 0.350466 
0.910174 0.451159 0.803953 0.856102 0.736208 
0.606049 0.017243 0.319186 0.725933 0.919037 
0.2802 0.922557 0.793738 0.642927 0.981334 
0.7392 0.696453 0.42424 0.964315 0.0503972 
0.216642 0.521794 0.308745 0.16179 0.818327 
0.896066 0.132873 0.490625 0.0810061 0.771008 
0.0853342 0.631841 0.336941 0.432638 0.0850723 
0.997256 0.67453 0.917545 0.193681 0.443001 
0.90638 0.821895 0.81648 0.382694 0.717143 
0.872178 0.262817 0.137922 0.189733 0.907095 
0.435517 0.190007 0.379249 0.719061 0.728093 
0.980655 0.279112 0.613681 0.0198328 0.33762 
0.463551 0.86254 0.43658 0.222442 0.343529 
0.407055 0.268589 0.867688 0.850193 0.695851 
0.688862 0.737958 0.266832 0.940638 0.510252 
0.980198 0.699802 0.789809 0.281609 0.75513 
0.880922 0.478493 0.137285 0.653091 0.812149 
0.227171 0.20662 0.0814429 0.417079 0.706995 
0.183099 0.61316 0.885061 0.1937 0.1074 
0.722907 0.747901 0.990391 0.449687 0.356163 
0.276376 0.16345 0.863868 0.872956 0.43303 
0.24743 0.772757 0.770099 0.329458 0.87335 
0.424191 0.0553268 0.361808 0.494883 0.373235 
0.862518 0.806139 0.570894 0.571876 0.37074 
0.926198 0.119183 0.46418 0.706868 0.621552 
0.695199 0.704181 0.410269 0.288883 0.491747 
0.139126 0.778794 0.390625 0.353794 0.0857855 
0.246492 0.019958 0.0469009 0.331727 0.723692 
0.993006 0.483342 0.0569156 0.895095 0.656317 
0.133154 0.41397 0.209457 0.669013 0.114408 
0.0355596 0.746509 0.814073 0.036364 0.753754 
0.216538 0.505081 0.878769 0.353274 0.744434 
0.19757 0.270362 0.405149 0.11827 0.00779657 
0.788145 0.205869 0.142116 0.139025 0.0723732 
0.256553 0.253697 0.676112 0.780966 0.0827116 
0.137109 0.950808 0.00914671 0.143893 0.024186 
0.762912 0.282902 0.262914 0.847478 0.927961 
0.408025 0.742526 0.521397 0.0280899 0.378933 
0.110658 0.516323 0.258779 0.468882 0.0514998 
0.223745 0.133756 0.863567 0.872931 0.411022 
0.39375 0.0237555 0.792227 0.251636 0.546204 
0.680767 0.952864 0.767557 0.0666263 0.355484 
0.268876 0.995014 0.852916 0.439801 0.977274 
0.0938392 0.128884 0.679371 0.325552 0.0205918 
0.363152 0.0660069 0.929993 0.461261 0.685982 
0.898083 0.639245 0.57125 0.144844 0.910196 
0.0311684 0.0803516 0.42098 0.099384 0.47521 
0.0699587 0.776759 0.270347 0.745972 0.934662 
0.69934 0.569226 0.0408591 0.329098 0.931199 
0.353169 0.0913938 0.281768 0.046281 0.239689 
0.897208 0.824645 0.151445 0.75161 0.173239 
0.139186 0.962906 0.792103 0.630538 0.265679 
0.220093 0.440845 0.729389 0.654708 0.290971 
0.841279 0.521097 0.921138 0.761902 0.866531 
0.150105 0.417795 0.515931 0.658097 0.897915 
0.545205 0.0769149 0.552706 0.212155 0.766593 
0.199946 0.0730425 0.629819 0.759081 0.948419 
0.316716 0.366596 0.920903 0.477978 0.93935 
0.21562 0.232202 0.0994528 0.501042 0.990456 
0.547946 0.408134 0.970714 0.633416 0.975501 
0.968894 0.00308439 0.945049 0.756786 0.0288029 
0.470667 0.133258 0.20657 0.189153 0.0509263 
0.0369395 0.551673 0.850161 0.271111 0.747061 
0.879319 0.433748 0.523204 0.672431 0.312787 
0.80687 0.33688 0.373473 0.502254 0.813189 
0.750342 0.085518 0.163691 0.11926 0.664934 
0.456181 0.814787 0.49472 0.942383 0.830922 
0.270195 0.982146 0.589159 0.618033 0.277436 
0.173231 0.180522 0.907729 0.749648 0.392891 
0.539646 0.816617 0.99367 0.9662 0.225853 
0.910152 0.63575 0.693601 0.454332 0.512378 
0.680112 0.815464 0.205843 0.414069 0.0527461 
0.321446 0.0121242 0.868097 0.889043 0.965967 
0.717836 0.702241 0.698224 0.779888 0.314527 
0.228045 0.249113 0.40394 0.272469 0.131658 
0.120823 0.560872 0.0900966 0.00309751 0.598649 
0.213289 0.227879 0.410004 0.908355 0.618993 
0.679022 0.810924 0.186332 0.864732 0.1913 
0.69022 0.964022 0.0530842 0.784226 0.808182 
0.359957 0.627487 0.90474 0.572048 0.469752 
0.775826 0.247414 0.223915 0.503542 0.354695 
0.255345 0.497151 0.876919 0.678496 0.00667021 
0.94641 0.567567 0.876213 0.584205 0.696428 
0.850921 0.0735714 0.711311 0.626505 0.96157 
0.631797 0.388598 0.11601 0.463693 0.711613 
0.786956 0.268836 0.0603014 0.501495 0.685771 
0.063259 0.984507 0.669316 0.596565 0.21059 
0.119677 0.259158 0.213426 0.0480405 0.983471 
0.54717 0.0350071 0.684843 0.695052 0.734309 
0.0827479 0.825347 0.0971681 0.037041 0.966591 
0.887666 0.00579776 0.0287666 0.876699 0.585977 
0.910646 0.702 0.275003 0.737473 0.538387 
0.349832 0.860942 0.970374 0.255026 0.589643 
0.813407 0.228936 0.243348 0.00343006 0.910536 
0.59809 0.308909 0.231289 0.458912 0.593667 
0.249148 0.127475 0.283554 0.221686 0.186573 
0.407455 0.213263 0.816485 0.372617 0.939918 
0.159308 0.331873 0.620951 0.685999 0.477821 
0.890348 0.255382 0.942044 0.590796 0.0858459 
0.414884 0.839862 0.436016 0.858822 0.479815 
0.077189 0.416805 0.0675708 0.937873 0.16121 
0.548581 0.96797 0.218251 0.602084 0.730225 
0.354876 0.36713 0.538879 0.371571 0.813179 
0.698523 0.422289 0.995059 0.65823 0.310542 
0.487955 0.754081 0.493822 0.228476 0.701364 
0.850105 0.449962 0.870171 0.499966 0.0343608 
0.404183 0.410413 0.265635 0.973533 0.807822 
0.0849866 0.663766 0.225562 0.148767 0.870649 
0.497949 0.838187 0.61038 0.0393583 0.147201 
0.0224336 0.442132 0.088031 0.992502 0.280791 
0.853615 0.310786 0.871431 0.185525 0.543506 
0.971261 0.561555 0.491173 0.740374 0.539906 
0.0648085 0.0451773 0.223553 0.368706 0.00928384 
0.441072 0.146101 0.0672562 0.175001 0.74075 
0.550474 0.836059 0.0206125 0.892156 0.96486 
0.530615 0.530209 0.214336 0.891277 0.568058 
0.560859 0.335747 0.146584 0.407584 0.736974 
0.322171 0.985505 0.962891 0.838692 0.309048 
0.486794 0.0876553 0.281168 0.127462 0.130674 
0.72081 0.825829 0.793249 0.703929 0.314161 
0.493438 0.344325 0.92973 0.97147 0.594324 
0.297488 0.741388 0.250929 0.382215 0.887941 
0.16242 0.0508426 0.43394 0.0591796 0.519162 
0.837362 0.799477 0.631457 0.662121 0.133477 
0.202815 0.352165 0.938862 0.14489 0.342967 
0.233439 0.531911 0.768282 0.477524 0.861196 
0.170687 0.291492 0.928538 0.864348 0.915816 
0.942962 0.084619 0.714819 0.00909626 0.527675 
0.14687 0.642521 0.149928 0.852509 0.638 
0.735282 0.636565 0.637945 0.338441 0.675432 
0.821801 0.055957 0.630914 0.0106564 0.0984559 
0.659981 0.936012 0.139419 0.773929 0.248598 
0.91372 0.323698 0.99593 0.882065 0.915449 
0.553412 0.444367 0.738315 0.11451 0.839974 
0.0668174 0.0981951 0.382117 0.643364 0.924758 
0.99329 0.00545424 0.8923 0.75985 0.969788 
0.408031 0.464975 0.661278 0.377682 0.618899 
0.942431 0.440421 0.740872 0.302684 0.392938 
0.212529 0.966108 0.753959 0.840323 0.979837 
0.836917 0.82009 0.457228 0.0455997 0.85997 
0.262564 0.149899 0.329543 0.583359 0.825059 
0.370096 0.285154 0.91174 0.327332 0.73315 
0.374669 0.631525 0.943992 0.906619 0.596633 
0.470824 0.127846 0.228967 0.516846 0.962281 
0.241689 0.247065 0.479817 0.30738 0.993834 
0.941149 0.615609 0.665144 0.547024 0.273534 
0.809196 0.0223285 0.419473 0.406919 0.849713 
0.67345 0.781008 0.286955 0.10838 0.0728232 
0.0940949 0.442507 0.229147 0.75771 0.238548 
0.497915 0.350314 0.569213 0.687149 0.024979 
0.185214 0.706269 0.622004 0.121991 0.746586 
0.548975 0.616404 0.420091 0.0638668 0.227295 
0.0167143 0.77233 0.457352 0.683554 0.888009 
0.0867096 0.594183 0.00370478 0.506553 0.214596 
0.978051 0.0983871 0.875766 0.268736 0.626295 
0.832566 0.198894 0.828543 0.129634 0.714915 
0.755368 0.622589 0.54101 0.996954 0.401018 
0.492473 0.660423 0.336913 0.66788 0.289256 
0.782501 0.944326 0.109814 0.137315 0.919557 
0.146636 0.448658 0.484115 0.102621 0.848868 
0.484626 0.833901 0.645924 0.387996 0.958429 
0.585948 0.0679342 0.418642 0.474859 0.00614565 
0.476021 0.172459 0.835595 0.537316 0.856421 
0.459352 0.571264 0.850463 0.69345 0.837135 
0.322437 0.489445 0.039057 0.884729 0.678666 
0.990756 0.76368 0.708988 0.0825972 0.350523 
0.765712 0.258788 0.41767 0.794473 0.599462 
0.4957 0.746971 0.588338 0.751348 0.288179 
0.151064 0.0355749 0.78441 0.151204 0.119975 
0.853765 0.765437 0.939899 0.816531 0.221136 
0.0800101 0.00780099 0.0752494 0.0317432 0.188184 
0.235402 0.687336 0.77762 0.353981 0.185339 
0.509174 0.533706 0.982525 0.0528126 0.343644 
0.873699 0.486071 0.419279 0.841248 0.193394 
0.767657 0.496255 0.0368241 0.689959 0.186246 
0.867758 0.212826 0.849259 0.770507 0.600714 
0.733541 0.145349 0.0235369 0.558346 0.0889572 
0.198045 0.439184 0.0266455 0.299869 0.90955 
0.785278 0.807972 0.663315 0.876361 0.225952 
0.577748 0.297911 0.835605 0.519395 0.962751 
0.607039 0.320669 0.0257722 0.697536 0.379417 
0.832 0.793142 0.834433 0.768146 0.816347 
0.799888 0.978631 0.232663 0.540427 0.867183 
0.953167 0.518477 0.758721 0.0554188 0.314328 
0.631982 0.177808 0.480672 0.716823 0.584557 
0.92758 0.0469655 0.228081 0.862282 0.397152 
0.841895 0.801572 0.137838 0.640756 0.106505 
0.708541 0.343184 0.178052 0.330397 0.982073 
0.231291 0.813949 0.216665 0.573508 0.171722 
0.333856 0.264104 0.690452 0.734295 0.389663 
0.622721 0.19181 0.88417 0.0213223 0.384542 
0.451883 0.290645 0.807188 0.824485 0.496417 
0.128186 0.873128 0.946074 0.205238 0.954482 
0.131145 0.201584 0.092537 0.247505 0.289198 
0.171271 0.854633 0.447233 0.329796 0.287596 
0.702742 0.260022 0.680178 0.15279 0.337919 
0.634059 0.869408 0.625865 0.639911 0.917582 
0.044665 0.745799 0.835814 0.680934 0.154989 
0.984921 0.814342 0.3216 0.00807281 0.131034 
0.520398 0.658094 0.744604 0.751416 0.534324 
0.590448 0.33426 0.660001 0.902611 0.693081 
0.749123 0.323016 0.0392097 0.163354 0.832171 
0.610408 0.808062 0.0425257 0.441183 0.320521 
0.734707 0.629221 0.652536 0.956316 0.250884 
0.769785 0.728069 0.244318 0.974731 0.686912 
0.9675 0.683722 0.817075 0.943356 0.143775 
0.461918 0.338059 0.38926 0.585761 0.135176 
0.646299 0.0998122 0.479536 0.748127 0.221001 
0.680642 0.64967 0.398114 0.171824 0.845855 
0.836465 0.603684 0.297099 0.587849 0.50071 
0.33435 0.96596 0.308403 0.144544 0.085699 
0.817169 0.860719 0.864439 0.848156 0.754235 
0.775064 0.900952 0.57346 0.183403 0.853101 
0.837593 0.757443 0.524336 0.732371 0.799015 
0.510097 0.67754 0.476227 0.777942 0.806248 
0.521551 0.603092 0.173049 0.473429 0.20942 
0.761037 0.430185 0.250419 0.223486 0.404194 
0.519371 0.766137 0.280634 0.495834 0.979952 
0.834011 0.672078 0.421336 0.121775 0.315974 
0.176111 0.679321 0.640671 0.692931 0.424084 
0.973116 0.744909 0.623904 0.146564 0.240232 
0.819744 0.674055 0.144214 0.08907 0.961942 
0.408917 0.614757 0.595556 0.865725 0.998583 
0.208646 0.897103 0.301437 0.736893 0.225704 
0.187259 0.653052 0.675812 0.0173546 0.5691 
0.426444 0.881938 0.890285 0.558203 0.237604 
0.0137908 0.164315 0.0737657 0.410718 0.0907645 
0.0826863 0.801397 0.0662259 0.937329 0.246487 
0.487046 0.880712 0.179519 0.455173 0.1878 
0.29632 0.122956 0.778281 0.36638 0.0211548 
0.137722 0.507705 0.114151 0.977874 0.648007 
0.538456 0.3969 0.459554 0.810493 0.0774305 
0.299368 0.523452 0.941072 0.633823 0.0666354 
0.43609 0.700472 0.284379 0.772373 0.836431 
0.335706 0.638011 0.501894 0.681156 0.261938 
0.409997 0.003262 0.228144 0.380102 0.524733 
0.536034 0.847136 0.996929 0.554895 0.957867 
0.990094 0.910529 0.290211 0.225897 0.673767 
0.17329 0.954594 0.888858 0.461259 0.624196 
0.911116 0.878504 0.557717 0.261601 0.110893 
0.50958 0.79996 0.484743 0.675361 0.430798 
0.21653 0.789595 0.757918 0.591968 0.559909 
0.750689 0.991849 0.77235 0.665902 0.0121639 
0.450266 0.706038 0.906646 0.614072 0.515577 
0.724257 0.238411 0.250973 0.605033 0.416772 
0.342981 0.641356 0.995967 0.28978 0.229103 
0.980533 0.726739 0.0688918 0.862153 0.437903 
0.102581 0.65198 0.952005 0.631103 0.00610745 
0.314668 0.802443 0.198682 0.610172 0.333606 
0.13399 0.543384 0.491785 0.383983 0.775672 
0.799495 0.57154 0.765862 0.875704 0.361708 
0.370877 0.108373 0.398208 0.270297 0.122027 
0.921695 0.721746 0.906288 0.0404261 0.354475 
0.834183 0.481763 0.0352372 0.811853 0.764531 
0.136214 0.771831 0.900276 0.421976 0.101199 
0.498815 0.855892 0.643495 0.492919 0.158275 
0.803898 0.890121 0.646559 0.505267 0.326942 
0.86992 0.0175963 0.276128 0.335631 0.540617 
0.0397645 0.76936 0.736165 0.887282 0.28719 
0.361039 0.564982 0.668378 0.582863 0.880259 
0.0342589 0.239266 0.0518708 0.183565 0.905021 
0.612041 0.815182 0.397746 0.216 0.597627 
0.571687 0.665643 0.708704 0.401758 0.0361302 
0.230516 0.886421 0.316346 0.595846 0.866082 
0.297708 0.939111 0.806913 0.208886 0.37771 
0.720108 0.936828 0.768083 0.918808 0.368423 
0.0809806 0.572847 0.11898 0.113352 0.693718 
0.597804 0.902199 0.931768 0.6955 0.333948 
0.0129274 0.0992218 0.498674 0.156455 0.0399556 
0.509946 0.205027 0.323106 0.127344 0.725296 
0.439578 0.367841 0.23997 0.029366 0.280316 
0.134508 0.342732 0.0511812 0.166063 0.938674 
0.147421 0.0683396 0.498327 0.0949491 0.701409 
0.827473 0.377518 0.893741 0.628999 0.0781313 
0.501959 0.574723 0.0485872 0.0396818 0.37401 
0.793679 0.000538595 0.924386 0.996308 0.964386 
0.10714 0.717028 0.174836 0.302302 0.431137 
0.177831 0.716822 0.519084 0.378592 0.174312 
0.540856 0.0955672 0.961991 0.322818 0.203425 
0.618941 0.0984466 0.183482 0.805231 0.501517 
0.632631 0.874103 0.893426 0.148772 0.16167 
0.34146 0.633036 0.882655 0.803223 0.343075 
0.14726 0.237704 0.694076 0.675685 0.905779 
0.828155 0.845936 0.19379 0.450128 0.896311 
0.772634 0.452631 0.23373 0.784264 0.797977 
0.210614 0.0251094 0.62942 0.411795 0.544277 
0.950816 0.220013 0.650447 0.747494 0.924858 
0.926687 0.651417 0.209515 0.268737 0.648418 
0.623351 0.00451712 0.694432 0.141565 0.419988 
0.608722 0.154387 0.342909 0.198316 0.943711 
0.452192 0.202644 0.975042 0.901864 0.765233 
0.251154 0.23799 0.0266738 0.751011 0.355182 
0.106329 0.673387 0.668184 0.0367517 0.863027 
0.431077 0.718302 0.086485 0.315263 0.797056 
0.593947 0.822918 0.224749 0.0236315 0.542165 
0.0966076 0.0519648 0.698469 0.992603 0.739938 
0.768584 0.445328 0.0844018 0.972056 0.0682581 
0.082723 0.510862 0.932476 0.313383 0.389333 
0.453609 0.908184 0.0577858 0.816077 0.651386 
0.929937 0.29101 0.20873 0.396452 0.32092 
0.4748 0.895289 0.145631 0.607998 0.179651 
0.321583 0.316804 0.48552 0.282137 0.857611 
0.85305 0.332389 0.590244 0.0506677 0.579993 
0.79516 0.907066 0.628462 0.304786 0.824763 
0.34155 0.245816 0.961587 0.530973 0.296229 
0.258199 0.960542 0.794273 0.598729 0.464202 
0.28651 0.259516 0.56961 0.0404271 0.363205 
0.137041 0.458042 0.181642 0.940527 0.210114 
0.120138 0.733815 0.473209 0.0958543 0.700817 
0.00214003 0.804809 0.551697 0.837246 0.69839 
0.154498 0.906919 0.447609 0.226072 0.882067 
0.741224 0.548347 0.523299 0.855013 0.136338 
0.138777 0.825981 0.201828 0.409661 0.159311 
0.0667867 0.549979 0.42011 0.94952 0.787715 
0.406562 0.265025 0.945259 0.572551 0.869906 
0.762879 0.526703 0.89438 0.32682 0.866232 
0.846062 0.135953 0.564725 0.226973 0.979741 
0.941458 0.0247806 0.0649498 0.273068 0.159415 
0.374518 0.250301 0.594897 0.322576 0.861778 
0.592734 0.930586 0.650144 0.633101 0.379922 
0.609646 0.754272 0.048382 0.298854 0.25906 
0.301026 0.834727 0.636742 0.49022 0.891813 
0.701144 0.717767 0.849413 0.845759 0.216907 
0.255446 0.0476721 0.430777 0.0447488 0.810577 
0.264442 0.261585 0.545192 0.42509 0.0525074 
0.746885 0.0905934 0.316501 0.878156 0.861862 
0.961275 0.325888 0.705202 0.773102 0.59424 
0.795581 0.365588 0.278804 0.682628 0.247751 
0.239311 0.760577 0.403892 0.761158 0.423708 
0.217804 0.120021 0.311049 0.513219 0.453012 
0.157411 0.574833 0.725809 0.464119 0.250237 
0.523528 0.287393 0.883278 0.422927 0.862701 
0.178844 0.693401 0.430848 0.267526 0.114821 
0.395368 0.769726 0.838426 0.0564333 0.522083 
0.255675 0.538738 0.0486249 0.118608 0.427423 
0.855234 0.653441 0.524516 0.176681 0.396022 
0.623359 0.89172 0.921234 0.652689 0.76429 
0.1865 0.340497 0.891315 0.0203857 0.998103 
0.912316 0.542929 0.694369 0.589021 0.404696 
0.414422 0.464301 0.26753 0.817968 0.198653 
0.338369 0.386303 0.470412 0.985969 0.973167 
0.864588 0.232795 0.457861 0.769083 0.637662 
0.38206 0.984331 0.792502 0.507888 0.839644 
0.182449 0.809393 0.245766 0.176343 0.571339 
0.754252 0.00228632 0.975623 0.977216 0.5722 
0.00571072 0.356993 0.363666 0.896753 0.783238 
0.908631 0.280918 0.604272 0.745108 0.692815 
0.309816 0.491323 0.856849 0.147538 0.810459 
0.827657 0.450319 0.318017 0.00708107 0.955914 
0.718361 0.595157 0.957589 0.625517 0.115732 
0.734042 0.27603 0.476996 0.325685 0.641889 
0.156067 0.691966 0.313552 0.962525 0.551292 
0.412456 0.546086 0.583186 0.323677 0.621569 
0.583445 0.23998 0.564634 0.705653 0.396456 
0.64283 0.244879 0.483714 0.187695 0.336023 
0.943245 0.86387 0.119383 0.131793 0.14269 
0.479024 0.3041 0.68559 0.0242692 0.572594 
0.74982 0.048863 0.808845 0.575739 0.888164 
0.115221 0.102094 0.646362 0.897275 0.636766 
0.655587 0.290021 0.637799 0.885859 0.058215 
0.975415 0.615378 0.4926 0.809771 0.998069 
0.676773 0.897251 0.380636 0.753904 0.641282 
0.861641 0.40623 0.386111 0.919221 0.144354 
0.177266 0.266228 0.131336 0.819561 0.760766 
0.261588 0.930014 0.123178 0.150429 0.52448 
0.982845 0.579989 0.88514 0.173215 0.0498679 
0.90784 0.0726408 0.239038 0.543185 0.238393 
0.54334 0.990394 0.829494 0.651991 0.414581 
0.378933 0.430601 0.454235 0.704001 0.38937 
0.726058 0.991259 0.645259 0.346702 0.0770565 
0.0563818 0.796697 0.778205 0.471506 0.0697218 
0.0807005 0.737496 0.58107 0.694009 0.441794 
0.802932 0.406581 0.226659 0.508928 0.0873528 
0.429641 0.0921815 0.542134 0.111303 0.65849 
0.929131 0.394834 0.257491 0.320817 0.248539 
0.0335126 0.510352 0.406874 0.595024 0.408426 
0.86865 0.495446 0.664374 0.670043 0.258364 
0.578808 0.497408 0.926352 0.656636 0.920826 
0.802843 0.0286192 0.0106858 0.289686 0.161606 
0.807856 0.991919 0.897852 0.0924112 0.268646 
0.833977 0.489704 0.8038 0.12901 0.962366 
0.633784 0.656602 0.166386 0.774528 0.171328 
0.228192 0.161111 0.808474 0.283086 0.521573 
0.335685 0.400114 0.444693 0.986675 0.170401 
0.994162 0.344805 0.944604 0.359007 0.741093 
0.155348 0.535931 0.308384 0.16389 0.704482 
0.171366 0.872461 0.849932 0.893116 0.127948 
0.614868 0.282097 0.465829 0.714697 0.574413 
0.242966 0.366818 0.262734 0.146089 0.0335234 
0.686547 0.0716897 0.248394 0.413366 0.423767 
0.512098 0.182493 0.758713 0.607986 0.986684 
0.886136 0.0998242 0.217219 0.85777 0.574141 
0.525284 0.667355 0.149088 0.399724 0.0966107 
0.233143 0.0798544 0.303685 0.326186 0.706334 
0.0454185 0.137357 0.103548 0.329442 0.663391 
0.686071 0.639414 0.587731 0.357528 0.877577 
0.851429 0.332274 0.798591 0.241289 0.449918 
0.077528 0.666067 0.569113 0.990799 0.704937 
0.512339 0.211193 0.585859 0.00425447 0.608784 
0.959594 0.736942 0.851635 0.844141 0.730836 
0.195141 0.381718 0.30258 0.0190329 0.598914 
0.153926 0.686394 0.678023 0.520827 0.984844 
0.173937 0.250708 0.578371 0.934243 0.0517541 
0.563881 0.774375 0.983937 0.392375 0.828067 
0.544688 0.316095 0.316394 0.633739 0.126193 
0.672518 0.443448 0.971398 0.942831 0.948587 
0.948732 0.237306 0.00329099 0.592513 0.811328 
0.562464 0.667091 0.281303 0.218121 0.730988 
0.792042 0.904405 0.0900791 0.518788 0.480862 
0.736054 0.722167 0.953027 0.690203 0.182174 
0.106011 0.78631 0.601975 0.116679 0.748004 
0.0692326 0.535957 0.226967 0.313497 0.356595 
0.328802 0.426014 0.51855 0.286262 0.984939 
0.19526 0.0661029 0.52929 0.290521 0.835237 
0.667093 0.043502 0.350598 0.973423 0.841112 
0.908937 0.774967 0.496724 0.921162 0.199276 
0.815068 0.873126 0.240667 0.575448 0.927482 
0.595928 0.903304 0.620674 0.440257 0.294288 
0.195065 0.0591819 0.73134 0.940916 0.868857 
0.489839 0.0162279 0.814057 0.866244 0.479425 
0.242312 0.618615 0.155116 0.131012 0.4005 
0.735301 0.356898 0.866624 0.425671 0.172251 
0.129461 0.134956 0.567278 0.487307 0.262263 
0.346991 0.986813 0.86893 0.314618 0.109572 
0.826297 0.848755 0.187194 0.700865 0.223486 
0.201501 0.842501 0.768086 0.739664 0.542028 
0.439717 0.420584 0.384203 0.557588 0.707531 
0.792257 0.126687 0.0672773 0.164325 0.715679 
0.354084 0.0646893 0.414544 0.659606 0.312704 
0.139636 0.594531 0.832795 0.624165 0.283672 
0.395793 0.647531 0.438916 0.506549 0.752182 
0.802169 0.768827 0.796278 0.468943 0.340672 
0.226768 0.373767 0.980257 0.245881 0.888553 
0.22794 0.195895 0.490272 0.796038 0.0245243 
0.103798 0.600952 0.700226 0.231714 0.332849 
0.304335 0.142941 0.997419 0.122215 0.458477 
0.598782 0.43811 0.799172 0.370527 0.340788 
0.96476 0.141276 0.0452889 0.282518 0.148456 
0.166757 0.511158 0.854176 0.441918 0.0622736 
0.281288 0.590727 0.617808 0.704212 0.682668 
0.369442 0.528534 0.889058 0.971862 0.477964 
0.676005 0.157442 0.656112 0.657342 0.356438 
0.517896 0.115058 0.145721 0.841302 0.347759 
0.149329 0.399853 0.0260724 0.335766 0.426046 
0.306026 0.611338 0.93715 0.525272 0.710856 
0.407126 0.68193 0.632309 0.947051 0.678696 
0.725041 0.341126 0.277234 0.742383 0.643849 
0.814365 0.556908 0.419261 0.844158 0.176863 
0.287592 0.134498 0.498141 0.0562709 0.0998188 
0.96767 0.0905402 0.802532 0.226173 0.0114847 
0.602701 0.0170342 0.731641 0.384725 0.343239 
0.693581 0.8904 0.705758 0.348295 0.323668 
0.479323 0.0936306 0.923416 0.900404 0.821169 
0.864219 0.537709 0.896081 0.0281651 0.806487 
0.807499 0.511366 0.353376 0.638625 0.00336692 
0.821478 0.857391 0.295994 0.523283 0.198899 
0.260213 0.248663 0.157236 0.282821 0.496708 
0.99292 0.996152 0.389402 0.735343 0.680326 
0.543122 0.389451 0.655201 0.960622 0.848307 
0.181968 0.936112 0.869513 0.764414 0.912397 
0.196915 0.912474 0.0642861 0.40867 0.94827 
0.821686 0.0402123 0.694541 0.222933 0.233793 
0.0108786 0.978577 0.57276 0.840019 0.206796 
0.22456 0.65209 0.912742 0.826351 0.745764 
0.214764 0.686569 0.941976 0.765674 0.554298 
0.459987 0.277776 0.0659665 0.902354 0.998295 
0.806733 0.572833 0.808286 0.162338 0.785172 
0.969085 0.335103 0.280957 0.0953048 0.907379 
0.0960237 0.429894 0.0913377 0.956638 0.237074 
0.551375 0.497823 0.0727686 0.577951 0.403078 
0.895219 0.736034 0.872233 0.0638036 0.692434 
0.352814 0.214873 0.762774 0.399261 0.655764 
0.311835 0.676859 0.171869 0.279892 0.934424 
0.965541 0.643917 0.270607 0.746188 0.155473 
0.376285 0.73021 0.0617151 0.847362 0.161371 
0.572809 0.277073 0.400624 0.603725 0.643591 
0.330604 0.547532 0.158559 0.188529 0.479904 
0.361051 0.00430823 0.221317 0.870662 0.829076 
0.629019 0.312564 0.447595 0.267376 0.208721 
0.449406 0.151718 0.361248 0.7268 0.693982 
0.723118 0.106359 0.171286 0.554183 0.635497 
0.185441 0.418123 0.242249 0.141101 0.253474 
0.963116 0.18991 0.517294 0.642777 0.638265 
0.74972 0.854113 0.239457 0.0235083 0.295502 
0.824487 0.432168 0.556297 0.775502 0.264412 
0.837218 0.287341 0.390095 0.630634 0.222537 
0.427529 0.517645 0.670402 0.96079 0.607687 
0.117129 0.63412 0.872468 0.770769 0.614212 
0.76175 0.723795 0.120706 0.557654 0.879293 
0.0474427 0.702593 0.338016 0.810368 0.0544199 
0.464547 0.858796 0.0432188 0.398346 0.0193901 
0.8457 0.153964 0.669965 0.370782 0.479283 
0.764995 0.666435 0.0679914 0.439844 0.0140549 
0.359526 0.336924 0.153612 0.514933 0.853513 
0.444006 0.799057 0.256251 0.569967 0.577269 
0.99611 0.57147 0.769413 0.783762 0.0299302 
0.356059 0.392755 0.37268 0.773357 0.496309 
0.600562 0.104567 0.358713 0.619094 0.653574 
0.536913 0.04856 0.178242 0.561962 0.12265 
0.349697 0.430008 0.343972 0.839401 0.136862 
0.320023 0.549981 0.35266 0.221461 0.21536 
0.0670328 0.527258 0.0561948 0.646892 0.995543 
0.429606 0.396231 0.988616 0.240742 0.354739 
0.287896 0.432747 0.870378 0.330058 0.108838 
0.643004 0.665607 0.59702 0.358946 0.60311 
0.0554044 0.371136 0.30583 0.219786 0.480328 
0.912792 0.986692 0.613128 0.652035 0.90463 
0.00209564 0.145049 0.420663 0.263068 0.691395 
0.0300848 0.615712 0.547494 0.159838 0.0901343 
0.0455098 0.839788 0.0694576 0.380566 0.0864755 
0.815489 0.0167077 0.384607 0.434413 0.076852 
0.410145 0.291221 0.925602 0.375192 0.901687 
0.146172 0.574224 0.51474 0.367753 0.029804 
0.12727 0.314521 0.644536 0.647961 0.427226 
0.939358 0.78631 0.808964 0.152919 0.404657 
0.527146 0.463793 0.266592 0.126072 0.333298 
0.576174 0.83604 0.445468 0.502652 0.554787 
0.0158281 0.842277 0.83305 0.879909 0.323843 
0.811923 0.979397 0.453576 0.447566 0.1682 
0.124131 0.607208 0.874348 0.92756 0.354976 
0.232504 0.676998 0.831878 0.00696538 0.012702 
0.905253 0.295929 0.365751 0.01246 0.787155 
0.103317 0.995678 0.641694 0.970342 0.514755 
0.801507 0.611883 0.968273 0.0401844 0.213987 
0.986053 0.116044 0.708474 0.796194 0.765016 
0.178296 0.723485 0.657072 0.417167 0.199136 
0.665235 0.509279 0.99136 0.803672 0.943182 
0.820561 0.614288 0.990149 0.652765 0.97644 
0.797104 0.20897 0.994205 0.552484 0.511606 
0.139781 0.975526 0.413906 0.364549 0.29976 
0.413175 0.572948 0.0839881 0.764352 0.51826 
0.336728 0.867033 0.568435 0.323941 0.69612 
0.327961 0.158838 0.806179 0.972376 0.586183 
0.311274 0.0501196 0.393949 0.362611 0.918808 
0.816407 0.293261 0.32737 0.520344 0.548159 
0.00494314 0.167622 0.529753 0.586434 0.291441 
0.276081 0.684142 0.138792 0.585614 0.104305 
0.0488457 0.341016 0.154388 0.712853 0.0211484 
0.675912 0.730607 0.497314 0.0621036 0.110392 
0.151312 0.756243 0.000109863 0.724404 0.908212 
0.551451 0.784373 0.867186 0.0408555 0.592135 
0.468463 0.721056 0.687413 0.673703 0.0487676 
0.884136 0.928533 0.160946 0.642688 0.715059 
0.330827 0.547796 0.210031 0.587094 0.100625 
0.632968 0.936107 0.162396 0.662315 0.811688 
0.781945 0.92383 0.648751 0.560867 0.00185427 
0.429199 0.313434 0.979211 0.183574 0.55845 
0.300973 0.109087 0.518218 0.507345 0.629389 
0.463802 0.87696 0.0590193 0.640613 0.526597 
0.240575 0.639431 0.822916 0.714975 0.585535 
0.654683 0.570389 0.350791 0.598944 0.176264 
0.698755 0.942073 0.762295 0.562738 0.438842 
0.764891 0.91303 0.477694 0.983242 0.40712 
0.206722 0.427557 0.139002 0.96874 0.0795661 
0.882207 0.535384 0.649273 0.841036 0.0238399 
0.379845 0.92173 0.540839 0.0805895 0.245612 
0.278004 0.768369 0.506363 0.15301 0.994508 
0.703566 0.102452 0.586186 0.126228 0.372103 
0.456574 0.297667 0.872203 0.000672997 0.0298515 
0.574622 0.812957 0.631656 0.236047 0.533802 
0.928447 0.283845 0.772566 0.947741 0.543808 
0.847122 0.337844 0.882405 0.766553 0.436147 
0.158123 0.107108 0.353092 0.0526648 0.367114 
0.496415 0.221343 0.0294543 0.379934 0.798857 
0.425973 0.925049 0.682482 0.399025 0.561779 
0.0468812 0.623611 0.239194 0.082586 0.619986 
0.825451 0.797408 0.927742 0.308259 0.203024 
0.279375 0.0750614 0.484311 0.0102953 0.247118 
0.451966 0.398108 0.385496 0.76508 0.0710073 
0.198845 0.0515902 0.802526 0.939372 0.354879 
0.500855 0.804495 0.942111 0.121661 0.398547 
0.247673 0.0346472 0.25294 0.321503 0.112406 
0.448604 0.0784397 0.0700271 0.804783 0.498052 
0.668419 0.0960332 0.518374 0.890666 0.43798 
0.975249 0.284426 0.860125 0.97652 0.677495 
0.720762 0.853237 0.180326 0.140131 0.770882 
0.837866 0.154502 0.11429 0.128689 0.763892 
0.715311 0.825684 0.953443 0.763037 0.862381 
0.655495 0.160165 0.840618 0.821915 0.685677 
0.359675 0.0358362 0.404878 0.00801788 0.146225 
0.343647 0.0255508 0.202037 0.233427 0.253167 
0.351568 0.862106 0.387469 0.666814 0.906831 
0.906967 0.651364 0.81942 0.555545 0.417162 
0.193031 0.932747 0.106549 0.43553 0.79387 
0.978607 0.370758 0.45672 0.616509 0.293167 
0.5375 0.405831 0.547281 0.0072051 0.870605 
0.864882 0.736605 0.309206 0.829218 0.311145 
0.89216 0.414946 0.931417 0.140068 0.323121 
0.21029 0.517181 0.781581 0.268924 0.732151 
0.640503 0.744216 0.578811 0.843347 0.9256 
0.421021 0.619099 0.585062 0.435287 0.124606 
0.305151 0.197884 0.694376 0.426226 0.750943 
0.339407 0.14222 0.295879 0.983466 0.157405 
0.24011 0.886831 0.268189 0.917954 0.56075 
0.108923 0.0447242 0.21822 0.939149 0.16719 
0.449277 0.31351 0.463516 0.962442 0.733742 
0.479936 0.551798 0.496612 0.785513 0.670577 
0.702522 0.82251 0.128367 0.299883 0.712127 
0.394555 0.995242 0.489961 0.845348 0.691617 
0.181199 0.475332 0.466425 0.22082 0.81817 
0.26742 0.591202 0.563019 0.055971 0.261472 
0.793082 0.407557 0.637056 0.381704 0.348127 
0.159339 0.116181 0.381138 0.0517851 0.85759 
0.944365 0.105191 0.733089 0.853585 0.768688 
0.081767 0.0464359 0.916802 0.687717 0.415276 
0.91725 0.641596 0.450271 0.321497 0.441282 
0.670329 0.586876 0.370554 0.193012 0.0563368 
0.562985 0.433023 0.646755 0.662018 0.256176 
0.757115 0.741965 0.144677 0.943617 0.703461 
0.177995 0.918198 0.875267 0.187485 0.192968 
0.70094 0.425854 0.92764 0.78658 0.160606 
0.706825 0.363522 0.425409 0.669146 0.554183 
0.249184 0.228201 0.220119 0.0229168 0.200183 
0.99013 0.0673502 0.517607 0.232695 0.715187 
0.925997 0.159009 0.88544 0.237334 0.62255 
0.393445 0.0446637 0.967197 0.248862 0.221894 
0.839472 0.0195663 0.0898606 0.424699 0.620702 
0.326715 0.669217 0.798523 0.937808 0.215061 
0.874428 0.516381 0.891135 0.740739 0.386503 
0.216487 0.21928 0.19464 0.491736 0.178668 
0.136804 0.209188 0.222393 0.88709 0.0860737 
0.504195 0.0310216 0.069543 0.866494 0.380628 
0.379361 0.089461 0.653009 0.631852 0.695152 
0.400449 0.581389 0.306888 0.650822 0.151861 
0.553649 0.994765 0.98539 0.234119 0.318469 
0.452196 0.729124 0.669795 0.202232 0.224323 
0.556848 0.469337 0.880437 0.292529 0.90006 
0.447195 0.719057 0.582393 0.0538947 0.842283 
0.21161 0.415169 0.515338 0.0404404 0.733662 
0.224598 0.165009 0.214199 0.0317487 0.920296 
0.158163 0.182617 0.0130394 0.0814393 0.58444 
0.53916 0.525328 0.91694 0.402071 0.265705 
0.0251577 0.100185 0.0903078 0.436967 0.976399 
0.853138 0.124453 0.927844 0.566064 0.0969781 
0.0595904 0.372922 0.259651 0.537293 0.0521118 
0.50925 0.752825 0.919156 0.29073 0.537083 
0.859154 0.199934 0.720817 0.340104 0.181472 
0.319554 0.428347 0.465894 0.223327 0.18 
0.183434 0.831653 0.24187 0.578434 0.352954 
0.166296 0.140183 0.290486 0.770243 0.907595 
0.231926 0.632345 0.906665 0.139262 0.505382 
0.305785 0.163046 0.891802 0.699508 0.553902 
0.218272 0.580808 0.482121 0.315853 0.00499784 
0.48859 0.336227 0.199956 0.167013 0.810074 
0.637653 0.206857 0.680729 0.428166 0.507147 
0.621749 0.93891 0.652606 0.875659 0.185423 
0.238159 0.595052 0.363962 0.572356 0.836608 
0.386309 0.22762 0.394872 0.493536 0.051823 
0.711446 0.0425768 0.101299 0.51485 0.107592 
0.560306 0.551634 0.421316 0.513762 0.25133 
0.374697 0.824874 0.851723 0.19394 0.211616 
0.654664 0.234413 0.941387 0.55519 0.128562 
0.258557 0.85677 0.851527 0.320005 0.194923 
0.691813 0.476661 0.264507 0.660721 0.917106 
0.234743 0.270922 0.898144 0.493088 0.658259 
0.936903 0.144706 0.171563 0.864913 0.760393 
0.975917 0.806146 0.27637 0.752741 0.267185 
0.46186 0.325035 0.332429 0.61144 0.297337 
0.363595 0.0567661 0.149273 0.440309 0.909045 
0.680953 0.565865 0.189811 0.292763 0.0866979 
0.707466 0.356848 0.02384 0.438821 0.44736 
0.814284 0.782831 0.885316 0.361658 0.76425 
0.884075 0.567001 0.344634 0.321077 0.0452495 
0.5137 0.673191 0.638399 0.75538 0.464974 
0.342086 0.939469 0.199041 0.867881 0.0400634 
0.746257 0.128106 0.712623 0.447077 0.409136 
0.362727 0.288232 0.137456 0.723539 0.758639 
0.681223 0.085092 0.0418027 0.626156 0.398193 
0.707828 0.362957 0.482302 0.776077 0.889639 
0.685019 0.636038 0.617986 0.416172 0.442508 
0.408006 0.170839 0.138694 0.0168213 0.300577 
0.119772 0.662979 0.690357 0.0668391 0.770139 
0.743216 0.619523 0.79247 0.990371 0.947757 
0.317821 0.65492 0.371445 0.135328 0.113318 
0.373791 0.142431 0.617077 0.753746 0.0652282 
0.0508405 0.022033 0.926996 0.993247 0.319083 
0.64447 0.74668 0.864187 0.99423 0.569615 
0.879192 0.551464 0.474017 0.61177 0.616677 
0.70342 0.611524 0.794076 0.967662 0.1631 
0.949122 0.983177 0.535858 0.934102 0.229792 
0.96975 0.674631 0.795829 0.87117 0.0788776 
0.31291 0.138006 0.498236 0.59679 0.534682 
0.267857 0.291168 0.722033 0.37754 0.00635795 
0.223371 0.272485 0.820892 0.817138 0.12869 
0.219163 0.509109 0.144053 0.757791 0.490628 
0.313009 0.570308 0.757038 0.466339 0.815183 
0.641922 0.311439 0.0064538 0.176363 0.701874 
0.191238 0.0819761 0.23902 0.0682668 0.453306 
0.331301 0.285871 0.621512 0.0331654 0.520232 
0.278809 0.579313 0.227095 0.875488 0.614786 
0.467627 0.858102 0.133115 0.247235 0.989388 
0.364334 0.994397 0.0712278 0.186413 0.558701 
0.301387 0.368626 0.524863 0.350343 0.197285 
0.1793 0.798904 7.00741e-05 0.159122 0.455504 
0.94451 0.52603 0.664042 0.301686 0.258337 
0.0333339 0.198681 0.562291 0.602647 0.815811 
0.149078 0.146524 0.631748 0.0970261 0.301407 
0.806255 0.0584791 0.674659 0.766002 0.408172 
0.990508 0.691276 0.865679 0.289509 0.137582 
0.960371 0.620555 0.0184776 0.991526 0.801096 
0.185187 0.91795 0.080638 0.770074 0.514717 
0.494836 0.74384 0.518244 0.877898 0.777529 
0.657682 0.664433 0.500753 0.534987 0.488052 
0.00921678 0.631076 0.751359 0.440363 0.832967 
0.138795 0.864051 0.338634 0.243338 0.807819 
0.611864 0.278902 0.515997 0.969556 0.0878271 
0.439142 0.652245 0.0240491 0.182888 0.69216 
0.794833 0.298747 0.322814 0.337345 0.00679416 
0.877923 0.208281 0.622949 0.0888482 0.736136 
0.717127 0.872491 0.0843235 0.314629 0.953306 
0.0794242 0.140894 0.65683 0.74255 0.289747 
0.0644091 0.316024 0.276537 0.314596 0.499893 
0.256282 0.706712 0.024396 0.27048 0.585672 
0.559048 0.719095 0.539423 0.778979 0.570072 
0.682127 0.194263 0.504717 0.0869488 0.141742 
0.271855 0.53186 0.123388 0.236642 0.195191 
0.167653 0.984877 0.329062 0.395615 0.583188 
0.507588 0.593716 0.5473 0.372701 0.653791 
0.815832 0.0333372 0.810753 0.099997 0.28092 
0.436242 0.555478 0.482594 0.459108 0.463438 
0.45753 0.675145 0.478958 0.428447 0.178781 
0.8844 0.894559 0.490203 0.263825 0.880055 
0.969494 0.474735 0.745552 0.873867 0.960279 
0.511595 0.653036 0.832076 0.565942 0.668782 
0.0961708 0.661562 0.0461409 0.259852 0.839705 
0.377713 0.630605 0.830375 0.766264 0.500486 
0.0399697 0.241484 0.529613 0.0941744 0.0358002 
0.886273 0.002891 0.395992 0.211659 0.20172 
0.81111 0.0704005 0.392943 0.285403 0.52986 
0.70874 0.807602 0.514043 0.0240551 0.138654 
0.733669 0.0660776 0.840735 0.278064 0.667456 
0.472096 0.787786 0.827397 0.275887 0.461232 
0.160109 0.685711 0.859403 0.847189 0.34315 
0.392667 0.449181 0.809831 0.258901 0.870814 
0.303283 0.0537381 0.5013 0.316712 0.99264 
0.460464 0.70499 0.291914 0.157225 0.365257 
0.232677 0.288996 0.278276 0.151643 0.167754 
0.571644 0.850154 0.686009 0.100729 0.622609 
0.672825 0.337302 0.964405 0.993044 0.448543 
0.677472 0.129091 0.00585964 0.854051 0.338601 
0.422017 0.710447 0.392195 0.604236 0.754433 
0.0552279 0.834631 0.927507 0.164013 0.112677 
0.39651 0.781495 0.115122 0.874449 0.823422 
0.19352 0.547368 0.955353 0.89121 0.0915677 
0.348865 0.5754 0.898133 0.0425287 0.357741 
0.373539 0.0313819 0.492321 0.894156 0.767621 
0.581266 0.963612 0.0175856 0.345994 0.339035 
0.462116 0.3949 0.423828 0.471757 0.153126 
0.179055 0.762981 0.862563 0.0773878 0.236715 
0.914529 0.495476 0.595026 0.64202 0.524086 
0.707243 0.265209 0.297212 0.322015 0.997324 
0.450088 0.914195 0.96476 0.746899 0.546463 
0.591362 0.450037 0.937473 0.737958 0.613994 
0.80529 0.79743 0.104861 0.760425 0.810594 
0.552556 0.00107901 0.078246 0.676511 0.776031 
0.801263 0.083095 0.604717 0.649272 0.426789 
0.133207 0.83901 0.0711724 0.393646 0.55855 
0.562546 0.747685 0.323367 0.187369 0.242787 
0.10718 0.790289 0.179621 0.152973 0.976013 
0.365629 0.923041 0.538885 0.00080374 0.0682422 
0.0126749 0.191425 0.524779 0.702989 0.542146 
0.319744 0.0697032 0.572472 0.675429 0.684937 
0.418178 0.301934 0.766807 0.655302 0.177128 
0.755106 0.997712 0.304907 0.326329 0.800206 
0.794774 0.807379 0.195336 0.257113 0.053166 
0.670618 0.931661 0.640766 0.515723 0.649205 
0.889241 0.452731 0.0507627 0.69869 0.34665 
0.545955 0.0812925 0.847502 0.455165 0.697417 
0.93939 0.481421 0.446217 0.925807 0.822705 
0.69177 0.209231 0.265242 0.920351 0.748909 
0.702035 0.720615 0.711526 0.897876 0.22711 
0.879007 0.39789 0.606826 0.0229154 0.753512 
0.452043 0.57478 0.609846 0.963434 0.0366379 
0.864086 0.676598 0.270806 0.669917 0.57761 
0.157844 0.277427 0.389525 0.665809 0.400755 
0.123361 0.641344 0.460394 0.209793 0.882928 
0.685652 0.409041 0.0469598 0.972819 0.229567 
0.597958 0.330538 0.666723 0.118101 0.519234 
0.3746 0.331682 0.445092 0.2944 0.920362 
0.308226 0.81412 0.53353 0.584501 0.431092 
0.92281 0.472426 0.971548 0.373503 0.477789 
0.969537 0.472372 0.180663 0.727128 0.38706 
0.946738 0.848454 0.16564 0.477061 0.726927 
0.482679 0.564091 0.295009 0.0899899 0.43818 
0.687842 0.713857 0.8521 0.344948 0.931457 
0.593144 0.0179084 0.272161 0.820625 0.00596441 
0.00732525 0.280015 0.995658 0.343119 0.784153 
0.454236 0.157698 0.0928671 0.235196 0.671912 
0.407833 0.2884 0.718526 0.817729 0.417777 
0.972775 0.628824 0.194153 0.254645 0.912185 
0.14752 0.92401 0.572804 0.614753 0.948174 
0.745815 0.377198 0.596053 0.741785 0.96437 
0.0675922 0.395398 0.2295 0.133315 0.238521 
0.692581 0.468639 0.123227 0.185969 0.036184 
0.688645 0.110998 0.859048 0.523905 0.270368 
0.809519 0.724955 0.126163 0.793419 0.0591186 
0.420419 0.549798 0.362997 0.455731 0.244362 
0.950704 0.203655 0.264045 0.531068 0.693316 
0.64235 0.160117 0.238827 0.132651 0.6918 
0.0719476 0.65212 0.558929 0.532511 0.0865749 
0.211014 0.318753 0.733709 0.996813 0.0201043 
0.467655 0.570915 0.287309 0.769979 0.30001 
0.45923 0.32289 0.109265 0.187587 0.369995 
0.177244 0.75789 0.566328 0.225609 0.77376 
0.308976 0.888146 0.942724 0.260264 0.256727 
0.526269 0.807243 0.690873 0.182996 0.29126 
0.955205 0.0573307 0.594464 0.366387 0.927646 
0.503153 0.202491 0.0237135 0.482772 0.765827 
0.795777 0.0119108 0.635545 0.904386 0.682694 
0.569207 0.931132 0.0896269 0.131515 0.701898 
0.783269 0.19427 0.739789 0.711464 0.65993 
0.549665 0.0889119 0.567139 0.440292 0.530849 
0.283112 0.183031 0.0495706 0.979812 0.623867 
0.981862 0.889711 0.970764 0.926046 0.676511 
0.922231 0.49754 0.340291 0.282652 0.954123 
0.89387 0.611351 0.983272 0.666489 0.00709208 
0.126232 0.55446 0.638345 0.733487 0.607387 
0.187982 0.576396 0.0264974 0.352139 0.992003 
0.73141 0.479931 0.36002 0.732105 0.858087 
0.569291 0.471807 0.326045 0.859228 0.989722 
0.603282 0.40526 0.193445 0.721287 0.179148 
0.351489 0.773006 0.309695 0.962451 0.616278 
0.578838 0.667133 0.546092 0.114614 0.234637 
0.341415 0.269687 0.490641 0.572562 0.339297 
0.158141 0.848388 0.167008 0.689727 0.186156 
0.335637 0.933011 0.514826 0.812163 0.429328 
0.58889 0.595943 0.748926 0.492144 0.210373 
0.676488 0.843102 0.498958 0.726029 0.930575 
0.853115 0.619177 0.719683 0.233027 0.126864 
0.147048 0.586211 0.613994 0.504186 0.0073063 
0.598776 0.975323 0.592059 0.63483 0.872312 
0.448152 0.0189525 0.379834 0.991588 0.566712 
0.66376 0.797179 0.784987 0.792189 0.176964 
0.162388 0.296599 0.437271 0.435577 0.630649 
0.443838 0.280782 0.802223 0.379161 0.649594 
0.792737 0.8775 0.201268 0.744289 0.516743 
0.667129 0.852247 0.252535 0.507684 0.0273252 
0.853036 0.6412 0.847495 0.596784 0.72603 
0.625129 0.45928 0.258009 0.809345 0.530982 
0.92415 0.951004 0.476096 0.857992 0.243245 
0.809595 0.223895 0.851196 0.857093 0.216588 
0.607384 0.0226091 0.727158 0.207575 0.276191 
0.731809 0.128262 0.0377816 0.0355559 0.763945 
0.342541 0.0978903 0.026133 0.0577627 0.585756 
0.698483 0.758931 0.27569 0.757927 0.306848 
0.115435 0.442142 0.869756 0.687632 0.88761 
0.854439 0.0728265 0.900953 0.629691 0.677718 
0.581752 0.352543 0.011432 0.527407 0.253812 
0.376672 0.0231386 0.508262 0.691093 0.274159 
0.454561 0.820636 0.0388634 0.277429 0.222948 
0.61313 0.634245 0.800825 0.092045 0.449413 
0.118002 0.630902 0.041362 0.560013 0.238456 
0.274062 0.905079 0.342577 0.275811 0.278205 
0.695636 0.535641 0.327688 0.940279 0.520954 
0.159033 0.277122 0.0772947 0.275198 0.994803 
0.986794 0.675264 0.300213 0.937509 0.695783 
0.828695 0.791749 0.0602322 0.78968 0.936953 
0.837864 0.10595 0.798219 0.174858 0.697735 
0.251004 0.847963 0.00113045 0.155844 0.605988 
0.434395 0.860962 0.236481 0.243659 0.824356 
0.522623 0.570576 0.618198 0.052569 0.813199 
0.650942 0.256055 0.90237 0.971132 0.372494 
0.621884 0.264691 0.719913 0.161252 0.655768 
0.600937 0.483968 0.502908 0.0100927 0.725943 
0.292616 0.764557 0.690918 0.440487 0.0409173 
0.813824 0.131059 0.440116 0.980693 0.503908 
0.271648 0.202108 0.237632 0.281749 0.116846 
0.836958 0.611005 0.615609 0.91105 0.873274 
0.624121 0.50623 0.476427 0.153026 0.682999 
0.631472 0.821679 0.127145 0.849353 0.463797 
0.414958 0.344642 0.955148 0.38987 0.354114 
0.0731255 0.394816 0.990648 0.000179529 0.416134 
0.266964 0.0531598 0.439068 0.638897 0.53554 
0.892757 0.110202 0.732343 0.541372 0.637542 
0.362545 0.973393 0.103481 0.66155 0.0676535 
0.336223 0.0617241 0.426517 0.399082 0.140707 
0.540256 0.0541019 0.554432 0.746285 0.727928 
0.0906718 0.554081 0.613946 0.847591 0.21444 
0.125257 0.873672 0.9629 0.508736 0.380615 
0.164285 0.184546 0.344305 0.425101 0.83596 
0.0615585 0.149816 0.0276557 0.646746 0.331746 
0.519518 0.314291 0.207284 0.0489991 0.530534 
0.3772 0.352861 0.71684 0.827841 0.34557 
0.499845 0.681882 0.756834 0.453591 0.458822 
0.625094 0.865224 0.695473 0.380236 0.430961 
0.312842 0.200379 0.0332662 0.880964 0.498624 
0.647947 0.996373 0.578417 0.32808 0.109128 
0.932995 0.126091 0.773415 0.476139 0.339051 
0.346927 0.252755 0.134537 0.670428 0.500325 
0.669319 0.986905 0.162462 0.693157 0.629932 
0.932814 0.311243 0.897076 0.538895 0.540513 
0.199833 0.134987 0.959218 0.0773039 0.191161 
0.548971 0.637693 0.951473 0.792844 0.0597025 
0.486878 0.808382 0.576402 0.569801 0.2785 
0.866525 0.642029 0.675076 0.227389 0.307246 
0.660772 0.937169 0.703985 0.879076 0.75201 
0.20388 0.3986 0.938153 0.350725 0.678603 
0.194 0.108719 0.198248 0.166995 0.311303 
0.674516 0.852431 0.328961 0.978677 0.415998 
0.189102 0.0565926 0.522713 0.597357 0.529685 
0.451904 0.798631 0.0868586 0.6953 0.301393 
0.994055 0.919833 0.506713 0.53606 0.986978 
0.860172 0.33314 0.55629 0.741574 0.993634 
0.138885 0.50319 0.631283 0.144047 0.769638 
0.0894357 0.0257204 0.951109 0.772152 0.103369 
0.465052 0.488662 0.932204 0.598414 0.540832 
0.885561 0.582844 0.535795 0.367825 0.275082 
0.60653 0.311664 0.925487 0.976144 0.77865 
0.962254 0.170672 0.637663 0.220143 0.876154 
0.303863 0.175232 0.97597 0.325561 0.857022 
0.414871 0.792406 0.45736 0.217396 0.939 
0.143586 0.34104 0.694074 0.445376 0.875773 
0.52337 0.31447 0.38946 0.585624 0.214422 
0.562234 0.430373 0.429589 0.383492 0.458297 
0.577596 0.625581 0.134234 0.51913 0.716112 
0.021412 0.778168 0.231657 0.537165 0.151663 
0.232284 0.663409 0.633969 0.906868 0.671608 
0.202945 0.342462 0.655368 0.096902 0.121152 
0.861786 0.967561 0.863044 0.252337 0.00453881 
0.0274708 0.769302 0.156269 0.805121 0.669483 
0.654095 0.07205 0.317866 0.735129 0.0326817 
0.560818 0.0770236 0.52647 0.418569 0.139268 
0.44039 0.324268 0.134346 0.377842 0.892708 
0.00272262 0.533844 0.310054 0.318143 0.217226 
0.176447 0.996577 0.979139 0.537178 0.314699 
0.463835 0.761068 0.157947 0.510493 0.611846 
0.00668511 0.766726 0.825099 0.530817 0.945741 
0.393982 0.708724 0.801396 0.440364 0.989126 
0.343413 0.440346 0.665008 0.722821 0.366489 
0.316537 0.658823 0.260478 0.697294 0.175773 
0.530472 0.952132 0.960443 0.383768 0.100787 
0.0822665 0.473739 0.167265 0.371389 0.225376 
0.0169527 0.777464 0.756944 0.393768 0.265114 
0.865018 0.588658 0.458969 0.9152 0.885343 
0.00329503 0.708717 0.210736 0.429228 0.182141 
0.839964 0.515455 0.725909 0.936646 0.93059 
0.804951 0.843062 0.715067 0.227308 0.400333 
0.38637 0.842132 0.646304 0.123798 0.313033 
0.976683 0.264822 0.952794 0.62586 0.139474 
0.360463 0.679079 0.120705 0.396571 0.298632 
0.245259 0.642629 0.0327698 0.439165 0.481171 
0.995847 0.465217 0.639969 0.48937 0.43343 
0.158354 0.880032 0.318291 0.196559 0.422002 
0.514578 0.34433 0.71265 0.670314 0.588557 
0.0266457 0.120867 0.111536 0.833029 0.927573 
0.31753 0.503566 0.597388 0.917405 0.191669 
0.91284 0.912467 0.887221 0.310339 0.00261366 
0.391749 0.52076 0.685198 0.60427 0.867742 
0.935298 0.532186 0.0336707 0.759471 0.981627 
0.770438 0.551289 0.325961 0.106625 0.943556 
0.301091 0.00600068 0.484027 0.986192 0.00180727 
0.138477 0.342142 0.153346 0.180537 0.597267 
0.0424444 0.266405 0.154899 0.335282 0.177461 
0.934865 0.691984 0.600578 0.340772 0.54214 
0.769257 0.299583 0.80332 0.845486 0.691396 
0.276297 0.965475 0.955285 0.244813 0.849151 
0.181273 0.232968 0.956179 0.747195 0.768142 
0.298233 0.323042 0.72401 0.617896 0.0901278 
0.0445259 0.434108 0.692522 0.986605 0.383801 
0.505976 0.241075 0.745501 0.930945 0.465372 
0.535658 0.835196 0.122571 0.35151 0.850174 
0.677947 0.336866 0.535044 0.694345 0.355534 
0.65232 0.744264 0.550068 0.110379 0.817324 
0.337376 0.378405 0.234206 0.529435 0.717562 
0.919302 0.985341 0.612835 0.864261 0.372875 
0.98385 0.762206 0.658577 0.313842 0.413087 
0.491761 0.0376112 0.59666 0.282115 0.275784 
0.0603004 0.583632 0.135674 0.686329 0.304475 
0.716596 0.356706 0.163113 0.529046 0.566964 
0.407447 0.881253 0.542546 0.781592 0.649415 
0.19575 0.0413189 0.70908 0.635206 0.16808 
0.346907 0.534102 0.652562 0.0206673 0.463242 
0.285962 0.304728 0.449657 0.114364 0.0102458 
0.364405 0.885525 0.44191 0.246052 0.804629 
0.269841 0.496563 0.635573 0.919564 0.737922 
0.392286 0.675172 0.548571 0.0115205 0.13389 
0.225241 0.249177 0.139494 0.298078 0.371234 
0.278424 0.253129 0.297056 0.235107 0.592932 
0.958186 0.912997 0.308864 0.520723 0.0725888 
0.638988 0.482418 0.790856 0.955956 0.310318 
0.483616 0.209597 0.241796 0.0906865 0.124367 
0.0722424 0.327153 0.299972 0.158433 0.174312 
0.638313 0.237226 0.437102 0.689762 0.551379 
0.933439 0.330341 0.83425 0.531777 0.589395 
0.588609 0.759336 0.0281674 0.264355 0.226629 
0.466026 0.12155 0.605603 0.0892813 0.832898 
0.238833 0.93811 0.752292 0.793182 0.272311 
0.712058 0.861406 0.573886 0.218274 0.430428 
0.457948 0.58491 0.136748 0.317827 0.808833 
0.9712 0.237957 0.967232 0.924085 0.813531 
0.400202 0.713272 0.670889 0.145187 0.512863 
0.323723 0.960742 0.986936 0.144655 0.590566 
0.63095 0.80536 0.698874 0.701963 0.650348 
0.986393 0.626957 0.492432 0.015533 0.457186 
0.751303 0.927837 0.251501 0.9197 0.183153 
0.943479 0.112883 0.486687 0.623374 0.22891 
0.0897894 0.822715 0.444524 0.220232 0.725501 
0.482507 0.470091 0.277862 0.490511 0.510766 
0.92479 0.951434 0.642547 0.623805 0.709447 
0.684679 0.319016 0.771606 0.679632 0.639445 
0.176902 0.264331 0.789978 0.766347 0.818946 
0.987509 0.535088 0.093271 0.726726 0.898513 
0.0887756 0.881524 0.777638 0.416951 0.973465 
0.0925022 0.0119819 0.525544 0.666816 0.027721 
0.943025 0.607081 0.660455 0.0768096 0.772429 
0.520145 0.713297 0.399744 0.0467878 0.640444 
0.332279 0.439277 0.383184 0.377133 0.0373703 
0.275701 0.65129 0.780672 0.688628 0.0439777 
0.98245 0.568521 0.864648 0.576709 0.617104 
0.501346 0.51576 0.436606 0.119079 0.763393 
0.907466 0.741423 0.000421201 0.663857 0.159866 
0.622723 0.0292904 0.653158 0.182037 0.294525 
0.00296055 0.516227 0.513625 0.0288889 0.878266 
0.855605 0.232488 0.228198 0.886179 0.0989117 
0.0858561 0.0100603 0.467903 0.58422 0.420946 
0.969328 0.253436 0.736924 0.195075 0.173874 
0.640345 0.229996 0.00201584 0.211587 0.592078 
0.341747 0.19865 0.742462 0.778501 0.64839 
0.324531 0.0562244 0.575183 0.212868 0.303738 
0.549017 0.319315 0.783273 0.231103 0.596041 
0.412971 0.755897 0.320961 0.441253 0.485706 
0.27066 0.944903 0.405876 0.918873 0.373068 
0.778357 0.158157 0.572371 0.360528 0.750837 
0.160783 0.911714 0.524331 0.0281024 0.774119 
0.93823 0.252234 0.457028 0.345906 0.454594 
0.104526 0.420515 0.34578 0.858613 0.118035 
0.652114 0.0295183 0.839366 0.0495917 0.880131 
0.889102 0.200176 0.503762 0.00957464 0.201579 
0.87994 0.883525 0.308908 0.807758 0.0397829 
0.316465 0.483857 0.567463 0.613866 0.57291 
0.800478 0.701472 0.121884 0.958283 0.16165 
0.616865 0.0882683 0.927444 0.731202 0.412633 
0.598985 0.39219 0.217356 0.29048 0.0551797 
0.971863 0.750435 0.812425 0.0300827 0.611517 
0.972024 0.542604 0.625273 0.670739 0.00682741 
0.710314 0.72669 0.591985 0.180548 0.0747666 
0.720939 0.928886 0.588911 0.852205 0.904076 
0.542544 0.159605 0.103158 0.307179 0.625467 
0.628528 0.18799 0.251957 0.1511 0.281746 
0.177227 0.204646 0.0675111 0.546904 0.935936 
