3100 5
0.0182629 0.0309917 0.782527 0.734904 0.388106 
0.873918 0.0636294 0.194771 0.472363 0.206037 
0.780769 0.244434 0.569374 0.886026 0.064229 
0.992327 0.351703 0.653348 0.596528 0.853428 
0.277306 0.0521815 0.33956 0.105196 0.470215 
0.479535 0.0939848 0.16349 0.255332 0.718703 
0.90924 0.362621 0.830544 0.58133 0.208589 
0.836752 0.179404 0.359753 0.175033 0.662373 
0.917167 0.954831 0.000755637 0.743722 0.896895 
0.238155 0.59428 0.0441609 0.364789 0.497658 
0.126528 0.738964 0.841276 0.0782967 0.502295 
0.876285 0.0976671 0.215213 0.954826 0.745389 
0.869996 0.948267 0.822467 0.0132814 0.799725 
0.62914 0.0250757 0.600822 0.175686 0.809298 
0.877985 0.382096 0.227447 0.122701 0.366349 
0.483139 0.583183 0.988553 0.470614 0.556898 
0.44565 0.851776 0.0581126 0.517973 0.651289 
0.352832 0.598747 0.298555 0.336002 0.599868 
0.335181 0.83983 0.2688 0.793485 0.994974 
0.532552 0.629527 0.904651 0.689598 0.934772 
0.848671 0.132264 0.929055 0.530129 0.893717 
0.881866 0.97885 0.933872 0.929833 0.401592 
0.91885 0.220143 0.137923 0.771582 0.842468 
0.0946046 0.577794 0.0538618 0.935076 0.136626 
0.318307 0.0309056 0.638751 0.598765 0.797268 
0.934815 0.698468 0.322501 0.833242 0.0523381 
0.733177 0.299353 0.274561 0.508007 0.668098 
0.875963 0.773385 0.640683 0.87854 0.0364118 
0.905853 0.73075 0.584997 0.131069 0.366513 
0.891063 0.105448 0.77624 0.508705 0.912438 
0.966988 0.794991 0.578761 0.00124789 0.630505 
0.253614 0.736083 0.480014 0.544297 0.222743 
0.537895 0.395616 0.36982 0.849386 0.276658 
0.79661 0.318298 0.645545 0.760959 0.737516 
0.200003 0.865139 0.322536 0.0448678 0.634363 
0.91884 0.365748 0.241333 0.586349 0.458338 
0.289476 0.537771 0.248224 0.88745 0.227266 
0.101159 0.584168 0.397184 0.953108 0.405185 
0.288552 0.568296 0.862954 0.019686 0.0818401 
0.459917 0.245786 0.74102 0.86773 0.657908 
0.653715 0.814264 0.225519 0.730731 0.373581 
0.0418114 0.215302 0.115792 0.0474558 0.309494 
0.668007 0.099331 0.88037 0.157841 0.734479 
0.052522 0.717184 0.286688 0.790923 0.395686 
0.11545 0.274791 0.232002 0.664944 0.586193 
0.375295 0.819392 0.114679 0.842326 0.324292 
0.472963 0.680958 0.0332582 0.126766 0.606899 
0.761932 0.541019 0.881741 0.484409 0.417716 
0.299055 0.166407 0.489893 0.621608 0.855491 
0.460358 0.0591578 0.748498 0.346754 0.69341 
0.0989777 0.0011994 0.72643 0.287363 0.353177 
0.875539 0.915815 0.56812 0.00110447 0.583147 
0.0638503 0.322501 0.434196 0.0505777 0.842259 
0.1717 0.894042 0.245711 0.509786 0.438797 
0.293771 0.328051 0.26927 0.512236 0.170367 
0.288218 0.817626 0.609392 0.45207 0.537658 
0.0630828 0.12571 0.550761 0.399816 0.440449 
0.622716 0.404402 0.535055 0.0586093 0.390942 
0.972544 0.384388 0.630702 0.293619 0.32221 
0.685237 0.636454 0.25347 0.852235 0.565175 
0.592663 0.866494 0.122787 0.554128 0.718206 
0.698846 0.00242275 0.51316 0.448641 0.616368 
0.506826 0.26765 0.52788 0.225346 0.816423 
0.967875 0.0657407 0.538459 0.28108 0.842326 
0.705979 0.873288 0.666801 0.753361 0.690149 
0.894341 0.777772 0.747572 0.000442089 0.372581 
0.187448 0.606246 0.98998 0.69151 0.0165612 
0.741016 0.642362 0.479154 0.904252 0.486846 
0.79822 0.617421 0.580321 0.609098 0.787255 
0.614218 0.351425 0.750251 0.778236 0.925904 
0.552618 0.641481 0.0253505 0.461904 0.112449 
0.493197 0.511216 0.0121973 0.476321 0.0169577 
0.464866 0.53353 0.231039 0.311137 0.740996 
0.1511 0.245148 0.351094 0.4016 0.744693 
0.0441231 0.91394 0.421665 0.600158 0.261753 
0.485222 0.397839 0.453953 0.568208 0.890706 
0.491242 0.908431 0.415372 0.254554 0.816794 
0.829051 0.898833 0.0574728 0.152534 0.512038 
0.65918 0.663276 0.616901 0.869911 0.115454 
0.0424625 0.409579 0.362992 0.215193 0.226877 
0.360732 0.182472 0.106114 0.831826 0.926635 
0.14109 0.898247 0.569327 0.771223 0.923788 
0.470758 0.424155 0.0400549 0.197271 0.880532 
0.26828 0.988124 0.586963 0.444431 0.901351 
0.343504 0.851652 0.633075 0.56396 0.68863 
0.288392 0.531835 0.813825 0.0327206 0.0578483 
0.623107 0.00361821 0.875874 0.807114 0.408332 
0.615811 0.749291 0.227813 0.398443 0.08603 
0.742758 0.762737 0.949378 0.971852 0.126424 
0.684972 0.1562 0.0597032 0.890168 0.484011 
0.0299673 0.217188 0.364415 0.90614 0.498831 
0.999673 0.249127 0.987419 0.470719 0.531529 
0.676359 0.756213 0.428267 0.392962 0.557078 
0.295986 0.615534 0.256578 0.351112 0.281041 
0.422655 0.944139 0.585809 0.0647519 0.605078 
0.054147 0.264196 0.28386 0.526784 0.872902 
0.515658 0.366205 0.14084 0.0931768 0.960316 
0.138877 0.750188 0.346421 0.252244 0.65556 
0.25355 0.548181 0.408469 0.187824 0.431949 
0.403042 0.249736 0.884477 0.771967 0.820539 
0.304718 0.364512 0.0740391 0.956104 0.279944 
0.80128 0.61008 0.588057 0.442295 0.110942 
0.805165 0.567251 0.746032 0.876069 0.0933095 
0.0343578 0.684047 0.831748 0.68047 0.766322 
0.158828 0.543642 0.997313 0.423479 0.22557 
0.652699 0.29205 0.349343 0.501512 0.396185 
0.0601588 0.576388 0.103064 0.767138 0.712534 
0.9736 0.386768 0.642741 0.540846 0.515115 
0.987171 0.685509 0.590984 0.638389 0.665524 
0.209336 0.682265 0.242583 0.260099 0.820158 
0.800717 0.676835 0.302882 0.676538 0.054824 
0.688327 0.293565 0.0969079 0.5411 0.667142 
0.867514 0.348286 0.836245 0.518293 0.356776 
0.80784 0.0446251 0.761289 0.425338 0.0706126 
0.0635473 0.837507 0.998811 0.70454 0.168965 
0.830259 0.896564 0.384609 0.419426 0.388146 
0.316762 0.830175 0.311378 0.367027 0.296163 
0.0410281 0.963534 0.705489 0.379198 0.10638 
0.640174 0.947253 0.463095 0.563748 0.814514 
0.263342 0.100029 0.0445863 0.731135 0.661191 
0.0461045 0.744796 0.777954 0.871911 0.35418 
0.495598 0.861906 0.371576 0.384693 0.747064 
0.0438522 0.0666216 0.478558 0.65893 0.476957 
0.452682 0.257465 0.806626 0.836767 0.713505 
0.997043 0.806406 0.0964968 0.707561 0.265397 
0.104708 0.734022 0.35365 0.945066 0.768852 
0.671237 0.471194 0.644148 0.842622 0.179059 
0.892819 0.772359 0.263051 0.79102 0.150727 
0.777676 0.614633 0.91051 0.537098 0.908547 
0.321849 0.405214 0.110591 0.757559 0.0732088 
0.950235 0.72205 0.612356 0.0728648 0.656273 
0.600764 0.83445 0.659935 0.061501 0.189082 
0.905277 0.179491 0.41294 0.793993 0.853736 
0.127492 0.856152 0.989059 0.311037 0.265719 
0.936177 0.738446 0.328527 0.963426 0.0408136 
0.608829 0.99122 0.76386 0.840844 0.8989 
0.0625304 0.351763 0.0511449 0.949046 0.133457 
0.342664 0.886457 0.431767 0.728331 0.814257 
0.065265 0.64061 0.985039 0.278138 0.766024 
0.842425 0.0110628 0.463586 0.012808 0.27816 
0.344551 0.82292 0.477973 0.114344 0.436551 
0.418171 0.368534 0.982931 0.415525 0.311784 
0.594418 0.657396 0.745551 0.373995 0.974819 
0.0678111 0.948511 0.57313 0.0589098 0.228551 
0.165301 0.328503 0.669575 0.400236 0.215301 
0.384294 0.863063 0.999905 0.854506 0.348977 
0.0997373 0.356041 0.918447 0.161883 0.846706 
0.658054 0.319224 0.627628 0.843544 0.939547 
0.120904 0.71563 0.307379 0.903337 0.910438 
0.668115 0.740133 0.709426 0.976494 0.351915 
0.0967312 0.276569 0.730684 0.403388 0.569659 
0.639258 0.944962 0.3006 0.18237 0.464173 
0.716654 0.171432 0.134792 0.622138 0.571554 
0.961578 0.329109 0.498373 0.721287 0.208656 
0.0879699 0.659467 0.0608406 0.266219 0.50122 
0.461404 0.943254 0.360993 0.490461 0.0718271 
0.391874 0.0972507 0.104804 0.992716 0.963579 
0.982611 0.885156 0.070356 0.523293 0.14105 
0.815775 0.836629 0.0773203 0.77793 0.144143 
0.858112 0.913731 0.211418 0.679711 0.549205 
0.564115 0.55031 0.168688 0.251123 0.0110619 
0.768002 0.620115 0.234845 0.104425 0.0177802 
0.550472 0.711866 0.759482 0.298213 0.137641 
0.397919 0.712155 0.104822 0.884963 0.408253 
0.34055 0.253948 0.99087 0.644331 0.338829 
0.749276 0.423652 0.61785 0.84491 0.292711 
0.404492 0.611507 0.0603228 0.552066 0.130911 
0.865016 0.995329 0.198003 0.844585 0.314636 
0.67348 0.24316 0.257638 0.58799 0.358666 
0.463075 0.906095 0.0777469 0.667486 0.6368 
0.509004 0.62782 0.0759662 0.992486 0.641693 
0.315984 0.608285 0.216861 0.64397 0.81989 
0.844054 0.947154 0.73348 0.743327 0.0693459 
0.5847 0.0735928 0.192161 0.144837 0.479319 
0.994776 0.734179 0.0587716 0.110504 0.093052 
0.542621 0.519983 0.372819 0.38995 0.94588 
0.667297 0.887476 0.172928 0.757776 0.703364 
0.58098 0.0856907 0.0456644 0.273437 0.791038 
0.155912 0.867835 0.215581 0.830867 0.387253 
0.923561 0.976947 0.346981 0.017354 0.328457 
0.157999 0.471294 0.0452987 0.33774 0.18895 
0.174675 0.315993 0.171504 0.519501 0.0130677 
0.329442 0.304512 0.124297 0.697155 0.25147 
0.520844 0.918692 0.60949 0.611217 0.0810907 
0.0159997 0.435549 0.350881 0.909802 0.281687 
0.749412 0.430358 0.310744 0.789134 0.342468 
0.370689 0.826721 0.0307267 0.739187 0.135652 
0.754065 0.368237 0.892387 0.761882 0.19003 
0.237158 0.0105164 0.85743 0.97021 0.303722 
0.168195 0.429258 0.667716 0.553482 0.177935 
0.0211204 0.440892 0.983199 0.25524 0.476835 
0.0175872 0.599214 0.932343 0.937743 0.625369 
0.110394 0.699783 0.238913 0.10258 0.769775 
0.500886 0.233736 0.983835 0.201906 0.664474 
0.053497 0.852942 0.160433 0.82784 0.0762761 
0.768171 0.963147 0.606446 0.0967314 0.370653 
0.989121 0.681617 0.827381 0.50773 0.303959 
0.512267 0.566342 0.245927 0.301127 0.266502 
0.0916914 0.259508 0.46266 0.635773 0.0902338 
0.644168 0.249479 0.619007 0.965637 0.421994 
0.524892 0.7499 0.764342 0.868134 0.577241 
0.65333 0.569983 0.833352 0.618827 0.486025 
0.685262 0.594243 0.229102 0.878437 0.0184675 
0.435653 0.29503 0.191371 0.908134 0.0602008 
0.0575834 0.96185 0.524549 0.834289 0.99504 
0.933321 0.447978 0.656096 0.270239 0.156631 
0.898951 0.822181 0.749475 0.197545 0.802841 
0.100095 0.344878 0.673723 0.289211 0.446257 
0.526906 0.159938 0.870411 0.0388574 0.934835 
0.256815 0.59823 0.535884 0.072918 0.617915 
0.131649 0.787186 0.295791 0.945315 0.573649 
0.802238 0.777616 0.422856 0.776201 0.719743 
0.0188013 0.399876 0.249792 0.750214 0.954842 
0.403799 0.568119 0.0946559 0.238921 0.679517 
0.584225 0.878321 0.520351 0.764582 0.486985 
0.934802 0.330957 0.469851 0.731735 0.565633 
0.598725 0.48055 0.74055 0.180882 0.373493 
0.181147 0.705511 0.174785 0.122619 0.939445 
0.203568 0.0940462 0.359826 0.202361 0.0975134 
0.282893 0.683059 0.983901 0.888299 0.348373 
0.407264 0.690692 0.573078 0.276636 0.121391 
0.847141 0.52893 0.332987 0.495893 0.946281 
0.82996 0.622024 0.283953 0.248852 0.154401 
0.032154 0.477018 0.557208 0.851526 0.0546027 
0.812694 0.933481 0.0515132 0.13625 0.396211 
0.288267 0.686974 0.388831 0.415174 0.536535 
0.208322 0.2361 0.00747614 0.89753 0.374613 
0.882941 0.150042 0.164792 0.942607 0.106602 
0.857147 0.835895 0.996676 0.323844 0.584439 
0.376231 0.103215 0.598542 0.181512 0.941155 
0.386129 0.765206 0.77859 0.105015 0.677419 
0.179861 0.118905 0.259865 0.716591 0.976422 
0.145464 0.96727 0.0476874 0.847415 0.728286 
0.211627 0.89186 0.0751018 0.987084 0.937464 
0.392886 0.698066 0.328966 0.548412 0.324918 
0.700294 0.812556 0.520194 0.0608483 0.338528 
0.129853 0.716042 0.290062 0.922372 0.761182 
0.972579 0.893826 0.190803 0.11957 0.597662 
0.386041 0.186278 0.525156 0.312394 0.518576 
0.739218 0.180255 0.477706 0.92999 0.958959 
0.0488409 0.628297 0.362966 0.44519 0.497763 
0.0611522 0.668 0.0950995 0.697389 0.79507 
0.91346 0.538226 0.418433 0.151443 0.134056 
0.735931 0.255324 0.560249 0.620448 0.488423 
0.068504 0.232303 0.71806 0.198942 0.230039 
0.634531 0.414703 0.0460488 0.314812 0.826833 
0.940979 0.974168 0.263939 0.165778 0.744192 
0.243122 0.951872 0.903358 0.222626 0.707444 
0.674263 0.837748 0.445509 0.867003 0.370672 
0.812439 0.491053 0.600009 0.06282 0.606486 
0.628365 0.744146 0.540769 0.0391917 0.97047 
0.149196 0.822836 0.830033 0.893644 0.492941 
0.22173 0.248285 0.720711 0.977587 0.866653 
0.096552 0.281063 0.818733 0.680156 0.222735 
0.411022 0.579209 0.561589 0.856337 0.360147 
0.556594 0.480077 0.472591 0.252733 0.461617 
0.0552689 0.786279 0.169444 0.364135 0.528433 
0.241652 0.991827 0.946069 0.468996 0.999788 
0.33738 0.695081 0.0615741 0.372953 0.976758 
0.0690937 0.386664 0.615488 0.482125 0.0458411 
0.849746 0.438335 0.294782 0.378241 0.249046 
0.78846 0.376276 0.819916 0.729669 0.255252 
0.0414634 0.439874 0.20808 0.910164 0.940361 
0.186818 0.944285 0.381757 0.5626 0.732771 
0.531326 0.132514 0.469802 0.915981 0.896919 
0.970372 0.286717 0.311898 0.621406 0.636208 
0.0565143 0.7747 0.592415 0.628942 0.529841 
0.3565 0.241739 0.690951 0.84299 0.332471 
0.594615 0.829698 0.389427 0.856493 0.670056 
0.658804 0.782774 0.330546 0.581018 0.233068 
0.856637 0.708703 0.844777 0.931012 0.469235 
0.729274 0.578938 0.665127 0.612465 0.05256 
0.540727 0.215782 0.804903 0.813162 0.115603 
0.867991 0.0181239 0.316426 0.418372 0.993538 
0.716255 0.699732 0.775749 0.603041 0.752476 
0.641384 0.363902 0.990451 0.509237 0.653445 
0.372559 0.55796 0.373498 0.605222 0.555233 
0.0718617 0.54533 0.67746 0.808527 0.379938 
0.861003 0.658759 0.100196 0.946151 0.979286 
0.496929 0.757452 0.135084 0.497989 0.319052 
0.132086 0.676409 0.78311 0.848672 0.352006 
0.154843 0.695177 0.928703 0.921959 0.163545 
0.646911 0.857008 0.847851 0.564308 0.536169 
0.258438 0.798378 0.775925 0.428889 0.444555 
0.627328 0.236366 0.979488 0.611873 0.877354 
0.325099 0.93777 0.288772 0.278253 0.418522 
0.533202 0.386082 0.0213121 0.618335 0.815356 
0.869508 0.135112 0.697741 0.138874 0.32517 
0.263718 0.279037 0.477928 0.88656 0.236418 
0.506769 0.415451 0.67711 0.884685 0.134444 
0.840069 0.792085 0.0638842 0.86026 0.392981 
0.322112 0.0559564 0.772231 0.142499 0.981415 
0.183151 0.0392652 0.327819 0.0925514 0.97912 
0.247513 0.00289103 0.344167 0.697833 0.00963327 
0.0650605 0.936842 0.906119 0.263907 0.860479 
0.0396581 0.271018 0.409074 0.391063 0.539641 
0.341403 0.0105638 0.38277 0.400438 0.369607 
0.708432 0.899707 0.0996933 0.812252 0.869833 
0.703722 0.417589 0.476274 0.926028 0.663979 
0.139713 0.759109 0.703637 0.206599 0.593082 
0.414521 0.496265 0.123277 0.901117 0.516391 
0.75453 0.591389 0.376681 0.847772 0.4384 
0.730803 0.485111 0.827722 0.294698 0.114916 
0.513524 0.783179 0.517242 0.943443 0.83948 
0.851809 0.123615 0.0272341 0.94002 0.472797 
0.41703 0.0749051 0.584986 0.0700233 0.0373639 
0.137288 0.697124 0.35915 0.688739 0.721039 
0.127198 0.176164 0.323255 0.94611 0.0420149 
0.341253 0.91508 0.507548 0.571657 0.199372 
0.591466 0.368205 0.534368 0.847752 0.840988 
0.81595 0.380792 0.525331 0.355153 0.822855 
0.246891 0.52981 0.210353 0.0930805 0.108217 
0.725803 0.859846 0.544228 0.970087 0.434488 
0.635449 0.682608 0.488631 0.689815 0.405015 
0.860122 0.486495 0.348968 0.198181 0.772683 
0.169832 0.378209 0.257847 0.509994 0.209914 
0.235926 0.769926 0.34256 0.693847 0.235169 
0.338952 0.0768661 0.137681 0.118717 0.281662 
0.133639 0.309173 0.790761 0.806595 0.214006 
0.517918 0.0729562 0.803372 0.379554 0.751681 
0.457455 0.851888 0.117871 0.870534 0.0432247 
0.305846 0.288833 0.478249 0.505056 0.430595 
0.594036 0.291582 0.256473 0.764695 0.3823 
0.900678 0.987361 0.802397 0.277966 0.230749 
0.344273 0.902149 0.800822 0.521536 0.92219 
0.966891 0.306003 0.116344 0.908686 0.00210348 
0.989849 0.495034 0.680872 0.975533 0.76332 
0.299597 0.994342 0.529643 0.0506509 0.336199 
0.746885 0.0995546 0.455756 0.360495 0.925971 
0.305341 0.936463 0.909103 0.849415 0.406176 
0.726812 0.142538 0.260819 0.870526 0.82068 
0.974985 0.930554 0.402847 0.0596568 0.957407 
0.47886 0.704896 0.683322 0.194716 0.355842 
0.14953 0.867913 0.322686 0.905017 0.941928 
0.626407 0.981993 0.731586 0.295972 0.725064 
0.278162 0.327952 0.912532 0.594914 0.221826 
0.399349 0.165127 0.498821 0.451373 0.837059 
0.533522 0.658627 0.354878 0.0181657 0.979744 
0.834421 0.683554 0.767936 0.973342 0.392033 
0.293753 0.625402 0.697069 0.896804 0.125885 
0.348346 0.0214894 0.124719 0.230868 0.398267 
0.739619 0.317876 0.151896 0.273075 0.511945 
0.324649 0.538963 0.192508 0.921381 0.527196 
0.290215 0.365075 0.951837 0.707483 0.347629 
0.83495 0.839829 0.959048 0.234727 0.179213 
0.175127 0.932732 0.419343 0.834771 0.842599 
0.892783 0.401106 0.0450683 0.904359 0.619113 
0.297603 0.236319 0.0459284 0.194958 0.697218 
0.382493 0.142843 0.473308 0.879499 0.952035 
0.632468 0.0920983 0.581951 0.928268 0.570951 
0.636078 0.611801 0.705038 0.0746739 0.412766 
0.936966 0.24773 0.973123 0.0801996 0.224285 
0.965867 0.282429 0.461251 0.820398 0.693908 
0.59745 0.281058 0.814314 0.060969 0.20868 
0.336906 0.0272776 0.300969 0.851831 0.307744 
0.757762 0.346963 0.352599 0.708136 0.177766 
0.400752 0.786341 0.802798 0.318805 0.729799 
0.885173 0.834963 0.47449 0.304908 0.774768 
0.766221 0.970224 0.167046 0.124748 0.819107 
0.206433 0.182444 0.510267 0.565068 0.0299775 
0.111436 0.784472 0.139389 0.103021 0.162238 
0.515331 0.97412 0.99129 0.793448 0.707189 
0.283014 0.744624 0.00101212 0.295965 0.91399 
0.48843 0.199422 0.315909 0.30804 0.160149 
0.165692 0.737049 0.86958 0.102305 0.234346 
0.864251 0.195254 0.217302 0.0222141 0.174088 
0.148661 0.67535 0.401143 0.379695 0.295003 
0.233599 0.136605 0.830889 0.975516 0.54282 
0.0491085 0.702635 0.043452 0.391415 0.218414 
0.144945 0.251823 0.825769 0.0585438 0.172829 
0.758976 0.371927 0.791808 0.106152 0.0635947 
0.935903 0.323061 0.73381 0.552428 0.134449 
0.445262 0.979179 0.71763 0.703285 0.104072 
0.972297 0.124593 0.782593 0.389817 0.534854 
0.703462 0.984478 0.900876 0.760132 0.329507 
0.671714 0.138949 0.825065 0.262216 0.670363 
0.17412 0.753161 0.366886 0.258136 0.718605 
0.698365 0.0549891 0.211463 0.656859 0.650163 
0.960782 0.807663 0.172388 0.470186 0.163111 
0.0935022 0.929657 0.369362 0.643922 0.796215 
0.764809 0.283092 0.480904 0.790041 0.0196064 
0.808375 0.635227 0.462338 0.417237 0.0809507 
0.79515 0.229512 0.860915 0.555633 0.115406 
0.828288 0.786571 0.0540278 0.584583 0.481344 
0.877702 0.151113 0.34809 0.994827 0.669702 
0.787176 0.731786 0.91342 0.401927 0.373407 
0.0614457 0.352516 0.463575 0.591334 0.733585 
0.679408 0.901198 0.753955 0.0272468 0.6597 
0.522454 0.980108 0.428 0.454319 0.0280831 
0.762264 0.706912 0.794344 0.493622 0.896037 
0.748025 0.0981852 0.872302 0.863917 0.747449 
0.22823 0.71647 0.0821218 0.221559 0.608228 
0.109527 0.00800084 0.637577 0.116144 0.64105 
0.762201 0.946186 0.411745 0.572944 0.694789 
0.663543 0.602748 0.113919 0.624257 0.800555 
0.30526 0.742397 0.94045 0.332988 0.448657 
0.846535 0.477594 0.651377 0.0160044 0.606008 
0.837437 0.426318 0.0453376 0.339244 0.670525 
0.197001 0.271778 0.699561 0.437321 0.457651 
0.244032 0.965962 0.841229 0.558082 0.333431 
0.462317 0.275864 0.971142 0.959506 0.210223 
0.687731 0.831808 0.702495 0.932832 0.127746 
0.362728 0.824873 0.73143 0.660955 0.0334083 
0.908887 0.170688 0.463178 0.437679 0.422971 
0.953749 0.327648 0.472818 0.0461032 0.271918 
0.224855 0.356879 0.422562 0.648831 0.273406 
0.788237 0.469144 0.202096 0.481104 0.394518 
0.390177 0.832074 0.328309 0.96504 0.239187 
0.74826 0.120294 0.600577 0.134723 0.409926 
0.204382 0.361714 0.450368 0.3047 0.143429 
0.332657 0.813518 0.359889 0.452103 0.0803567 
0.0447372 0.320053 0.5355 0.120748 0.298751 
0.984289 0.197306 0.209307 0.658313 0.393367 
0.0678347 0.803358 0.15508 0.157839 0.723769 
0.823961 0.139001 0.809337 0.684112 0.918328 
0.938567 0.528399 0.345776 0.0625106 0.653399 
0.226116 0.119146 0.821087 0.0583571 0.887251 
0.126915 0.64419 0.0525067 0.528845 0.814332 
0.442556 0.341014 0.565341 0.455031 0.912799 
0.902107 0.930666 0.395881 0.0430142 0.0542775 
0.897628 0.759438 0.0826068 0.117781 0.949539 
0.23018 0.490468 0.0908983 0.597234 0.762265 
0.118255 0.23741 0.519665 0.763629 0.608567 
0.125699 0.510923 0.990689 0.608726 0.813237 
0.846773 0.80652 0.779518 0.748598 0.462477 
0.214644 0.795427 0.827775 0.0859733 0.606299 
0.81664 0.265785 0.718208 0.980257 0.353944 
0.723955 0.57256 0.116418 0.841087 0.634726 
0.929669 0.164526 0.427202 0.788481 0.266644 
0.522091 0.317642 0.889761 0.832385 0.61277 
0.476188 0.491527 0.353624 0.245631 0.175447 
0.73568 0.773378 0.9977 0.211334 0.982977 
0.478763 0.598143 0.00518892 0.0539211 0.144862 
0.341099 0.163328 0.364573 0.381234 0.769667 
0.97004 0.924386 0.916874 0.537765 0.408268 
0.92278 0.240193 0.251485 0.602784 0.130332 
0.154989 0.334056 0.0966966 0.518818 0.329121 
0.45233 0.316667 0.943054 0.269 0.14079 
0.346785 0.363756 0.480251 0.824196 0.821433 
0.804177 0.409459 0.800726 0.332047 0.945816 
0.0450281 0.923615 0.220518 0.250137 0.718307 
0.682798 0.913843 0.98454 0.575601 0.644629 
0.853496 0.475765 0.870443 0.49792 0.382004 
0.828511 0.524396 0.636964 0.966747 0.439874 
0.40868 0.284691 0.347505 0.142857 0.634606 
0.838956 0.968812 0.452401 0.196601 0.230288 
0.424929 0.391054 0.464819 0.954867 0.0804346 
0.480976 0.361885 0.0261943 0.666719 0.638145 
0.292817 0.560614 0.0274494 0.38743 0.0889251 
0.530836 0.651202 0.510225 0.527119 0.400701 
0.455419 0.155763 0.58169 0.595829 0.659538 
0.767218 0.948755 0.175944 0.415398 0.874342 
0.920932 0.371207 0.693392 0.0347103 0.0636333 
0.695687 0.154985 0.336038 0.059802 0.589335 
0.43691 0.440093 0.557936 0.820128 0.818737 
0.60174 0.989354 0.504088 0.161719 0.0370653 
0.65043 0.812181 0.514919 0.979191 0.103755 
0.673164 0.660286 0.795294 0.598313 0.613342 
0.242206 0.26039 0.456117 0.465022 0.447346 
0.192619 0.0228867 0.0465349 0.490867 0.912953 
0.836533 0.831747 0.811607 0.158213 0.0269238 
0.197083 0.756682 0.318294 0.183703 0.900954 
0.128124 0.0129315 0.599052 0.658127 0.050497 
0.104313 0.0541726 0.758615 0.0880722 0.2805 
0.714109 0.773553 0.559994 0.359985 0.47032 
0.272405 0.740988 0.206481 0.193803 0.107226 
0.482334 0.130758 0.811658 0.991744 0.585119 
0.0768878 0.517371 0.742883 0.422493 0.460629 
0.874477 0.865974 0.657055 0.921277 0.424304 
0.495172 0.535603 0.774131 0.0938444 0.068283 
0.294833 0.386441 0.824683 0.240581 0.958445 
0.763287 0.428346 0.725485 0.176047 0.327825 
0.342468 0.658879 0.753357 0.0259653 0.148043 
0.0545751 0.0177868 0.430292 0.23398 0.71291 
0.382469 0.994851 0.711462 0.239558 0.753913 
0.731265 0.296305 0.674222 0.370692 0.99739 
0.300683 0.689751 0.138509 0.488697 0.429435 
0.493154 0.829942 0.605017 0.196359 0.262487 
0.465578 0.845767 0.888878 0.999236 0.415905 
0.245206 0.745371 0.68963 0.989811 0.110631 
0.907282 0.0331788 0.242874 0.138572 0.968396 
0.88046 0.777603 0.423377 0.82859 0.908863 
0.64325 0.327719 0.655916 0.954078 0.790113 
0.534591 0.317478 0.55095 0.179695 0.331346 
0.331422 0.199304 0.15394 0.384915 0.271229 
0.757268 0.646127 0.695905 0.433923 0.414155 
0.860444 0.907061 0.618054 0.986608 0.230234 
0.895935 0.611327 0.593111 0.124482 0.231486 
0.949289 0.795857 0.623376 0.964 0.753109 
0.404216 0.323154 0.973651 0.0954168 0.437756 
0.735119 0.3822 0.636621 0.830192 0.948839 
0.577188 0.927471 0.722867 0.707612 0.935454 
0.871153 0.991553 0.0281445 0.0637805 0.0738875 
0.672953 0.549752 0.486026 0.12143 0.389723 
0.730791 0.754509 0.360511 0.49952 0.847255 
0.496305 0.279666 0.303257 0.0939262 0.28939 
0.0617772 0.120442 0.749584 0.199077 0.249487 
0.406901 0.40213 0.110417 0.958035 0.390219 
0.728633 0.998747 0.124129 0.861038 0.719464 
0.0676012 0.350707 0.384338 0.1272 0.407761 
0.551859 0.27809 0.0879278 0.0927877 0.413945 
0.286243 0.195854 0.88123 0.760309 0.82694 
0.329104 0.444935 0.604697 0.100981 0.914825 
0.192059 0.228959 0.886271 0.876963 0.240723 
0.364237 0.112807 0.675563 0.448988 0.311116 
0.655486 0.646179 0.0360604 0.884833 0.446983 
0.854397 0.927872 0.722358 0.938894 0.213507 
0.34927 0.988637 0.550749 0.904953 0.743532 
0.922147 0.124135 0.152275 0.544055 0.471472 
0.655907 0.529069 0.282895 0.126971 0.246734 
0.233222 0.418449 0.430782 0.83905 0.817819 
0.298656 0.0535509 0.226738 0.227317 0.727832 
0.87688 0.67165 0.43557 0.844839 0.291011 
0.038044 0.935172 0.0492354 0.311869 0.764418 
0.99936 0.382657 0.263297 0.314737 0.56954 
0.288664 0.986053 0.466092 0.0528263 0.961667 
0.493096 0.801699 0.377476 0.384596 0.19581 
0.492809 0.264842 0.752379 0.103635 0.754515 
0.754872 0.533144 0.69413 0.0910688 0.501242 
0.491882 0.350971 0.926649 0.643894 0.249061 
0.0391678 0.853471 0.579539 0.583045 0.581981 
0.753967 0.0181032 0.588936 0.124675 0.365183 
0.226886 0.191296 0.447231 0.780364 0.981647 
0.0607811 0.234716 0.319897 0.0138802 0.433632 
0.941182 0.699419 0.843732 0.328406 0.830705 
0.806951 0.594367 0.140143 0.456882 0.565801 
0.607368 0.610863 0.748709 0.945151 0.423363 
0.808516 0.326218 0.182891 0.703118 0.0144416 
0.585955 0.254509 0.991338 0.0205062 0.0692826 
0.812286 0.0493851 0.20408 0.745162 0.882839 
0.599201 0.125749 0.803431 0.76179 0.776676 
0.69801 0.873495 0.081709 0.408245 0.325768 
0.289551 0.253828 0.83363 0.662127 0.829484 
0.797209 0.135448 0.191835 0.520913 0.66488 
0.192686 0.477913 0.669257 0.804409 0.823044 
0.1651 0.933481 0.189684 0.0456264 0.596692 
0.0168026 0.00146847 0.268076 0.828231 0.117433 
0.206446 0.590664 0.0299745 0.374435 0.341245 
0.881863 0.863291 0.15908 0.492968 0.43865 
0.502153 0.152806 0.796601 0.643866 0.48891 
0.72921 0.183185 0.488145 0.0782134 0.217181 
0.927816 0.623045 0.526286 0.58884 0.504903 
0.085372 0.248045 0.960797 0.77789 0.887017 
0.926264 0.858992 0.689208 0.2081 0.12569 
0.429151 0.421442 0.927695 0.798221 0.804523 
0.726246 0.190238 0.369533 0.575281 0.605187 
0.455585 0.479803 0.299439 0.52453 0.540949 
0.847927 0.0119807 0.581727 0.394836 0.0358643 
0.70885 0.789981 0.0565999 0.124437 0.696406 
0.424241 0.413556 0.46991 0.865508 0.94889 
0.310105 0.447526 0.110622 0.650903 0.625657 
0.397722 0.644976 0.243596 0.937264 0.115357 
0.36789 0.561463 0.29911 0.769806 0.828543 
0.521789 0.812465 0.558561 0.286639 0.61427 
0.411005 0.951307 0.630407 0.730351 0.647027 
0.692937 0.140695 0.976238 0.540665 0.497223 
0.94524 0.797846 0.215205 0.470914 0.0314738 
0.304664 0.794866 0.538068 0.726013 0.413068 
0.199148 0.123738 0.918797 0.0133437 0.941371 
0.286643 0.330325 0.0706858 0.94792 0.167992 
0.634043 0.37712 0.706266 0.463982 0.597688 
0.277772 0.515683 0.609316 0.896413 0.22989 
0.388279 0.431529 0.421163 0.383855 0.912204 
0.103908 0.65437 0.0291196 0.479441 0.124314 
0.387674 0.306278 0.851359 0.359154 0.357642 
0.483851 0.678332 0.450253 0.505149 0.248416 
0.888112 0.446102 0.627261 0.26468 0.866802 
0.10602 0.763513 0.977094 0.228254 0.217705 
0.999038 0.139219 0.751595 0.558761 0.594023 
0.88542 0.574333 0.927531 0.845048 0.148448 
0.882049 0.224787 0.972337 0.00166461 0.957333 
0.582551 0.948442 0.0453087 0.756002 0.416562 
0.229556 0.687999 0.822189 0.73529 0.39553 
0.356011 0.71598 0.530437 0.091915 0.606847 
0.828508 0.950191 0.846365 0.181097 0.170712 
0.796979 0.221642 0.718424 0.363392 0.0949769 
0.0532404 0.49929 0.0766038 0.800004 0.379581 
0.10783 0.170665 0.134841 0.430024 0.498768 
0.420423 0.115448 0.729787 0.648775 0.118473 
0.90121 0.323472 0.429438 0.918908 0.727229 
0.593627 0.863164 0.304783 0.185129 0.210595 
0.980564 0.375103 0.225555 0.916153 0.738491 
0.572902 0.306902 0.913147 0.609175 0.860229 
0.677465 0.668267 0.00464455 0.814685 0.272054 
0.882068 0.105008 0.737885 0.677886 0.545418 
0.694223 0.760413 0.681653 0.0195561 0.631571 
0.225508 0.759816 0.179193 0.619144 0.954563 
0.831995 0.200523 0.89108 0.306937 0.925825 
0.705683 0.883159 0.972995 0.92167 0.660402 
0.319438 0.846051 0.105113 0.639907 0.139016 
0.8774 0.0992477 0.311047 0.492498 0.283816 
0.715537 0.553036 0.40208 0.795369 0.0858362 
0.697688 0.815205 0.142982 0.874209 0.145686 
0.792449 0.472494 0.349867 0.147898 0.100369 
0.241589 0.68391 0.587903 0.797714 0.286902 
0.807533 0.410243 0.901388 0.383586 0.501842 
0.618326 0.243759 0.0129438 0.247735 0.21761 
0.547121 0.334857 0.618041 0.174593 0.61567 
0.58552 0.36164 0.969615 0.724258 0.118824 
0.515271 0.302053 0.928687 0.0185379 0.308472 
0.266405 0.207108 0.462312 0.00946014 0.309419 
0.266269 0.695401 0.319399 0.0426721 0.524262 
0.836299 0.132359 0.501995 0.0529696 0.480803 
0.277715 0.48246 0.700231 0.311507 0.586352 
0.734561 0.786464 0.968733 0.254082 0.630193 
0.203079 0.996918 0.411387 0.163736 0.384451 
0.220861 0.366385 0.450292 0.261577 0.260458 
0.698461 0.618819 0.595204 0.335072 0.462891 
0.0890552 0.617113 0.637841 0.488673 0.878058 
0.294488 0.00619819 0.354203 0.641377 0.0942673 
0.961705 0.201333 0.687913 0.21758 0.777622 
0.960226 0.362795 0.258509 0.82237 0.298521 
0.934474 0.780541 0.263825 0.631973 0.526249 
0.365923 0.125583 0.817831 0.266545 0.204703 
0.886805 0.158515 0.394906 0.209238 0.054427 
0.638449 0.110682 0.984047 0.234929 0.130021 
0.32756 0.587945 0.506637 0.470574 0.288235 
0.14519 0.344329 0.419059 0.220831 0.798004 
0.123593 0.709123 0.658026 0.716674 0.836133 
0.220207 0.0927048 0.0740741 0.150924 0.580356 
0.948458 0.667797 0.138621 0.0502772 0.309935 
0.557923 0.078538 0.347568 0.129861 0.0845864 
0.146406 0.478039 0.555738 0.381803 0.686618 
0.284133 0.267542 0.992005 0.331801 0.769676 
0.80363 0.244632 0.223493 0.908602 0.550895 
0.281577 0.0381494 0.813132 0.343383 0.493907 
0.805516 0.213424 0.0873993 0.690476 0.342199 
0.922521 0.402613 0.952896 0.0896666 0.366971 
0.985509 0.616745 0.799142 0.863208 0.0916267 
0.740361 0.173991 0.99195 0.195847 0.664334 
0.620319 0.777569 0.948372 0.0143507 0.79197 
0.359076 0.970287 0.192257 0.525961 0.0986643 
0.857113 0.424137 0.240632 0.902394 0.730626 
0.900319 0.240431 0.350214 0.98267 0.269066 
0.212631 0.430896 0.881171 0.939405 0.0579423 
0.210489 0.962682 0.664698 0.911257 0.829377 
0.521929 0.223983 0.0958073 0.72808 0.390551 
0.619233 0.0897372 0.895948 0.714792 0.330695 
0.388572 0.111165 0.84599 0.483105 0.950662 
0.0771209 0.829736 0.31184 0.982725 0.716705 
0.0248977 0.302055 0.963715 0.568416 0.168296 
0.379443 0.074347 0.237778 0.786448 0.816658 
0.344757 0.541668 0.179584 0.378414 0.866511 
0.377752 0.627965 0.445833 0.96236 0.387803 
0.473613 0.491114 0.226677 0.757454 0.868113 
0.259191 0.0738765 0.87919 0.201251 0.986393 
0.98179 0.256465 0.02121 0.666131 0.171974 
0.427641 0.173093 0.511901 0.258893 0.297915 
0.715201 0.866675 0.784021 0.174564 0.844292 
0.759795 0.499056 0.410768 0.00753572 0.10617 
0.669518 0.503431 0.236366 0.96145 0.303174 
0.410481 0.297443 0.438693 0.312239 0.473989 
0.789923 0.0691372 0.215526 0.690399 0.120957 
0.422025 0.347586 0.18537 0.665394 0.38743 
0.795044 0.705873 0.924649 0.477607 0.575885 
0.605544 0.542151 0.942838 0.318148 0.333285 
0.203445 0.694851 0.780734 0.0170642 0.938649 
0.116578 0.0424269 0.904788 0.0681972 0.773744 
0.824539 0.781977 0.689071 0.476097 0.289937 
0.0182887 0.105931 0.408643 0.284354 0.554063 
0.924314 0.212374 0.799992 0.746911 0.977275 
0.910234 0.396693 0.115336 0.372724 0.294052 
0.390282 0.032875 0.791483 0.83113 0.124254 
0.494086 0.577753 0.85279 0.978272 0.930303 
0.98152 0.470294 0.614811 0.38869 0.681464 
0.856675 0.340114 0.10072 0.835771 0.160386 
0.228887 0.197826 0.453186 0.306774 0.32266 
0.437713 0.254128 0.422319 0.175761 0.110875 
0.881959 0.96361 0.195655 0.543412 0.761077 
0.0749117 0.545866 0.657668 0.754083 0.811157 
0.404008 0.861371 0.368417 0.951722 0.461267 
0.00294417 0.635322 0.693537 0.0840434 0.820285 
0.750665 0.537504 0.638924 0.358737 0.133281 
0.949067 0.142724 0.816059 0.987089 0.0277686 
0.504687 0.259617 0.098014 0.436144 0.784895 
0.567397 0.408875 0.745021 0.42303 0.730656 
0.674374 0.105222 0.725149 0.879834 0.481635 
0.241207 0.222866 0.805336 0.300699 0.0703158 
0.21045 0.911367 0.799019 0.525062 0.26337 
0.132233 0.665667 0.646242 0.588952 0.923318 
0.843451 0.6525 0.00568918 0.918802 0.235397 
0.129883 0.860217 0.235999 0.741174 0.543147 
0.640389 0.539877 0.500689 0.0714663 0.719922 
0.0142507 0.814015 0.905482 0.840351 0.324721 
0.903701 0.011472 0.187316 0.81169 0.728536 
0.527766 0.933377 0.864488 0.813478 0.999648 
0.967373 0.222743 0.647778 0.431324 0.835877 
0.387623 0.300281 0.759885 0.959354 0.696071 
0.205001 0.569619 0.477159 0.587169 0.369414 
0.503301 0.0870812 0.138857 0.558653 0.445366 
0.351155 0.40659 0.674789 0.42885 0.202764 
0.821688 0.545939 0.34808 0.23627 0.821832 
0.0855157 0.264825 0.729987 0.389789 0.840593 
0.897495 0.913673 0.820683 0.904648 0.942097 
0.541709 0.0446613 0.231104 0.59849 0.828297 
0.139901 0.556368 0.0354373 0.502164 0.839586 
0.300178 0.380596 0.495218 0.0669205 0.916525 
0.095741 0.287687 0.521778 0.815893 0.425493 
0.188899 0.92772 0.0529079 0.7968 0.212286 
0.564526 0.82315 0.801175 0.735934 0.729995 
0.401375 0.06358 0.448522 0.852091 0.791261 
0.850652 0.0435324 0.234717 0.921844 0.906716 
0.0861382 0.644364 0.700591 0.938765 0.140243 
0.714941 0.270641 0.684234 0.508821 0.581634 
0.760851 0.6406 0.389941 0.0166691 0.975417 
0.899213 0.166169 0.255703 0.965524 0.283113 
0.425452 0.446969 0.782019 0.975352 0.575494 
0.0625757 0.496793 0.0467983 0.64518 0.868817 
0.630432 0.353692 0.0167908 0.799379 0.517709 
0.486918 0.105465 0.367267 0.298737 0.810578 
0.579848 0.697373 0.869951 0.842983 0.62778 
0.146116 0.462384 0.78926 0.851935 0.923854 
0.788065 0.882277 0.146829 0.193842 0.305365 
0.772226 0.264683 0.0957714 0.420253 0.417096 
0.682945 0.147156 0.464349 0.606609 0.978923 
0.0815583 0.21636 0.083638 0.660616 0.819833 
0.251344 0.904773 0.937654 0.374651 0.268083 
0.797413 0.350805 0.307633 0.873447 0.270579 
0.631464 0.139325 0.191887 0.34122 0.949583 
0.777473 0.123108 0.275742 0.0770566 0.583384 
0.564108 0.84332 0.214877 0.982641 0.678276 
0.176848 0.0375301 0.0919065 0.674007 0.652677 
0.739264 0.974008 0.129506 0.493764 0.00487085 
0.531067 0.0543994 0.53406 0.66801 0.902141 
0.0776343 0.337152 0.721735 0.0953079 0.761419 
0.0809351 0.706787 0.151941 0.860214 0.333221 
0.702817 0.810672 0.297124 0.138305 0.947277 
0.567058 0.485002 0.400585 0.248322 0.0513917 
0.686622 0.240288 0.182544 0.497641 0.00986775 
0.499069 0.155923 0.678557 0.259749 0.293056 
0.487697 0.392091 0.567127 0.618241 0.127853 
0.849297 0.455462 0.44634 0.504452 0.387604 
0.37078 0.779267 0.38059 0.28266 0.646543 
0.354808 0.00698077 0.342376 0.391073 0.049436 
0.93526 0.829851 0.123178 0.241287 0.753875 
0.216923 0.45896 0.681877 0.279702 0.174779 
0.441833 0.486267 0.0323538 0.530762 0.119509 
0.703802 0.360956 0.300774 0.752514 0.365968 
0.778996 0.849164 0.475142 0.844029 0.105811 
0.575801 0.326146 0.00483624 0.0303031 0.827624 
0.992909 0.997784 0.204217 0.442204 0.164987 
0.0801481 0.557819 0.461641 0.0730186 0.126336 
0.57662 0.106889 0.381698 0.138013 0.530405 
0.882819 0.460024 0.49965 0.725618 0.20098 
0.182022 0.678575 0.178626 0.599993 0.200635 
0.292403 0.484068 0.785588 0.856754 0.584335 
0.726088 0.327416 0.171501 0.922808 0.888076 
0.0182553 0.741733 0.033808 0.0702825 0.679746 
0.674129 0.658167 0.520659 0.666832 0.352361 
0.0973826 0.200628 0.0720127 0.18668 0.662767 
0.285563 0.296714 0.642211 0.310174 0.218436 
0.881022 0.924357 0.343779 0.868308 0.937837 
0.965659 0.412269 0.450822 0.0856674 0.179602 
0.292749 0.444755 0.0615193 0.378641 0.460915 
0.525032 0.872267 0.179936 0.706737 0.585216 
0.418109 0.854634 0.0115888 0.893666 0.53719 
0.474291 0.743823 0.86167 0.924324 0.616972 
0.234442 0.158447 0.350652 0.293856 0.328304 
0.0897146 0.724073 0.662181 0.817323 0.34083 
0.22071 0.0791432 0.0945296 0.599737 0.0215774 
0.0157496 0.711792 0.356893 0.0515799 0.234501 
0.205086 0.281921 0.0832417 0.204968 0.532099 
0.157711 0.473793 0.0581706 0.926741 0.0672166 
0.996541 0.136602 0.366808 0.619884 0.790722 
0.629805 0.583056 0.97226 0.0977262 0.650379 
0.479948 0.610872 0.320751 0.231666 0.626969 
0.355251 0.135064 0.080476 0.355414 0.697306 
0.129891 0.732887 0.456047 0.528787 0.281942 
0.528042 0.497493 0.808393 0.271006 0.389575 
0.523151 0.626276 0.67307 0.964404 0.0627643 
0.79392 0.141051 0.76338 0.776684 0.58701 
0.179959 0.552451 0.981584 0.0380468 0.552369 
0.0398341 0.161996 0.209081 0.724937 0.385983 
0.0650312 0.139291 0.422572 0.375869 0.227625 
0.636925 0.443857 0.100212 0.683799 0.888269 
0.990496 0.848437 0.189512 0.415101 0.414445 
0.620854 0.847885 0.693418 0.761079 0.302502 
0.0258754 0.404934 0.821641 0.504976 0.189573 
0.441402 0.148394 0.595275 0.448895 0.396895 
0.77643 0.312535 0.895788 0.0927434 0.54219 
0.0477311 0.82646 0.362299 0.399583 0.237793 
0.872576 0.29128 0.76671 0.555654 0.502211 
0.0784263 0.607355 0.48387 0.291595 0.698896 
0.0337051 0.426395 0.259899 0.0628857 0.841268 
0.381689 0.420771 0.224389 0.273039 0.89327 
0.615666 0.785623 0.435366 0.528 0.0799625 
0.22708 0.214572 0.54234 0.760472 0.6762 
0.519307 0.720845 0.830975 0.0969163 0.17733 
0.747646 0.796126 0.214177 0.10649 0.783671 
0.857155 0.198883 0.887179 0.315505 0.579132 
0.251597 0.268552 0.713765 0.939679 0.99145 
0.00861945 0.359947 0.269909 0.0742981 0.677299 
0.316202 0.90579 0.0393435 0.52491 0.418842 
0.482843 0.872205 0.669892 0.133484 0.937387 
0.807362 0.344104 0.216288 0.492585 0.986163 
0.0362183 0.157551 0.564853 0.589914 0.522872 
0.75834 0.0433516 0.192419 0.752908 0.429208 
0.85238 0.535225 0.649011 0.728281 0.803437 
0.77452 0.840289 0.0293909 0.317321 0.591333 
0.138226 0.841057 0.77806 0.383681 0.827082 
0.706045 0.40713 0.230746 0.735148 0.739937 
0.909811 0.0651302 0.414982 0.809919 0.495654 
0.588668 0.404799 0.505798 0.29223 0.552203 
0.960048 0.753057 0.674988 0.438451 0.825808 
0.0673926 0.856376 0.647005 0.394557 0.143061 
0.563927 0.260047 0.381265 0.448407 0.405782 
0.300386 0.158658 0.168369 0.114205 0.751635 
0.452901 0.818984 0.837701 0.288221 0.450505 
0.0328316 0.611015 0.671272 0.327247 0.546137 
0.448143 0.418473 0.708675 0.763825 0.916984 
0.311719 0.704436 0.607443 0.403027 0.21459 
0.707191 0.132693 0.956543 0.611621 0.556308 
0.754035 0.426346 0.0818505 0.480121 0.354107 
0.493416 0.865766 0.658197 0.284651 0.161926 
0.0736498 0.508567 0.838169 0.267348 0.424769 
0.974809 0.195061 0.470709 0.0033107 0.983265 
0.397744 0.666059 0.676595 0.210371 0.572173 
0.64492 0.579598 0.667839 0.303868 0.0936322 
0.0540472 0.12019 0.763928 0.962925 0.786841 
0.296197 0.861513 0.827364 0.479568 0.00776458 
0.354184 0.963907 0.376586 0.650118 0.108416 
0.146232 0.14357 0.535214 0.462208 0.113068 
0.634252 0.47254 0.164922 0.371171 0.33803 
0.704215 0.481919 0.0614987 0.821762 0.902817 
0.678964 0.469211 0.595871 0.663629 0.880143 
0.197336 0.12229 0.862169 0.474145 0.697283 
0.811695 0.90179 0.725067 0.916862 0.0499719 
0.196617 0.621915 0.515189 0.5868 0.581614 
0.790305 0.0137516 0.406766 0.144855 0.513508 
0.886264 0.891103 0.150897 0.893447 0.289144 
0.673151 0.250939 0.619516 0.99226 0.031817 
0.868923 0.220999 0.271451 0.941126 0.970825 
0.811805 0.552884 0.334737 0.1639 0.283269 
0.249029 0.966564 0.615807 0.239695 0.0224031 
0.142997 0.993468 0.998112 0.919742 0.469568 
0.45871 0.105929 0.235847 0.364592 0.0946247 
0.314992 0.67874 0.595977 0.315275 0.928973 
0.630697 0.806511 0.462304 0.363113 0.13301 
0.225003 0.0532279 0.097353 0.163562 0.256615 
0.613953 0.207558 0.493921 0.249273 0.697798 
0.153523 0.353666 0.74339 0.140159 0.698961 
0.711725 0.354211 0.9735 0.633528 0.471063 
0.604618 0.495217 0.106911 0.776512 0.712383 
0.147301 0.609915 0.237906 0.138443 0.399156 
0.950086 0.42035 0.0880813 0.0324839 0.525406 
0.871923 0.568579 0.313191 0.20298 0.31514 
0.160635 0.125232 0.624983 0.0253764 0.846801 
0.459769 0.0186041 0.381796 0.965573 0.610931 
0.404726 0.937906 0.435222 0.323282 0.787233 
0.312998 0.544753 0.620438 0.597533 0.917496 
0.0557366 0.593076 0.96331 0.396684 0.25127 
0.426721 0.960342 0.213533 0.301536 0.854119 
0.849619 0.0451287 0.414101 0.16858 0.375085 
0.505122 0.194497 0.292089 0.0700252 0.596417 
0.721717 0.226683 0.428868 0.264208 0.107446 
0.501581 0.980803 0.651888 0.816789 0.539489 
0.968127 0.285052 0.710903 0.898294 0.314956 
0.537169 0.905582 0.929352 0.293994 0.569107 
0.552775 0.880951 0.987708 0.68868 0.130026 
0.122986 0.158401 0.230213 0.644226 0.0183035 
0.787428 0.769141 0.430957 0.893494 0.646491 
0.402171 0.87958 0.582278 0.622331 0.277848 
0.890462 0.519829 0.999025 0.953134 0.133376 
0.120392 0.129353 0.438207 0.735528 0.677919 
0.534146 0.927891 0.977901 0.576877 0.843847 
0.789526 0.591808 0.538968 0.840028 0.330669 
0.883098 0.439307 0.0287478 0.342869 0.666593 
0.709585 0.430736 0.865397 0.732422 0.194219 
0.940631 0.936643 0.756328 0.198129 0.185679 
0.847468 0.405134 0.645782 0.12557 0.140742 
0.604505 0.0188432 0.978273 0.47844 0.889684 
0.688224 0.38018 0.819425 0.455883 0.318186 
0.199859 0.911282 0.396537 0.715163 0.258722 
0.0231977 0.0356956 0.263731 0.222427 0.96438 
0.499107 0.0956832 0.903151 0.61426 0.672338 
0.438636 0.297394 0.64355 0.792775 0.428717 
0.761078 0.588658 0.736882 0.832812 0.420404 
0.444814 0.223673 0.302369 0.322587 0.0010311 
0.00542737 0.220591 0.704674 0.359053 0.375451 
0.296054 0.419362 0.672552 0.435178 0.442855 
0.198434 0.71281 0.368915 0.0886908 0.248333 
0.855443 0.360508 0.89763 0.756485 0.0519871 
0.147382 0.0724735 0.0510045 0.452749 0.519052 
0.587217 0.144656 0.0515926 0.13978 0.240778 
0.102298 0.555274 0.208868 0.371353 0.453449 
0.236121 0.565477 0.655619 0.902524 0.773376 
0.423297 0.523275 0.170577 0.456203 0.0267367 
0.792907 0.100269 0.772714 0.271702 0.165162 
0.0045372 0.695302 0.751721 0.474085 0.210887 
0.00701912 0.880555 0.582727 0.0867375 0.893594 
0.630117 0.726643 0.609964 0.417392 0.58291 
0.197549 0.130444 0.60318 0.018339 0.0313432 
0.510367 0.124072 0.553716 0.805987 0.854806 
0.436967 0.596353 0.259412 0.446723 0.367593 
0.938419 0.313673 0.926183 0.846591 0.801945 
0.627966 0.740355 0.533793 0.434343 0.810299 
0.90641 0.570704 0.91728 0.703979 0.683108 
0.31571 0.833227 0.00948421 0.255309 0.118438 
0.00884128 0.0319577 0.325141 0.343592 0.614538 
0.492132 0.798752 0.112251 0.0219865 0.420117 
0.496602 0.127054 0.389556 0.735267 0.930446 
0.0457655 0.914995 0.841153 0.944393 0.658944 
0.52965 0.796343 0.966515 0.370859 0.308502 
0.55471 0.0698942 0.795747 0.387749 0.629619 
0.78275 0.831685 0.143694 0.78272 0.217601 
0.154357 0.138604 0.0552105 0.497414 0.154368 
0.299819 0.10386 0.930884 0.923722 0.463249 
0.707518 0.158138 0.917425 0.00419677 0.134284 
0.559363 0.735151 0.700712 0.0772257 0.754331 
0.85137 0.287137 0.211809 0.468867 0.642254 
0.366314 0.341181 0.0879647 0.497648 0.0780247 
0.19051 0.0404002 0.384301 0.43795 0.907493 
0.28549 0.489277 0.34028 0.123521 0.52976 
0.716978 0.379183 0.399112 0.571231 0.553674 
0.278474 0.333367 0.678467 0.511207 0.0668889 
0.971759 0.663307 0.132538 0.977283 0.0815958 
0.434433 0.77514 0.810248 0.875918 0.753176 
0.165219 0.292502 0.282275 0.854933 0.831298 
0.40901 0.243086 0.493132 0.355504 0.139668 
0.138958 0.386562 0.136932 0.736217 0.949823 
0.760524 0.626131 0.352525 0.812942 0.000813325 
0.0392835 0.465159 0.816555 0.301789 0.0134322 
0.0260608 0.491272 0.683136 0.462257 0.36496 
0.172562 0.533997 0.279485 0.753227 0.85301 
0.746322 0.151449 0.761524 0.947264 0.0374511 
0.0541044 0.451229 0.696609 0.507446 0.336542 
0.942949 0.162083 0.813771 0.127884 0.115452 
0.625161 0.265388 0.943141 0.832391 0.682854 
0.419659 0.163165 0.796021 0.0798087 0.320896 
0.936275 0.0904527 0.86585 0.970858 0.476756 
0.0464628 0.209203 0.485546 0.222484 0.530359 
0.699651 0.685582 0.962538 0.40436 0.0596554 
0.609817 0.434621 0.606096 0.79114 0.426436 
0.538138 0.520971 0.878908 0.720152 0.425749 
0.598386 0.457839 0.975219 0.0778438 0.351159 
0.81474 0.345311 0.774343 0.242155 0.378931 
0.541531 0.175331 0.187158 0.0487557 0.485267 
0.507766 0.168428 0.183879 0.0142968 0.0282604 
0.27769 0.20968 0.836737 0.64247 0.037404 
0.318661 0.469585 0.543759 0.831934 0.755695 
0.881698 0.488486 0.182231 0.565061 0.0782986 
0.749561 0.549112 0.0766469 0.504426 0.0434179 
0.469018 0.938391 0.0358263 0.775509 0.803151 
0.309212 0.978624 0.424597 0.46238 0.376795 
0.535696 0.825676 0.201332 0.187639 0.811229 
0.662795 0.553047 0.661261 0.988453 0.0835688 
0.30791 0.726127 0.969238 0.352739 0.764192 
0.176769 0.111315 0.584393 0.956418 0.813313 
0.582174 0.832568 0.287407 0.167511 0.383151 
0.540285 0.102225 0.64615 0.605502 0.379073 
0.347778 0.802561 0.191176 0.0711222 0.682615 
0.0672306 0.499637 0.500487 0.416095 0.236015 
0.821294 0.616912 0.0794899 0.0113126 0.880591 
0.627481 0.829846 0.279035 0.578118 0.792497 
0.607447 0.241033 0.450307 0.896196 0.780734 
0.56623 0.624678 0.523317 0.429283 0.658328 
0.654113 0.648127 0.216667 0.494608 0.386257 
0.560651 0.902319 0.995566 0.0861213 0.73335 
0.770028 0.467523 0.702851 0.992955 0.205976 
0.912989 0.00429425 0.156165 0.869893 0.636724 
0.665954 0.372791 0.700665 0.769847 0.890587 
0.917076 0.566009 0.312847 0.498176 0.941403 
0.0355488 0.385667 0.27796 0.117144 0.0722644 
0.124837 0.0509002 0.151396 0.840008 0.855068 
0.452743 0.0253677 0.141764 0.289848 0.0588541 
0.701924 0.540081 0.953208 0.929761 0.651556 
0.411923 0.279524 0.0461544 0.535851 0.419038 
0.812855 0.163751 0.301369 0.395097 0.268528 
0.626511 0.447 0.540789 0.445721 0.0803376 
0.309129 0.16451 0.729141 0.272967 0.210436 
0.730208 0.146278 0.341356 0.62228 0.731331 
0.899488 0.0546637 0.481398 0.227071 0.810221 
0.0900822 0.394607 0.961937 0.192439 0.0335841 
0.841849 0.280607 0.840688 0.456899 0.29303 
0.411885 0.651515 0.101416 0.377119 0.192821 
0.362071 0.344977 0.0662072 0.107516 0.725465 
0.485439 0.523187 0.797045 0.336824 0.466798 
0.784832 0.26235 0.991871 0.222698 0.129108 
0.705329 0.00909788 0.72563 0.776951 0.630283 
0.415667 0.220526 0.459329 0.190904 0.954145 
0.600143 0.184324 0.914206 0.442982 0.493297 
0.591784 0.94232 0.52669 0.771412 0.146619 
0.314397 0.834172 0.378889 0.905972 0.753665 
0.289149 0.194997 0.19588 0.377538 0.368445 
0.154939 0.196117 0.769367 0.730274 0.464962 
0.136763 0.580157 0.147671 0.526038 0.605821 
0.373828 0.438498 0.872725 0.528188 0.472184 
0.451429 0.545555 0.825681 0.199087 0.988236 
0.937821 0.842764 0.664378 0.00813302 0.579843 
0.983777 0.00476038 0.0722149 0.909679 0.313703 
0.325283 0.937205 0.80869 0.379654 0.403463 
0.573523 0.822821 0.0339128 0.719622 0.21482 
0.207031 0.441165 0.987204 0.987874 0.44544 
0.471703 0.677524 0.684138 0.885328 0.654663 
0.810888 0.131884 0.502308 0.585753 0.632427 
0.889828 0.701524 0.59245 0.286279 0.861325 
0.807847 0.251225 0.235053 0.855448 0.780014 
0.681928 0.919917 0.816437 0.590205 0.383182 
0.260796 0.0305889 0.113518 0.909985 0.123816 
0.649913 0.676827 0.778892 0.677768 0.73385 
0.586256 0.917041 0.238104 0.597719 0.407331 
0.570046 0.390568 0.360743 0.967605 0.657096 
0.302062 0.956597 0.99512 0.617391 0.781739 
0.159777 0.889369 0.949133 0.369577 0.20206 
0.433697 0.509889 0.693631 0.205265 0.152344 
0.955152 0.159107 0.340159 0.852293 0.875938 
0.348935 0.966788 0.811624 0.399185 0.618831 
0.411321 0.96158 0.806133 0.538281 0.681169 
0.535922 0.455282 0.558279 0.184118 0.59401 
0.898267 0.120671 0.263629 0.752998 0.262912 
0.753778 0.0243822 0.00331635 0.358881 0.622397 
0.574264 0.40522 0.650439 0.890765 0.876132 
0.541571 0.630756 0.209483 0.687057 0.0905197 
0.855946 0.332046 0.652145 0.123788 0.209333 
0.683313 0.966246 0.26375 0.481953 0.891216 
0.848029 0.0370181 0.20888 0.973095 0.72532 
0.168501 0.655278 0.595197 0.245529 0.465055 
0.770351 0.654684 0.571325 0.860365 0.567906 
0.608675 0.607613 0.220114 0.914028 0.355222 
0.551639 0.743316 0.257828 0.601157 0.657796 
0.831616 0.351382 0.414402 0.426287 0.543612 
0.556089 0.0906873 0.101448 0.307547 0.667689 
0.690194 0.165016 0.913251 0.758845 0.591725 
0.448154 0.425164 0.48637 0.609734 0.559663 
0.066063 0.215254 0.787527 0.35358 0.673142 
0.590382 0.583825 0.0850593 0.286682 0.874903 
0.0637077 0.0114644 0.0675496 0.663256 0.666569 
0.655935 0.571328 0.85602 0.0722992 0.996705 
0.409168 0.190929 0.219511 0.308866 0.655866 
0.465783 0.930574 0.106071 0.706744 0.650047 
0.913069 0.0232401 0.696281 0.230746 0.427612 
0.0257537 0.175887 0.564931 0.041691 0.296733 
0.135893 0.628302 0.442561 0.399842 0.457635 
0.141801 0.515717 0.444157 0.992855 0.857892 
0.594195 0.151483 0.538135 0.896955 0.667159 
0.683816 0.554834 0.844723 0.796371 0.285882 
0.760351 0.283261 0.071824 0.604291 0.382557 
0.560522 0.0392633 0.361472 0.171803 0.359547 
0.660608 0.338574 0.230594 0.344685 0.165194 
0.254833 0.0809515 0.94777 0.286708 0.969195 
0.795341 0.766371 0.524576 0.984687 0.825217 
0.395811 0.974667 0.0495138 0.983662 0.502892 
0.355875 0.0404796 0.736095 0.990262 0.203918 
