1400 5
0.565657 0.696883 0.251044 0.855842 0.746197 
0.0800224 0.032071 0.652214 0.556819 0.216517 
0.268397 0.235343 0.585653 0.510384 0.845911 
0.206934 0.144215 0.483652 0.161606 0.809787 
0.596822 0.55692 0.62995 0.258667 0.84703 
0.713706 0.699642 0.0350146 0.714512 0.89626 
0.580618 0.625185 0.932097 0.251002 0.144098 
0.0580887 0.441771 0.730024 0.402098 0.717059 
0.719264 0.162862 0.978703 0.337819 0.0671581 
0.734185 0.768707 0.393119 0.291831 0.221395 
0.35034 0.757718 0.101468 0.203134 0.866724 
0.48417 0.410845 0.00816693 0.324499 0.867807 
0.223389 0.674129 0.909948 0.534926 0.254895 
0.133008 0.23722 0.998446 0.751482 0.108301 
0.740263 0.587006 0.96574 0.566545 0.206875 
0.289405 0.15653 0.0537628 0.603021 0.975059 
0.963576 0.565999 0.457373 0.0481207 0.415594 
0.279911 0.334273 0.314992 0.895373 0.116474 
0.532336 0.458363 0.227257 0.0520238 0.198793 
0.920676 0.65903 0.179471 0.570315 0.032129 
0.362591 0.924312 0.522139 0.299312 0.142282 
0.217634 0.728943 0.553385 0.391195 0.695966 
0.22133 0.541724 0.985402 0.21259 0.322031 
0.153524 0.331444 0.360081 0.773058 0.864088 
0.782176 0.471893 0.633614 0.941146 0.0726273 
0.708233 0.879038 0.997905 0.678681 0.0573101 
0.863099 0.0187354 0.368347 0.517801 0.219868 
0.985534 0.940317 0.478656 0.208379 0.198366 
0.0884195 0.127801 0.291166 0.191474 0.194692 
0.0100621 0.9613 0.843049 0.47163 0.350391 
0.692068 0.614472 0.403105 0.161538 0.594138 
0.950933 0.784147 0.146406 0.135123 0.0452544 
0.779208 0.645552 0.570219 0.902815 0.873454 
0.759466 0.984329 0.344108 0.855501 0.300163 
0.231083 0.347699 0.783664 0.312782 0.651966 
0.226978 0.210002 0.736908 0.674884 0.21264 
0.730125 0.463654 0.0293472 0.385607 0.786424 
0.391371 0.778238 0.0601012 0.612944 0.57935 
0.235086 0.182417 0.646384 0.363778 0.107428 
0.00176524 0.503211 0.649332 0.45409 0.144538 
0.768287 0.732252 0.846424 0.0506713 0.666648 
0.363546 0.330435 0.00720381 0.461097 0.0226777 
0.369851 0.409701 0.251605 0.0520234 0.800261 
0.234594 0.944507 0.164781 0.0818769 0.782371 
0.990236 0.495102 0.0928439 0.801288 0.070859 
0.42112 0.235889 0.758909 0.501364 0.543666 
0.177298 0.222784 0.303775 0.531641 0.741726 
0.372273 0.72907 0.630385 0.367186 0.269628 
0.451636 0.632803 0.0584449 0.431861 0.668928 
0.281176 0.568858 0.3677 0.354824 0.864865 
0.667658 0.18562 0.680892 0.542752 0.1525 
0.829489 0.778775 0.931601 0.251775 0.452608 
0.0180748 0.455389 0.783122 0.405018 0.679764 
0.541612 0.179819 0.201856 0.555857 0.401938 
0.574199 0.167687 0.221145 0.118337 0.668203 
0.177353 0.534582 0.835083 0.346044 0.0498313 
0.501484 0.452974 0.115587 0.672821 0.692308 
0.12954 0.14369 0.376819 0.779125 0.879753 
0.80129 0.948815 0.970328 0.579026 0.827034 
0.997354 0.127806 0.06856 0.134666 0.196279 
0.179126 0.214776 0.505187 0.326347 0.0641371 
0.348933 0.67706 0.632565 0.274065 0.280454 
0.920667 0.819819 0.839719 0.684978 0.151379 
0.014804 0.937651 0.773671 0.552837 0.242966 
0.074977 0.611926 0.892471 0.596316 0.892068 
0.315968 0.308979 0.748743 0.586411 0.436889 
0.52275 0.0634114 0.0429441 0.518797 0.552989 
0.998685 0.654743 0.118828 0.896581 0.13231 
0.604561 0.099082 0.126554 0.63041 0.26411 
0.255083 0.516491 0.560136 0.471141 0.0465398 
0.951483 0.433277 0.892006 0.965255 0.627029 
0.417513 0.790342 0.491097 0.196639 0.00595329 
0.664738 0.623515 0.666762 0.151168 0.377045 
0.0324987 0.974666 0.715409 0.364785 0.779618 
0.884196 0.936894 0.69764 0.500822 0.00278645 
0.471838 0.972742 0.69432 0.0882413 0.983291 
0.253396 0.0346047 0.225733 0.595831 0.554578 
0.239663 0.794161 0.245178 0.468615 0.133162 
0.322416 0.761339 0.782153 0.902475 0.194393 
0.875717 0.311612 0.793662 0.0816137 0.799461 
0.233126 0.636979 0.34887 0.431128 0.378077 
0.206026 0.0619651 0.334231 0.669559 0.160723 
0.817929 0.645063 0.205171 0.399336 0.673382 
0.52342 0.239372 0.301067 0.479621 0.512323 
0.0309293 0.490796 0.487869 0.818454 0.164861 
0.785859 0.101236 0.938106 0.15822 0.893562 
0.860882 0.602526 0.224164 0.985689 0.636532 
0.1594 0.535404 0.404503 0.994102 0.00577919 
0.650917 0.0115524 0.968476 0.738479 0.76718 
0.931361 0.702021 0.968843 0.204681 0.942369 
0.402286 0.858648 0.188768 0.454012 0.900006 
0.213857 0.119092 0.586037 0.56905 0.62391 
0.301219 0.00728832 0.0466689 0.692846 0.688916 
0.008709 0.884649 0.158814 0.160931 0.00427402 
0.179495 0.580001 0.577154 0.123528 0.673892 
0.0370778 0.360553 0.367334 0.142613 0.464289 
0.699212 0.902739 0.288991 0.369866 0.352856 
0.4207 0.232186 0.897693 0.536262 0.944711 
0.0421635 0.912988 0.0153128 0.0343337 0.815853 
0.671321 0.847412 0.146309 0.329897 0.118579 
0.736495 0.286612 0.336024 0.648388 0.152024 
0.599548 0.147541 0.746501 0.931484 0.555784 
0.937024 0.194199 0.903044 0.984822 0.673687 
0.926073 0.852301 0.076027 0.981387 0.294164 
0.261125 0.134791 0.19553 0.838729 0.288667 
0.694057 0.0794815 0.308697 0.839291 0.35976 
0.793566 0.327011 0.767164 0.743761 0.204589 
0.590758 0.0197402 0.000433013 0.333288 0.855891 
0.60874 0.968278 0.429896 0.759212 0.235565 
0.972854 0.259538 0.588295 0.955754 0.408303 
0.907865 0.783889 0.641742 0.138778 0.915504 
0.247759 0.665954 0.952748 0.448659 0.267371 
0.630373 0.174118 0.767325 0.0907397 0.000627583 
0.0245576 0.141664 0.63584 0.800598 0.964439 
0.381413 0.0381232 0.705586 0.520806 0.819036 
0.188769 0.355852 0.135254 0.287052 0.966773 
0.0863801 0.306699 0.886812 0.684121 0.0152741 
0.881342 0.504193 0.798755 0.814766 0.0455394 
0.954006 0.280206 0.661212 0.50826 0.0674485 
0.618576 0.178513 0.217589 0.715807 0.169042 
0.0991119 0.801388 0.0272637 0.717098 0.43326 
0.0521266 0.671221 0.426014 0.834354 0.456437 
0.297514 0.482012 0.40348 0.531391 0.716054 
0.148407 0.330852 0.654769 0.506879 0.998849 
0.651653 0.427594 0.288472 0.00810936 0.558359 
0.627942 0.336796 0.319429 0.641561 0.782743 
0.719911 0.528822 0.622985 0.949428 0.225375 
0.589351 0.40413 0.255086 0.281388 0.894008 
0.206673 0.69688 0.98103 0.155524 0.051236 
0.47948 0.301555 0.79195 0.742538 0.272581 
0.687992 0.415769 0.180037 0.367334 0.347371 
0.517303 0.530846 0.604891 0.637784 0.350963 
0.213769 0.270074 0.696377 0.113784 0.068178 
0.147458 0.56477 0.373034 0.261473 0.577751 
0.991196 0.11506 0.325823 0.636048 0.157895 
0.0186046 0.0649424 0.443699 0.953928 0.0156855 
0.729654 0.211428 0.59028 0.0730368 0.526209 
0.213862 0.83892 0.0806937 0.399645 0.968797 
0.0899305 0.200599 0.618202 0.459693 0.239331 
0.438926 0.469403 0.822717 0.648895 0.899863 
0.95666 0.0344189 0.973219 0.530361 0.855151 
0.642084 0.792202 0.564606 0.270966 0.672769 
0.693343 0.293017 0.686893 0.32972 0.191198 
0.217791 0.0667257 0.759511 0.494154 0.775372 
0.853399 0.238499 0.863073 0.0939823 0.646006 
0.127229 0.654418 0.532625 0.871174 0.692246 
0.405273 0.658774 0.503198 0.748654 0.833056 
0.27325 0.0388675 0.160818 0.104283 0.482764 
0.200804 0.480346 0.00302673 0.899533 0.475391 
0.490253 0.925198 0.971848 0.490461 0.968084 
0.704762 0.572447 0.956705 0.471831 0.0252114 
0.46089 0.657683 0.983321 0.655975 0.145382 
0.771985 0.159034 0.484269 0.348142 0.789049 
0.447135 0.131203 0.772734 0.32733 0.557922 
0.696574 0.493116 0.168587 0.615614 0.0943077 
0.714343 0.290519 0.029567 0.914054 0.823845 
0.704539 0.643031 0.595429 0.133423 0.776748 
0.728635 0.825378 0.00363018 0.789046 0.408729 
0.20101 0.765657 0.790775 0.171491 0.875183 
0.540304 0.524051 0.71271 0.936407 0.328885 
0.989069 0.193183 0.348943 0.701506 0.0662162 
0.257918 0.333069 0.746107 0.568013 0.772697 
0.66065 0.249934 0.615863 0.667304 0.306734 
0.739675 0.418973 0.0863722 0.61963 0.70299 
0.0414512 0.133065 0.206911 0.868473 0.461095 
0.834933 0.104651 0.636099 0.545161 0.71274 
0.185201 0.202749 0.692097 0.319429 0.0350401 
0.651149 0.569732 0.0504816 0.346109 0.316722 
0.370076 0.749903 0.440896 0.721123 0.195321 
0.360661 0.634507 0.495177 0.290184 0.427845 
0.1395 0.768128 0.142252 0.627531 0.494695 
0.887108 0.915703 0.0883996 0.506408 0.0622142 
0.844914 0.0195739 0.0440376 0.195889 0.411622 
0.348858 0.486782 0.869216 0.686312 0.315317 
0.183828 0.605417 0.103974 0.0361874 0.0617515 
0.256256 0.259315 0.558332 0.514525 0.399922 
0.0744602 0.484894 0.887496 0.892653 0.924462 
0.752481 0.995232 0.938666 0.768722 0.0311601 
0.281728 0.438422 0.670398 0.563934 0.221848 
0.980144 0.882526 0.101307 0.270822 0.525573 
0.556394 0.811046 0.114031 0.947403 0.445432 
0.342098 0.336418 0.492997 0.92588 0.583185 
0.637827 0.789563 0.164394 0.213604 0.0129763 
0.403143 0.900265 0.85297 0.66043 0.241063 
0.945989 0.854453 0.533047 0.943378 0.493119 
0.6479 0.281291 0.434079 0.365735 0.590007 
0.572706 0.521915 0.596731 0.177714 0.709972 
0.0112227 0.0838865 0.163542 0.609593 0.947733 
0.686953 0.646242 0.212387 0.798056 0.111663 
0.517636 0.286175 0.974711 0.0581716 0.214935 
0.376477 0.77218 0.727362 0.755029 0.437735 
0.262132 0.752326 0.333849 0.626091 0.321785 
0.866842 0.242776 0.11323 0.820324 0.319318 
0.646424 0.219877 0.920676 0.678087 0.135356 
0.456577 0.189232 0.468178 0.574471 0.0674124 
0.0536673 0.542453 0.718551 0.0223057 0.773647 
0.368123 0.908193 0.59534 0.838675 0.678495 
0.47818 0.16835 0.983426 0.0230798 0.330479 
0.226723 0.102012 0.124637 0.199261 0.363255 
0.533835 0.90043 0.280724 0.43607 0.0231009 
0.258609 0.660813 0.397074 0.579699 0.0736444 
0.471885 0.0617695 0.801511 0.669286 0.444316 
0.942156 0.834514 0.221033 0.937696 0.287895 
0.737747 0.686027 0.0742394 0.044532 0.894266 
0.728534 0.186322 0.316541 0.0287903 0.0453465 
0.144075 0.412855 0.744647 0.521627 0.704664 
0.126752 0.869934 0.564309 0.524521 0.623815 
0.512589 0.337207 0.265788 0.592864 0.59661 
0.321864 0.309081 0.232862 0.955418 0.460622 
0.283464 0.944197 0.45244 0.129654 0.463765 
0.192218 0.966696 0.98426 0.909384 0.148219 
0.589025 0.552154 0.536942 0.420999 0.261783 
0.375827 0.21942 0.559259 0.494597 0.465649 
0.683205 0.493981 0.228916 0.164077 0.747864 
0.838712 0.200103 0.759593 0.796934 0.8747 
0.139269 0.0163092 0.0152433 0.626726 0.40343 
0.261442 0.331857 0.296505 0.826027 0.879419 
0.155778 0.829299 0.550777 0.282122 0.220186 
0.664126 0.142596 0.748579 0.303827 0.513481 
0.0781265 0.70792 0.278413 0.0128333 0.690097 
0.662164 0.773641 0.105424 0.0101068 0.951357 
0.452103 0.0486475 0.706723 0.607402 0.782113 
0.200551 0.0779109 0.647751 0.775749 0.751916 
0.859144 0.597763 0.0452141 0.636737 0.810002 
0.347609 0.126859 0.303384 0.233981 0.258278 
0.145346 0.666547 0.706258 0.378212 0.50562 
0.794942 0.459312 0.113427 0.985332 0.220848 
0.264346 0.182618 0.568662 0.123344 0.945341 
0.209598 0.44982 0.0789614 0.860913 0.111899 
0.636107 0.0123966 0.881928 0.0972894 0.546645 
0.946011 0.889862 0.526612 0.900746 0.00847648 
0.268802 0.0277451 0.264672 0.799848 0.198491 
0.262351 0.269628 0.501941 0.0212571 0.346762 
0.96099 0.252865 0.131679 0.116532 0.031884 
0.701579 0.285197 0.59524 0.857759 0.412681 
0.21956 0.564379 0.094315 0.625466 0.155591 
0.429404 0.2698 0.500907 0.784442 0.722618 
0.657667 0.800578 0.413138 0.811217 0.607633 
0.925303 0.927403 0.211458 0.878512 0.518183 
0.870697 0.0142022 0.42229 0.634322 0.632633 
0.0564292 0.969585 0.0387978 0.086941 0.698071 
0.925747 0.321689 0.28087 0.520473 0.0954039 
0.886046 0.0773363 0.457861 0.0557495 0.141385 
0.2403 0.274672 0.290113 0.59329 0.563478 
0.437902 0.594928 0.0846295 0.833654 0.502917 
0.95253 0.35116 0.962147 0.404621 0.913644 
0.122201 0.339665 0.0570827 0.494077 0.0185919 
0.256205 0.674027 0.819373 0.34121 0.212439 
0.124612 0.875132 0.351611 0.0701734 0.643056 
0.631798 0.149425 0.926834 0.605585 0.917854 
0.338696 0.868377 0.00489648 0.940386 0.235866 
0.74692 0.90459 0.424142 0.532548 0.564991 
0.313063 0.92555 0.78268 0.903981 0.999553 
0.234553 0.753891 0.547232 0.151706 0.822003 
0.164684 0.844865 0.60399 0.752105 0.729325 
0.818544 0.13457 0.905682 0.345736 0.181457 
0.743391 0.959163 0.764182 0.174357 0.896518 
0.266204 0.430546 0.201025 0.41881 0.197182 
0.108887 0.0056598 0.978165 0.115375 0.290991 
0.565335 0.0426897 0.133458 0.0672477 0.36672 
0.89314 0.995601 0.167446 0.761219 0.863012 
0.803279 0.0356077 0.177136 0.427542 0.456914 
0.93797 0.733533 0.00816535 0.521165 0.137987 
0.575851 0.593082 0.0767544 0.0509141 0.888284 
0.725697 0.300744 0.474653 0.190035 0.725366 
0.0820306 0.995996 0.99329 0.114439 0.319076 
0.848869 0.706551 0.955808 0.0411393 0.66647 
0.828101 0.755103 0.0850877 0.426546 0.454962 
0.117778 0.614722 0.813608 0.981563 0.0959459 
0.266339 0.87507 0.714732 0.522125 0.246395 
0.0751448 0.594813 0.265216 0.479955 0.107604 
0.0741926 0.371874 0.991876 0.556251 0.643485 
0.781261 0.756343 0.175441 0.908596 0.534088 
0.613747 0.0313125 0.751454 0.607609 0.827859 
0.482902 0.54917 0.775455 0.996735 0.41486 
0.101454 0.195175 0.509458 0.635528 0.413827 
0.183447 0.265619 0.244108 0.536356 0.642909 
0.726049 0.92502 0.753659 0.122292 0.467318 
0.93469 0.602729 0.297745 0.219133 0.96067 
0.0297148 0.739957 0.688862 0.656561 0.994761 
0.610119 0.611084 0.475963 0.0481829 0.23128 
0.631822 0.766157 0.267361 0.98676 0.0189994 
0.358295 0.626984 0.986474 0.842738 0.819223 
0.116356 0.180429 0.817501 0.895956 0.293749 
0.248772 0.65739 0.423851 0.636636 0.521856 
0.339371 0.690452 0.768592 0.534069 0.608544 
0.300932 0.437086 0.664462 0.398112 0.212799 
0.111906 0.685914 0.0658242 0.784217 0.991692 
0.47812 0.234451 0.527355 0.683611 0.342296 
0.296088 0.928051 0.524493 0.707503 0.892169 
0.257654 0.732164 0.527974 0.0512543 0.960285 
0.763681 0.732915 0.601307 0.37094 0.0152149 
0.387231 0.567447 0.218163 0.371169 0.654072 
0.41732 0.47424 0.0157303 0.543449 0.641649 
0.740493 0.241447 0.154864 0.609601 0.197543 
0.622423 0.259144 0.324312 0.267172 0.778653 
0.103569 0.98255 0.893309 0.110407 0.573746 
0.442598 0.524271 0.992279 0.628138 0.114001 
0.357236 0.496473 0.633129 0.783943 0.43145 
0.987348 0.193025 0.629703 0.759044 0.553109 
0.42815 0.370511 0.721765 0.244692 0.323936 
0.98725 0.990428 0.759943 0.233204 0.588709 
0.630949 0.0521236 0.632051 0.110596 0.83714 
0.303314 0.562016 0.116434 0.545188 0.728305 
0.63273 0.846136 0.998263 0.387989 0.0720206 
0.643322 0.69597 0.418107 0.532082 0.881049 
0.64901 0.0651532 0.31961 0.999639 0.478854 
0.176975 0.481856 0.132712 0.839925 0.123805 
0.132007 0.851518 0.709418 0.041348 0.779035 
0.741934 0.235484 0.944448 0.454508 0.393057 
0.892565 0.094144 0.894817 0.848468 0.739454 
0.706896 0.372746 0.97992 0.483182 0.67507 
0.248034 0.415862 0.125209 0.300321 0.19811 
0.7384 0.910299 0.446236 0.990025 0.0259688 
0.0909574 0.376933 0.429443 0.61928 0.32601 
0.179872 0.735184 0.843415 0.67045 0.641773 
0.813689 0.59904 0.875419 0.591879 0.950759 
0.779747 0.884584 0.0804089 0.818419 0.161474 
0.568605 0.181218 0.432179 0.809078 0.927718 
0.108759 0.808497 0.719516 0.707591 0.594492 
0.158978 0.143619 0.5957 0.646417 0.0628186 
0.0761344 0.172192 0.0628455 0.914808 0.869686 
0.586966 0.917145 0.742535 0.117124 0.625677 
0.014905 0.833908 0.727269 0.619144 0.0329327 
0.872019 0.658213 0.555369 0.364325 0.894245 
0.8571 0.826503 0.534111 0.658783 0.309424 
0.4044 0.625763 0.144581 0.394926 0.0444484 
0.590235 0.390302 0.15486 0.564376 0.608766 
0.310624 0.395987 0.722455 0.00670666 0.159823 
0.379307 0.00400556 0.934281 0.793376 0.405779 
0.484229 0.663289 0.0328922 0.468023 0.788548 
0.36019 0.902745 0.654751 0.922913 0.0229924 
0.194001 0.439264 0.686767 0.903914 0.544641 
0.593415 0.826493 0.361627 0.17632 0.969423 
0.401909 0.0218716 0.169234 0.922853 0.984958 
0.986265 0.686092 0.998943 0.675938 0.622943 
0.250054 0.94644 0.200388 0.71301 0.633835 
0.363148 0.188884 0.458387 0.868263 0.152503 
0.0631024 0.835638 0.861074 0.863519 0.650325 
0.714376 0.906618 0.369587 0.251036 0.354253 
0.791183 0.520203 0.237355 0.385022 0.890767 
0.92657 0.490853 0.185057 0.579665 0.775038 
0.144511 0.105755 0.534776 0.402051 0.196299 
0.912644 0.701426 0.796808 0.111729 0.920269 
0.334684 0.0763585 0.301532 0.584314 0.563887 
0.285333 0.605333 0.796441 0.0987148 0.644525 
0.66356 0.673252 0.316501 0.113271 0.0507133 
0.607942 0.153573 0.234193 0.879454 0.289907 
0.0320943 0.38845 0.404604 0.230528 0.253449 
0.628145 0.560291 0.440256 0.652647 0.268692 
0.0941934 0.42789 0.897844 0.340366 0.0117357 
0.359341 0.894791 0.40268 0.351059 0.531659 
0.440763 0.448245 0.957253 0.362883 0.850884 
0.0299344 0.946037 0.937471 0.585387 0.719794 
0.834853 0.138262 0.649332 0.932066 0.867884 
0.761137 0.756416 0.242864 0.291787 0.197217 
0.660505 0.968826 0.840949 0.315393 0.829331 
0.700221 0.118119 0.978021 0.0972204 0.592944 
0.770688 0.294149 0.402238 0.0951838 0.121169 
0.799258 0.550722 0.561612 0.0595192 0.539556 
0.170603 0.647033 0.965428 0.0401693 0.88399 
0.514411 0.419813 0.801769 0.218757 0.393962 
0.19074 0.806133 0.217053 0.296227 0.493952 
0.109418 0.306283 0.284406 0.635184 0.240786 
0.818713 0.0638679 0.0881529 0.620586 0.97757 
0.136367 0.314617 0.514143 0.110479 0.720067 
0.572076 0.165768 0.475114 0.914761 0.0932197 
0.04947 0.222866 0.453501 0.751519 0.133504 
0.00463814 0.83126 0.636561 0.0645571 0.368232 
0.246194 0.512583 0.653512 0.927508 0.0760716 
0.693105 0.522363 0.869619 0.254324 0.787959 
0.317326 0.148774 0.698356 0.308621 0.891399 
0.166055 0.0263107 0.659433 0.592939 0.232168 
0.596744 0.494961 0.182431 0.261734 0.20152 
0.0244227 0.0247323 0.967808 0.42068 0.196644 
0.634347 0.504801 0.25953 0.943502 0.643797 
0.604953 0.82485 0.496917 0.921568 0.76514 
0.918083 0.0479289 0.998655 0.175647 0.378387 
0.565951 0.948884 0.855353 0.306893 0.127461 
0.63991 0.24083 0.773196 0.929718 0.801485 
0.610137 0.484602 0.00227582 0.581239 0.349142 
0.801344 0.267477 0.156345 0.946016 0.0720938 
0.893041 0.568673 0.794647 0.0105289 0.322518 
0.590967 0.687344 0.758885 0.739152 0.965789 
0.442542 0.325044 0.210524 0.725255 0.177886 
0.481659 0.695922 0.387147 0.5419 0.666997 
0.388258 0.612965 0.440217 0.687715 0.387604 
0.775977 0.991574 0.112159 0.663081 0.551465 
0.595965 0.0570876 0.665985 0.339421 0.367665 
0.529645 0.549891 0.554818 0.721488 0.0561999 
0.427135 0.889508 0.265032 0.264262 0.374904 
0.30662 0.95538 0.276205 0.815605 0.566525 
0.290395 0.426445 0.723966 0.277648 0.406506 
0.350985 0.951936 0.349566 0.550472 0.149143 
0.676191 0.0496702 0.95734 0.0828428 0.0834609 
0.950169 0.421924 0.623868 0.722306 0.052935 
0.661642 0.42165 0.604244 0.891062 0.304293 
0.910182 0.0657661 0.510569 0.491505 0.587559 
0.191783 0.798184 0.259491 0.830543 0.497458 
0.804775 0.236252 0.305563 0.715485 0.328171 
0.152525 0.355294 0.11807 0.775323 0.488398 
0.175365 0.111964 0.300858 0.467401 0.00813305 
0.62542 0.665451 0.442731 0.400371 0.33319 
0.998537 0.403252 0.721681 0.580057 0.757565 
0.372187 0.860185 0.321097 0.523932 0.865841 
0.539126 0.719749 0.94733 0.906351 0.16256 
0.89972 0.160664 0.121774 0.791288 0.964888 
0.48855 0.949965 0.253772 0.237165 0.196399 
0.825918 0.215655 0.462881 0.169386 0.448894 
0.206615 0.680919 0.991893 0.708355 0.227332 
0.0246396 0.255643 0.432023 0.761801 0.675567 
0.753512 0.460904 0.520057 0.353141 0.302007 
0.972281 0.773744 0.946466 0.868904 0.0497343 
0.734356 0.314889 0.493978 0.744391 0.384975 
0.88978 0.178639 0.0161943 0.755856 0.379802 
0.872443 0.670156 0.317648 0.62837 0.829396 
0.254687 0.312712 0.349199 0.994592 0.735259 
0.859329 0.995634 0.177209 0.404328 0.887509 
0.809917 0.318135 0.838537 0.899293 0.206857 
0.269406 0.229147 0.984439 0.114758 0.708622 
0.512906 0.361898 0.34153 0.518405 0.426526 
0.647372 0.370861 0.900077 0.274288 0.201783 
0.0985613 0.0253469 0.264935 0.103618 0.373947 
0.0391972 0.451099 0.949156 0.0120712 0.148411 
0.655116 0.159083 0.217139 0.590353 0.838715 
0.972655 0.826189 0.903408 0.824454 0.357396 
0.0331315 0.858179 0.496275 0.00701628 0.610386 
0.0678059 0.831047 0.792625 0.344283 0.465708 
0.335379 0.478101 0.857991 0.710228 0.764725 
0.100688 0.205201 0.0418868 0.490664 0.196178 
0.183928 0.627727 0.806422 0.105094 0.433333 
0.308493 0.484213 0.267863 0.816568 0.566521 
0.555699 0.876292 0.0660692 0.270972 0.713955 
0.844882 0.715686 0.986783 0.79555 0.41036 
0.137135 0.602215 0.173332 0.50109 0.330553 
0.700486 0.833008 0.673355 0.340445 0.990758 
0.649376 0.242364 0.892384 0.495472 0.240611 
0.843533 0.330795 0.372113 0.937741 0.81434 
0.361161 0.695566 0.911129 0.127412 0.870688 
0.151542 0.102352 0.392757 0.935132 0.333521 
0.301432 0.773143 0.221113 0.356149 0.420273 
0.151 0.256256 0.312288 0.642193 0.207117 
0.533434 0.79805 0.989234 0.892867 0.121048 
0.195249 0.661597 0.610324 0.000664036 0.0336114 
0.16345 0.44032 0.72817 0.0288068 0.611953 
0.853889 0.451118 0.980841 0.658989 0.489314 
0.434606 0.089456 0.386593 0.29745 0.867027 
0.917698 0.334262 0.980775 0.651564 0.861359 
0.384826 0.48675 0.953083 0.937817 0.700687 
0.990872 0.346549 0.0599015 0.799732 0.561206 
0.56998 0.505383 0.747225 0.63348 0.953525 
0.489228 0.317215 0.385095 0.0596694 0.476428 
0.234917 0.182529 0.28043 0.867199 0.452331 
0.688751 0.60818 0.254832 0.0486827 0.241813 
0.274868 0.222024 0.358501 0.197073 0.174683 
0.81285 0.738473 0.706218 0.38408 0.089745 
0.752816 0.892383 0.945427 0.123888 0.450587 
0.93999 0.591066 0.07114 0.717693 0.479331 
0.972607 0.3552 0.767055 0.18856 0.437516 
0.314929 0.020877 0.819328 0.93411 0.290136 
0.325758 0.667265 0.729857 0.469822 0.509364 
0.930604 0.320424 0.495051 0.192093 0.189612 
0.194589 0.627448 0.0936421 0.55285 0.251465 
0.215886 0.0146295 0.872181 0.143652 0.688395 
0.414284 0.843812 0.859927 0.257276 0.369279 
0.0636 0.430403 0.0188026 0.134474 0.78518 
0.906563 0.856251 0.0234215 0.154255 0.0506319 
0.242419 0.581345 0.563435 0.92426 0.622495 
0.808753 0.35251 0.94547 0.811099 0.232076 
0.967204 0.305816 0.360045 0.608837 0.106456 
0.158179 0.162608 0.693163 0.159254 0.64735 
0.952872 0.826855 0.203352 0.598511 0.0923147 
0.311673 0.348008 0.0886953 0.139502 0.226892 
0.950298 0.719717 0.566377 0.284039 0.731039 
0.868458 0.739348 0.275815 0.687732 0.0633364 
0.982133 0.130358 0.794824 0.859121 0.925448 
0.494456 0.978107 0.181428 0.362306 0.76817 
0.686649 0.585108 0.0605486 0.799871 0.455828 
0.312518 0.294325 0.518135 0.22187 0.379859 
0.426624 0.645083 0.0911316 0.816752 0.845016 
0.216722 0.988389 0.608391 0.897019 0.592458 
0.228785 0.598717 0.086803 0.117998 0.882783 
0.256684 0.766796 0.451445 0.560528 0.845431 
0.611883 0.668024 0.10787 0.137066 0.836143 
0.299381 0.445746 0.517744 0.394356 0.995764 
0.0890375 0.161454 0.483882 0.866153 0.775771 
0.894808 0.67206 0.0312626 0.0171041 0.807541 
0.461895 0.651993 0.0630655 0.591591 0.562996 
0.961235 0.599717 0.090992 0.678492 0.416373 
0.502066 0.141265 0.0512976 0.773625 0.536635 
0.300824 0.521407 0.0700841 0.0106411 0.25025 
0.286841 0.528334 0.153707 0.144207 0.00781619 
0.260957 0.64217 0.755075 0.796477 0.221065 
0.147714 0.55091 0.619908 0.845218 0.958448 
0.888716 0.297101 0.681719 0.439365 0.504618 
0.869884 0.134153 0.537843 0.154464 0.325906 
0.791574 0.719887 0.965581 0.346074 0.180375 
0.218327 0.27261 0.715445 0.701231 0.296008 
0.885748 0.324462 0.139779 0.328234 0.544176 
0.498093 0.247926 0.984711 0.5313 0.463242 
0.824495 0.0175071 0.48904 0.17293 0.0108162 
0.43336 0.256499 0.670586 0.561873 0.969007 
0.921074 0.665993 0.96515 0.646854 0.220977 
0.282379 0.785567 0.124136 0.0717985 0.0994962 
0.562294 0.893444 0.908707 0.052975 0.622491 
0.877252 0.284816 0.973067 0.178158 0.0124293 
0.774151 0.87065 0.957083 0.42775 0.954738 
0.759473 0.500166 0.559628 0.856401 0.133389 
0.0691021 0.099287 0.926381 0.086462 0.211822 
0.896482 0.761721 0.85395 0.137896 0.795758 
0.941989 0.475623 0.257271 0.143648 0.125431 
0.593628 0.0404809 0.687071 0.337523 0.408506 
0.00868126 0.70304 0.143059 0.392569 0.797364 
0.939392 0.608732 0.0849131 0.736733 0.881488 
0.254692 0.136849 0.979502 0.787432 0.321821 
0.567889 0.826915 0.101968 0.335881 0.300653 
0.272844 0.269784 0.897633 0.254002 0.0977761 
0.449495 0.0673916 0.123416 0.552616 0.78492 
0.807679 0.8341 0.254802 0.944615 0.766476 
0.206052 0.0368076 0.849104 0.367063 0.887243 
0.546293 0.0414508 0.261707 0.0355325 0.503368 
0.866798 0.0327137 0.683019 0.0384324 0.903853 
0.188235 0.935647 0.268437 0.0239246 0.638932 
0.085226 0.544503 0.00614863 0.823731 0.29015 
0.711258 0.955244 0.234348 0.215609 0.414223 
0.647935 0.818539 0.816441 0.580306 0.366156 
0.449351 0.416135 0.1609 0.624863 0.553016 
0.847702 0.978897 0.231173 0.993382 0.164319 
0.149661 0.521886 0.661292 0.723752 0.292739 
0.110444 0.909949 0.263943 0.0592151 0.417117 
0.399015 0.542947 0.0882727 0.675501 0.519997 
0.764668 0.0637506 0.398533 0.646555 0.0561316 
0.16981 0.88316 0.253167 0.8065 0.404104 
0.684537 0.318323 0.251168 0.657173 0.583748 
0.068199 0.104219 0.315835 0.113701 0.585241 
0.955438 0.988906 0.75736 0.334245 0.660036 
0.205903 0.54756 0.526344 0.379292 0.621234 
0.345332 0.0570865 0.643226 0.830909 0.115979 
0.592472 0.791582 0.215422 0.0874157 0.822038 
0.232533 0.246717 0.704088 0.417011 0.281508 
0.855623 0.158709 0.339982 0.910273 0.498819 
0.150402 0.218535 0.899169 0.405078 0.327333 
0.469913 0.219681 0.173461 0.509939 0.209512 
0.38336 0.126529 0.111952 0.104977 0.37917 
0.324496 0.619291 0.197455 0.741608 0.816434 
0.347261 0.485037 0.786464 0.410501 0.597617 
0.710573 0.770248 0.569666 0.754094 0.993845 
0.138304 0.0956078 0.43214 0.059015 0.793825 
0.712641 0.0995401 0.728288 0.53957 0.758438 
0.187762 0.348565 0.124869 0.612303 0.0770474 
0.419348 0.737684 0.321239 0.761113 0.407973 
0.00132999 0.213489 0.215909 0.35461 0.410053 
0.373708 0.773183 0.760246 0.760396 0.980789 
0.864159 0.539576 0.355003 0.135161 0.310413 
0.960533 0.192134 0.635955 0.783315 0.0446357 
0.694973 0.289359 0.062956 0.425453 0.929674 
0.760282 0.153214 0.523852 0.272208 0.294789 
0.96841 0.202326 0.237741 0.0290763 0.731761 
0.679999 0.0643904 0.083123 0.716119 0.592125 
0.270304 0.105302 0.49224 0.851592 0.241367 
0.92011 0.380936 0.8222 0.881856 0.906838 
0.145596 0.640907 0.10246 0.159853 0.606401 
0.90534 0.391356 0.760048 0.970015 0.484487 
0.0469888 0.838797 0.933763 0.0204158 0.932644 
0.222138 0.61127 0.696114 0.898352 0.499858 
0.736912 0.378982 0.607571 0.643433 0.863487 
0.913491 0.147988 0.00344416 0.185485 0.710117 
0.493693 0.981026 0.627386 0.00647515 0.134515 
0.749745 0.118263 0.239844 0.116467 0.08857 
0.757768 0.851267 0.97436 0.745042 0.898796 
0.547643 0.828782 0.143152 0.153639 0.187592 
0.45697 0.437707 0.773077 0.54529 0.665297 
0.075663 0.346725 0.536341 0.890916 0.78696 
0.619505 0.959435 0.260878 0.879944 0.0986802 
0.18567 0.0869739 0.524402 0.724921 0.997217 
0.246536 0.132424 0.835436 0.812058 0.533903 
0.413562 0.401686 0.623567 0.229283 0.596792 
0.157168 0.372437 0.820082 0.163881 0.247497 
0.16586 0.970321 0.816388 0.209808 0.145464 
0.62193 0.785916 0.780438 0.0657615 0.820519 
0.336902 0.0487937 0.493246 0.69899 0.666212 
0.483741 0.209006 0.108332 0.311297 0.941231 
0.923439 0.476046 0.809538 0.0475253 0.0860499 
0.0616144 0.98931 0.865885 0.577549 0.184448 
0.572756 0.181004 0.197088 0.773228 0.262731 
0.458664 0.398726 0.103132 0.370887 0.795356 
0.936975 0.37741 0.681698 0.0964747 0.243169 
0.0905819 0.647657 0.612992 0.935611 0.793091 
0.0886102 0.244279 0.384671 0.646467 0.203953 
0.796728 0.359423 0.426288 0.338744 0.811699 
0.829237 0.1774 0.0246884 0.685998 0.408653 
0.165403 0.310159 0.766755 0.762978 0.736413 
0.652573 0.164508 0.888278 0.351407 0.528135 
0.814884 0.266325 0.531749 0.501392 0.644049 
0.267899 0.397951 0.887553 0.386575 0.259053 
0.840608 0.617965 0.752281 0.884713 0.72417 
0.99301 0.573784 0.92586 0.70853 0.522486 
0.533331 0.903126 0.910977 0.116894 0.894695 
0.934892 0.144705 0.211692 0.529239 0.957525 
0.784857 0.189857 0.221438 0.916585 0.161683 
0.425508 0.0251527 0.0363046 0.379376 0.276969 
0.379543 0.020715 0.980324 0.984847 0.473167 
0.123988 0.375649 0.879874 0.0128292 0.352526 
0.229035 0.41813 0.362355 0.69457 0.141537 
0.171993 0.0700928 0.925437 0.452143 0.147048 
0.217272 0.907495 0.863866 0.0199162 0.90113 
0.252953 0.914063 0.992796 0.269872 0.0738253 
0.245415 0.221009 0.163039 0.0541184 0.371854 
0.495874 0.198936 0.354708 0.0155553 0.932461 
0.273805 0.78592 0.942714 0.840366 0.379115 
0.235743 0.787919 0.697246 0.764057 0.0485866 
0.224325 0.155089 0.835998 0.609094 0.561528 
0.109236 0.703286 0.752882 0.114144 0.0790568 
0.98524 0.905237 0.266784 0.304703 0.00309863 
0.858197 0.0263867 0.916537 0.807654 0.544058 
0.728508 0.498111 0.739534 0.290805 0.977845 
0.971142 0.298835 0.367384 0.209011 0.367728 
0.235637 0.686947 0.375562 0.685958 0.984504 
0.166686 0.196884 0.129868 0.196935 0.801592 
0.837737 0.899955 0.573235 0.511366 0.340885 
0.496877 0.945525 0.728301 0.866071 0.956586 
0.096438 0.182213 0.539071 0.870947 0.218018 
0.825996 0.217868 0.948304 0.214208 0.406017 
0.58343 0.214004 0.49439 0.542756 0.538021 
0.793276 0.363993 0.658796 0.525032 0.112114 
0.259286 0.903173 0.228533 0.466156 0.700588 
0.0449117 0.870692 0.00241637 0.598785 0.592559 
0.300388 0.695478 0.360614 0.684061 0.863086 
0.37122 0.75062 0.490896 0.333354 0.125583 
0.255588 0.0870978 0.319035 0.491858 0.996144 
0.387342 0.473296 0.328687 0.0725179 0.907757 
0.993329 0.599757 0.747298 0.6604 0.869303 
0.973938 0.147271 0.738553 0.272611 0.92639 
0.95909 0.125478 0.383619 0.143249 0.883754 
0.571646 0.900009 0.799111 0.888238 0.553209 
0.130261 0.339055 0.672994 0.601112 0.449575 
0.485498 0.76674 0.684241 0.37887 0.0329168 
0.636902 0.784513 0.0168451 0.918513 0.0772504 
0.545194 0.0864696 0.730868 0.986631 0.468997 
0.0585386 0.00706276 0.238882 0.0881029 0.815252 
0.194602 0.886665 0.290123 0.511466 0.633171 
0.610712 0.35116 0.411438 0.0203077 0.627695 
0.717422 0.650962 0.532467 0.715096 0.284986 
0.653691 0.73149 0.0191058 0.382753 0.966698 
0.687039 0.821332 0.772594 0.951125 0.974425 
0.541669 0.291605 0.506638 0.230509 0.0175687 
0.122354 0.313138 0.194168 0.286229 0.184802 
0.656574 0.187817 0.132259 0.988041 0.962647 
0.715397 0.476825 0.969787 0.659568 0.676038 
0.987017 0.288376 0.822399 0.0778512 0.0938287 
0.266004 0.753043 0.199705 0.610026 0.160946 
0.0773563 0.0149097 0.50542 0.475321 0.882886 
0.364586 0.406826 0.944631 0.607147 0.955682 
0.0592153 0.0348509 0.378497 0.100429 0.718003 
0.133599 0.261324 0.746979 0.157957 0.707399 
0.183851 0.945598 0.444913 0.742555 0.697022 
0.764345 0.59383 0.851137 0.427141 0.560563 
0.728209 0.723647 0.91132 0.557186 0.812086 
0.105418 0.717025 0.663853 0.94426 0.936407 
0.258296 0.746881 0.60835 0.459803 0.698377 
0.672039 0.260069 0.656277 0.228351 0.816504 
0.0734802 0.920087 0.897568 0.58787 0.920159 
0.726107 0.495791 0.93059 0.615112 0.915316 
0.344765 0.687973 0.154159 0.346376 0.673337 
0.920051 0.103703 0.167986 0.670776 0.595643 
0.442112 0.963848 0.581445 0.690353 0.31441 
0.419157 0.234549 0.13874 0.243164 0.650601 
0.340227 0.299908 0.467409 0.815284 0.59689 
0.130347 0.722899 0.267103 0.612268 0.452671 
0.927269 0.385574 0.873534 0.929257 0.0805999 
0.165303 0.0730449 0.623969 0.437625 0.726623 
0.0312118 0.7138 0.649252 0.617552 0.136482 
0.426265 0.686582 0.854013 0.937121 0.540006 
0.999624 0.471997 0.424036 0.146932 0.942739 
0.766584 0.560035 0.476916 0.970263 0.63657 
0.686061 0.866387 0.354682 0.814359 0.0411417 
0.325331 0.0139976 0.290358 0.0504347 0.164625 
0.922595 0.611916 0.107536 0.91712 0.49011 
0.105371 0.145037 0.641719 0.0265626 0.274036 
0.470758 0.664268 0.0406819 0.557213 0.599369 
0.19338 0.880834 0.149942 0.902539 0.113739 
0.0697719 0.96075 0.0105186 0.709464 0.966386 
0.469061 0.523292 0.784856 0.41712 0.277426 
0.937111 0.494633 0.341406 0.0151998 0.814972 
0.158282 0.148087 0.96877 0.511572 0.00410338 
0.279344 0.962536 0.385804 0.812554 0.644241 
0.208628 0.621903 0.355853 0.272057 0.0204639 
0.0140204 0.58206 0.259575 0.718298 0.228084 
0.381446 0.150124 0.240133 0.506362 0.70959 
0.747457 0.664857 0.987625 0.0745079 0.754284 
0.521751 0.00534577 0.845273 0.431408 0.363131 
0.0115243 0.313974 0.428269 0.246227 0.0788331 
0.340035 0.0809631 0.471874 0.0239415 0.971881 
0.145864 0.584774 0.151483 0.295307 0.495186 
0.933144 0.150686 0.989677 0.276407 0.0571225 
0.527718 0.463498 0.31654 0.965146 0.969213 
0.33201 0.0699405 0.463813 0.761647 0.109702 
0.851141 0.986385 0.161004 0.0461352 0.458039 
0.34487 0.578863 0.651253 0.955281 0.125008 
0.545832 0.919656 0.121913 0.0573643 0.349174 
0.451932 0.715817 0.51029 0.150895 0.672574 
0.917767 0.950258 0.0288105 0.114167 0.0857198 
0.433055 0.578798 0.149996 0.136233 0.868472 
0.201061 0.97798 0.497756 0.0763769 0.506877 
0.615919 0.216329 0.756686 0.740612 0.925216 
0.111636 0.303874 0.319945 0.893186 0.809816 
0.805011 0.396226 0.434624 0.74489 0.296985 
0.286769 0.940262 0.684737 0.675894 0.187234 
0.447012 0.956218 0.415958 0.249576 0.520662 
0.966865 0.277995 0.945156 0.909058 0.255982 
0.217322 0.723953 0.624889 0.639363 0.0443235 
0.568092 0.619784 0.0549751 0.233402 0.82859 
0.711122 0.0910664 0.327048 0.33154 0.632271 
0.629929 0.285432 0.177241 0.750811 0.493494 
0.35034 0.853393 0.876764 0.246716 0.236924 
0.192365 0.870224 0.150828 0.209148 0.132815 
0.761448 0.967205 0.0894551 0.930979 0.965017 
0.620741 0.802283 0.0795914 0.515995 0.761588 
0.40213 0.37862 0.68603 0.292764 0.0395146 
0.840401 0.600375 0.952412 0.696356 0.917246 
0.106041 0.373369 0.171648 0.32393 0.282392 
0.308463 0.757368 0.678137 0.0686697 0.687071 
0.904813 0.179382 0.67666 0.767296 0.777866 
0.0933329 0.63533 0.0160687 0.768647 0.122618 
0.426003 0.590299 0.848941 0.156984 0.432273 
0.105972 0.434221 0.760005 0.691566 0.6088 
0.597348 0.732913 0.980288 0.26118 0.115165 
0.321524 0.426252 0.903555 0.709643 0.903442 
0.912606 0.149244 0.458234 0.521704 0.268661 
0.335226 0.679842 0.342321 0.20844 0.247488 
0.593142 0.539814 0.231168 0.660053 0.495324 
0.959736 0.128167 0.318004 0.445196 0.884072 
0.168025 0.45446 0.710205 0.272337 0.494466 
0.369995 0.291144 0.0581971 0.666977 0.963406 
0.0251567 0.475088 0.0647515 0.618312 0.909118 
0.937618 0.493407 0.280154 0.9644 0.484239 
0.292324 0.695908 0.617366 0.352329 0.46551 
0.527824 0.935379 0.820514 0.138857 0.494458 
0.21965 0.95748 0.889907 0.472259 0.502025 
0.315268 0.414171 0.723668 0.254601 0.359459 
0.891497 0.201703 0.366516 0.292133 0.681109 
0.607943 0.489919 0.932658 0.958982 0.615558 
0.924599 0.610908 0.577778 0.372838 0.00370969 
0.0545695 0.363351 0.748654 0.658719 0.184356 
0.994896 0.941149 0.163916 0.0526385 0.162312 
0.139253 0.401845 0.493415 0.686063 0.684171 
0.992455 0.5954 0.570558 0.25354 0.460411 
0.0696529 0.879133 0.111565 0.486214 0.582027 
0.525197 0.334153 0.684185 0.2972 0.0653512 
0.238785 0.188021 0.00186302 0.253628 0.329205 
0.716131 0.303918 0.811081 0.378302 0.363069 
0.543344 0.723948 0.0946302 0.189621 0.420404 
0.244479 0.613569 0.613861 0.16958 0.943181 
0.196457 0.330019 0.203528 0.262346 0.783604 
0.277667 0.233642 0.345879 0.497583 0.943944 
0.340512 0.712597 0.819717 0.771266 0.251147 
0.629272 0.876882 0.778043 0.513717 0.334464 
0.785083 0.106658 0.612388 0.419796 0.893654 
0.356421 0.558551 0.12315 0.573803 0.328936 
0.212832 0.826607 0.62164 0.140606 0.0721359 
0.746061 0.93705 0.496981 0.227442 0.824143 
0.932134 0.383253 0.456637 0.940088 0.885349 
0.721113 0.734984 0.526332 0.435123 0.672619 
0.0112451 0.383888 0.8046 0.483234 0.54862 
0.954367 0.47991 0.158478 0.964728 0.259287 
0.0424748 0.221016 0.914399 0.411902 0.280841 
0.867861 0.882138 0.824035 0.782777 0.823059 
0.199184 0.499463 0.35101 0.884508 0.90214 
0.602808 0.640518 0.0921026 0.361473 0.0991922 
0.443001 0.235599 0.50597 0.32609 0.956114 
0.602412 0.802677 0.442255 0.817685 0.407545 
0.658252 0.992596 0.602787 0.387735 0.785394 
0.516787 0.814772 0.959395 0.69858 0.819293 
0.573186 0.00177556 0.508841 0.652912 0.708622 
0.113126 0.366962 0.771372 0.487526 0.413441 
0.728932 0.233882 0.791474 0.335977 0.811648 
0.675673 0.908456 0.575826 0.278365 0.595279 
0.577877 0.695686 0.227537 0.972712 0.240925 
0.095096 0.620022 0.0664033 0.676657 0.704905 
0.678843 0.84868 0.34468 0.192367 0.744932 
0.0172109 0.98928 0.663615 0.529676 0.167517 
0.801158 0.341259 0.93401 0.592146 0.56419 
0.258593 0.357236 0.982655 0.03701 0.889478 
0.350701 0.21319 0.662812 0.0901247 0.344104 
0.722384 0.817152 0.482893 0.907065 0.776198 
0.629826 0.585116 0.56172 0.118025 0.242395 
0.386271 0.719975 0.878132 0.793784 0.894221 
0.126184 0.714996 0.0100983 0.433678 0.191334 
0.63405 0.294515 0.752911 0.142774 0.85861 
0.35731 0.625426 0.164352 0.80531 0.876399 
0.146105 0.963081 0.719653 0.751019 0.94032 
0.513303 0.888712 0.764434 0.554861 0.173489 
0.441847 0.259632 0.758626 0.916506 0.30844 
0.298613 0.0124799 0.727857 0.212879 0.233238 
0.450892 0.753037 0.362928 0.144026 0.483522 
0.699224 0.244362 0.427618 0.108949 0.637333 
0.130431 0.241058 0.776818 0.559266 0.897258 
0.955579 0.376322 0.836536 0.250272 0.265306 
0.241591 0.785547 0.62546 0.232461 0.733064 
0.674467 0.851184 0.5127 0.611256 0.218047 
0.59222 0.555041 0.976398 0.483166 0.623623 
0.164774 0.911996 0.559922 0.794285 0.0884153 
0.453696 0.584604 0.63176 0.706469 0.866003 
0.990839 0.682581 0.585088 0.663304 0.122041 
0.409508 0.00717447 0.697187 0.313202 0.414896 
0.495603 0.437569 0.274634 0.176459 0.386119 
0.564496 0.358879 0.613572 0.788494 0.153517 
0.570999 0.226669 0.499467 0.767213 0.888335 
0.742757 0.242624 0.980346 0.420463 0.827474 
0.62312 0.1874 0.167606 0.870894 0.624172 
0.55905 0.991042 0.224275 0.935242 0.985249 
0.472984 0.0626461 0.372203 0.356057 0.125736 
0.494671 0.395508 0.476972 0.973349 0.319325 
0.0871683 0.0959243 0.609925 0.570963 0.323407 
0.846625 0.32555 0.725514 0.294233 0.754537 
0.239985 0.0657283 0.643134 0.3485 0.110979 
0.0865424 0.991806 0.973768 0.670875 0.348046 
0.531804 0.335391 0.634204 0.37659 0.569302 
0.817032 0.13426 0.303469 0.104278 0.656401 
0.203415 0.816014 0.506063 0.0031597 0.881956 
0.121233 0.213309 0.300994 0.777567 0.835648 
0.550463 0.796584 0.0837035 0.325407 0.655234 
0.288281 0.228594 0.780753 0.957873 0.494043 
0.961119 0.793364 0.752823 0.871033 0.0202212 
0.574315 0.601168 0.211297 0.432527 0.426339 
0.0445517 0.545991 0.0810207 0.216045 0.953302 
0.197098 0.084288 0.242511 0.587476 0.904897 
0.625495 0.871301 0.618723 0.493357 0.185539 
0.938956 0.751943 0.489448 0.520314 0.283134 
0.629678 0.871586 0.748463 0.477252 0.520177 
0.249918 0.4415 0.0615334 0.593288 0.233842 
0.324611 0.52981 0.437399 0.905468 0.36876 
0.133246 0.322042 0.905253 0.688767 0.510972 
0.587532 0.311484 0.928883 0.797835 0.489789 
0.449985 0.396216 0.557004 0.816944 0.209263 
0.603533 0.662594 0.755986 0.0520557 0.972986 
0.83025 0.708207 0.355288 0.866226 0.524677 
0.0838223 0.697229 0.0195598 0.011923 0.031375 
0.617457 0.116153 0.739895 0.972786 0.624888 
0.766807 0.768045 0.920422 0.669955 0.755681 
0.342858 0.222434 0.726124 0.232434 0.229056 
0.139419 0.665572 0.506127 0.228307 0.492907 
0.893414 0.356016 0.334036 0.750698 0.109052 
0.71398 0.269598 0.567534 0.138832 0.981975 
0.70377 0.505098 0.311793 0.527231 0.217291 
0.0715955 0.370159 0.445774 0.0546113 0.360641 
0.282887 0.497086 0.585555 0.965293 0.218156 
0.0292482 0.835542 0.137862 0.984686 0.607874 
0.886055 0.0955013 0.12063 0.557699 0.682055 
0.564279 0.240456 0.418565 0.42648 0.743447 
0.369119 0.599126 0.963542 0.360774 0.304352 
0.478396 0.482629 0.676549 0.810048 0.409414 
0.318811 0.286357 0.109127 0.668853 0.939907 
0.536818 0.4222 0.33082 0.879953 0.550799 
0.0425784 0.663015 0.387306 0.026603 0.727211 
0.940412 0.502467 0.803324 0.933642 0.147014 
0.24138 0.393405 0.0485115 0.649793 0.430942 
0.341901 0.0145202 0.786059 0.836631 0.0315831 
0.649402 0.658621 0.349862 0.713232 0.00903183 
0.654786 0.20766 0.553453 0.906544 0.261712 
0.382432 0.0228049 0.151931 0.10168 0.00975453 
0.915478 0.473832 0.216286 0.480199 0.569382 
0.483171 0.790575 0.616031 0.829135 0.69886 
0.0295754 0.168271 0.00362552 0.0381548 0.642937 
0.561077 0.596703 0.317767 0.649664 0.31386 
0.380061 0.663379 0.0370211 0.0824225 0.716043 
0.0126555 0.144485 0.523239 0.0122843 0.195042 
0.107211 0.470846 0.0878412 0.250796 0.231556 
0.40668 0.594335 0.179205 0.158314 0.866657 
0.059323 0.357788 0.621614 0.645518 0.700774 
0.463262 0.779332 0.356323 0.657711 0.161145 
0.419837 0.169857 0.0521417 0.434811 0.979124 
0.128458 0.86449 0.295673 0.385169 0.0306738 
0.84949 0.277974 0.770916 0.034027 0.578683 
0.941841 0.395555 0.24291 0.261781 0.199921 
0.269986 0.214691 0.50362 0.582133 0.849516 
0.941044 0.328964 0.528926 0.347692 0.491684 
0.611182 0.957708 0.903881 0.274521 0.220849 
0.555109 0.76077 0.777527 0.000696953 0.269605 
0.753938 0.714882 0.0874387 0.154309 0.497697 
0.536873 0.455435 0.146894 0.404127 0.175022 
0.479808 0.501984 0.93114 0.277533 0.499838 
0.508658 0.806057 0.0923349 0.328453 0.532534 
0.926208 0.150765 0.650054 0.258673 0.617428 
0.759099 0.0126254 0.999346 0.213005 0.984209 
0.258882 0.494539 0.938071 0.494318 0.538539 
0.28698 0.0477263 0.13967 0.634954 0.814612 
0.995569 0.518784 0.508895 0.181308 0.993256 
0.988156 0.29033 0.235298 0.736824 0.480214 
0.546922 0.463868 0.314086 0.859313 0.666537 
0.12337 0.691277 0.846374 0.0925885 0.287393 
0.0467138 0.306995 0.353755 0.554981 0.716164 
0.888551 0.655029 0.587526 0.801253 0.212673 
0.541304 0.749983 0.485412 0.345729 0.723465 
0.832852 0.22246 0.110261 0.978264 0.00667196 
0.250549 0.456578 0.12916 0.552979 0.459339 
0.621442 0.723449 0.361771 0.864897 0.511378 
0.554851 0.0496229 0.293091 0.193832 0.473182 
0.283043 0.316039 0.623985 0.987653 0.677874 
0.21457 0.708516 0.810975 0.78027 0.596428 
0.0177221 0.211846 0.535744 0.522741 0.992174 
0.719863 0.703769 0.487393 0.484445 0.951335 
0.203194 0.843132 0.0395906 0.1163 0.883004 
0.063995 0.435243 0.142269 0.379677 0.0965807 
0.819284 0.712169 0.0149784 0.0395475 0.289932 
0.763065 0.911165 0.497773 0.734936 0.917448 
0.763379 0.520006 0.502116 0.560652 0.166594 
0.397546 0.736699 0.0921537 0.180804 0.490275 
0.821186 0.955115 0.298024 0.0441667 0.424598 
0.730329 0.99984 0.445774 0.105292 0.694108 
0.0328793 0.216643 0.339821 0.88813 0.242358 
0.764734 0.529873 0.127129 0.0408187 0.623999 
0.12897 0.836248 0.19527 0.570849 0.193334 
0.45051 0.978861 0.605926 0.202404 0.896626 
0.974406 0.755044 0.665921 0.660281 0.689663 
0.0439654 0.35137 0.0708872 0.756862 0.105693 
0.857209 0.589142 0.894983 0.635013 0.397548 
0.175474 0.749282 0.0817666 0.139533 0.113737 
0.707686 0.556574 0.95019 0.669586 0.131716 
0.639732 0.869293 0.178481 0.195629 0.0585249 
0.909208 0.938647 0.84181 0.486744 0.917605 
0.726831 0.481859 0.866701 0.168395 0.261492 
0.425934 0.764183 0.888901 0.799945 0.4731 
0.910304 0.533613 0.206878 0.0100187 0.610763 
0.251099 0.580669 0.541514 0.446026 0.560414 
0.377256 0.58997 0.508842 0.165491 0.0349264 
0.619378 0.187872 0.452849 0.779671 0.260909 
0.575077 0.605685 0.395341 0.440903 0.34587 
0.292976 0.202542 0.0729947 0.929471 0.123014 
0.536922 0.233617 0.0530437 0.841502 0.801377 
0.0708074 0.162128 0.176391 0.899095 0.724945 
0.412275 0.195869 0.973817 0.930089 0.0952799 
0.269854 0.421221 0.830512 0.179397 0.281921 
0.0845493 0.798119 0.620396 0.910436 0.970808 
0.510492 0.391978 0.211847 0.959652 0.0962494 
0.463822 0.225462 0.473343 0.336474 0.805268 
0.984423 0.152488 0.367785 0.0328797 0.0501739 
0.0358814 0.353317 0.47232 0.592336 0.976427 
0.5139 0.435085 0.469028 0.986122 0.18423 
0.296652 0.180447 0.778317 0.53572 0.614624 
0.654051 0.164678 0.627095 0.696988 0.0360344 
0.471364 0.505403 0.612072 0.228333 0.196779 
0.734665 0.994208 0.100268 0.648093 0.428995 
0.776254 0.0159015 0.313938 0.63612 0.582274 
0.901468 0.733523 0.985887 0.0788113 0.0853535 
0.595935 0.858021 0.544414 0.0347944 0.193223 
0.139006 0.0792332 0.163045 0.898568 0.800192 
0.0546878 0.69855 0.0292197 0.644735 0.221809 
0.637041 0.935847 0.937997 0.158857 0.836591 
0.430487 0.722686 0.7677 0.36331 0.848356 
0.0345991 0.716567 0.0294912 0.197473 0.745167 
0.178569 0.917244 0.867714 0.652554 0.661867 
0.952045 0.603945 0.919614 0.170566 0.170471 
0.31185 0.498146 0.38807 0.277674 0.497309 
0.484346 0.465792 0.667344 0.0542539 0.917361 
0.401509 0.371098 0.0239462 0.289174 0.135158 
0.00797483 0.627083 0.0517035 0.689802 0.741203 
0.83877 0.940264 0.561445 0.571714 0.582825 
0.34023 0.414264 0.550752 0.49284 0.103658 
0.736023 0.873338 0.684622 0.903531 0.554408 
0.214134 0.698352 0.629994 0.0495707 0.0329196 
0.757534 0.359121 0.753434 0.661731 0.464946 
0.744348 0.646725 0.7481 0.0146582 0.580122 
0.0340997 0.621695 0.711435 0.620602 0.152778 
0.707115 0.941975 0.538433 0.537626 0.702584 
0.123513 0.294042 0.607794 0.251304 0.57662 
0.0308411 0.00735157 0.124659 0.70733 0.623648 
0.858311 0.193325 0.668073 0.422863 0.580169 
0.47711 0.935731 0.617494 0.147322 0.407783 
0.151717 0.824803 0.721806 0.193547 0.529126 
0.377831 0.829641 0.239013 0.826684 0.97853 
0.56402 0.223739 0.0331526 0.670932 0.534569 
0.54824 0.762074 0.944731 0.0191307 0.81217 
0.455047 0.216711 0.254042 0.507149 0.565298 
0.589284 0.989762 0.267528 0.0456527 0.840038 
0.376349 0.352617 0.237707 0.764746 0.231789 
0.648202 0.442514 0.515371 0.152033 0.622721 
0.602794 0.647474 0.850899 0.582067 0.158998 
0.377892 0.139806 0.190004 0.110782 0.270492 
0.211676 0.390925 0.131128 0.372383 0.246654 
0.0791668 0.996013 0.412108 0.170078 0.229488 
0.867491 0.28745 0.983321 0.966407 0.431166 
0.675026 0.637829 0.28023 0.859868 0.0309517 
0.233704 0.104712 0.11608 0.22003 0.610429 
0.186311 0.685334 0.790797 0.983468 0.17595 
0.283489 0.673674 0.525133 0.413005 0.186743 
0.596733 0.0262112 0.591796 0.809667 0.0255983 
0.178006 0.861789 0.790634 0.234903 0.59949 
0.286533 0.462944 0.866458 0.236453 0.633757 
0.346911 0.616846 0.737787 0.0385195 0.873503 
0.804192 0.754859 0.595648 0.65781 0.522764 
0.792111 0.686714 0.13672 0.189125 0.557273 
0.126011 0.608183 0.79771 0.670851 0.858979 
0.0121405 0.165977 0.111038 0.252474 0.0511353 
0.925314 0.14727 0.0286016 0.45184 0.387895 
0.218874 0.178035 0.228688 0.0418791 0.703471 
0.880022 0.918223 0.44724 0.984055 0.463744 
0.165816 0.237544 0.276637 0.419892 0.325069 
0.125852 0.736438 0.316635 0.784069 0.0468641 
0.0919253 0.55825 0.869189 0.825141 0.244312 
0.0808455 0.762796 0.0220021 0.247526 0.568565 
0.838662 0.324206 0.427856 0.88105 0.618311 
0.498868 0.063546 0.354314 0.218647 0.911468 
0.992278 0.593737 0.586831 0.273315 0.51311 
0.971724 0.750063 0.567056 0.670894 0.124982 
0.90781 0.970639 0.463869 0.316867 0.922128 
0.159811 0.455031 0.48884 0.467592 0.904021 
0.997654 0.614595 0.0922043 0.656074 0.462058 
0.0677224 0.432478 0.541393 0.0982217 0.0530616 
0.631684 0.459979 0.928404 0.515858 0.0434967 
0.854466 0.901584 0.570894 0.235077 0.0321654 
0.249408 0.650564 0.0590612 0.776663 0.136683 
0.238842 0.364081 0.575476 0.542883 0.950948 
0.213501 0.391963 0.98188 0.764524 0.576524 
0.601169 0.0633251 0.364219 0.155922 0.571356 
0.295367 0.0567323 0.00477923 0.0300253 0.0897938 
0.54489 0.10415 0.151841 0.672657 0.419568 
0.646888 0.299646 0.0658715 0.341714 0.864068 
0.422515 0.702606 0.131944 0.0324064 0.0465197 
0.691702 0.43004 0.551289 0.539633 0.225349 
0.0744609 0.624369 0.609323 0.200556 0.156272 
0.101389 0.93493 0.336724 0.480468 0.507547 
0.46594 0.0782775 0.271843 0.867507 0.828184 
0.139719 0.0356815 0.309389 0.292608 0.2258 
0.319484 0.7849 0.531927 0.661656 0.994084 
0.960541 0.947644 0.229124 0.761053 0.448085 
0.52345 0.0790798 0.0629353 0.235911 0.293364 
0.232372 0.938306 0.565582 0.20031 0.451267 
0.571402 0.00665966 0.799653 0.728724 0.718688 
0.415864 0.878838 0.554097 0.159648 0.68669 
0.182921 0.414966 0.096731 0.520615 0.00409277 
0.0806357 0.567688 0.946842 0.602524 0.758799 
0.98444 0.328931 0.797574 0.481249 0.475381 
0.339681 0.168922 0.0697704 0.591203 0.445114 
0.381857 0.216192 0.960042 0.994248 0.762141 
0.284924 0.0558635 0.408367 0.764619 0.109655 
0.709147 0.32421 0.196085 0.869391 0.40437 
0.731023 0.363869 0.855974 0.471827 0.41212 
0.426086 0.541275 0.993092 0.826636 0.917583 
0.851145 0.455528 0.0951903 0.0726625 0.345855 
0.21548 0.575432 0.727771 0.0603704 0.0566966 
0.518315 0.931465 0.0727385 0.509102 0.386291 
