2600 5
0.956842 0.7805 0.757244 0.275021 0.804039 
0.327751 0.466367 0.664164 0.142568 0.341847 
0.543152 0.200678 0.634916 0.692067 0.247357 
0.691071 0.816985 0.404259 0.51735 0.00516461 
0.360706 0.533379 0.925011 0.0133375 0.302418 
0.208953 0.550384 0.145464 0.325882 0.978632 
0.219304 0.725536 0.244806 0.59387 0.0855984 
0.187082 0.0375088 0.286623 0.114956 0.172006 
0.34562 0.79678 0.405917 0.376709 0.42995 
0.551927 0.904293 0.356829 0.736444 0.992037 
0.0480915 0.0933956 0.225245 0.663424 0.620532 
0.251818 0.642575 0.794868 0.87372 0.432569 
0.582593 0.92405 0.0463614 0.816617 0.366281 
0.499126 0.208504 0.531117 0.823868 0.017819 
0.50149 0.287435 0.0801415 0.998104 0.720694 
0.555016 0.438305 0.418174 0.464856 0.383792 
0.200893 0.238892 0.960663 0.200908 0.129927 
0.633078 0.934422 0.500907 0.758362 0.291468 
0.627347 0.309578 0.12606 0.750654 0.397937 
0.118996 0.451316 0.302498 0.227034 0.868819 
0.173369 0.173522 0.184882 0.875651 0.404351 
0.985549 0.166481 0.190211 0.473453 0.629686 
0.537425 0.248859 0.838625 0.0560137 0.0965315 
0.401786 0.482328 0.772724 0.514412 0.950891 
0.00572024 0.715387 0.858202 0.612223 0.26215 
0.393154 0.565186 0.917339 0.35783 0.408526 
0.774635 0.852303 0.291566 0.390004 0.727873 
0.363433 0.607192 0.396429 0.781492 0.786872 
0.662261 0.549227 0.806626 0.0188952 0.145179 
0.695873 0.358356 0.808337 0.196112 0.667933 
0.184686 0.519481 0.197987 0.723269 0.0559252 
0.0460768 0.213994 0.454095 0.702776 0.869676 
0.651965 0.7272 0.277881 0.262415 0.850229 
0.549001 0.0257991 0.503494 0.909323 0.907488 
0.890979 0.881103 0.698442 0.456261 0.792158 
0.694524 0.962994 0.477278 0.866014 0.288048 
0.889575 0.971423 0.45052 0.925298 0.877276 
0.838999 0.638855 0.937987 0.918441 0.501316 
0.813137 0.544283 0.401468 0.190127 0.0391171 
0.933721 0.770081 0.752174 0.855348 0.233469 
0.477383 0.462274 0.302506 0.303296 0.854197 
0.957655 0.811241 0.223754 0.60769 0.649273 
0.0508109 0.327144 0.127556 0.248327 0.508656 
0.566014 0.847063 0.217011 0.232943 0.590945 
0.692353 0.0321252 0.939943 0.578688 0.986558 
0.306045 0.965406 0.161191 0.569183 0.729844 
0.590427 0.403997 0.795945 0.0856501 0.123508 
0.5 0.720697 0.504135 0.673448 0.242406 
0.249784 0.189478 0.0553345 0.564794 0.23164 
0.585981 0.326439 0.827587 0.334287 0.450844 
0.288015 0.472844 0.539931 0.11719 0.778256 
0.862754 0.109096 0.96945 0.0368962 0.953231 
0.293678 0.351081 0.253604 0.702285 0.772558 
0.92961 0.869944 0.550981 0.361259 0.169956 
0.154327 0.207883 0.289855 0.494147 0.860407 
0.54188 0.613984 0.934593 0.636 0.711366 
0.727386 0.860203 0.198086 0.79212 0.329227 
0.451141 0.198281 0.360728 0.393903 0.832287 
0.53402 0.6197 0.746847 0.989003 0.245515 
0.126677 0.964932 0.7563 0.747152 0.626675 
0.928217 0.406226 0.123986 0.951253 0.481579 
0.380677 0.584169 0.9925 0.386437 0.399083 
0.488866 0.387994 0.622309 0.340378 0.879659 
0.255874 0.962809 0.751505 0.0504801 0.367528 
0.38698 0.361737 0.404144 0.483877 0.45854 
0.595537 0.155703 0.877908 0.526515 0.844977 
0.780473 0.988895 0.350051 0.464344 0.402181 
0.991503 0.214101 0.630725 0.116654 0.367653 
0.331615 0.311705 0.6304 0.268846 0.257182 
0.0769627 0.552709 0.142406 0.56373 0.994915 
0.742325 0.759518 0.326668 0.5224 0.336826 
0.933247 0.110387 0.0908812 0.630712 0.995077 
0.57851 0.606599 0.340265 0.653279 0.805355 
0.299128 0.0959895 0.282346 0.338276 0.518965 
0.0963123 0.517807 0.329343 0.0197849 0.817874 
0.712095 0.567418 0.798916 0.602566 0.131304 
0.12592 0.876854 0.302547 0.465397 0.238517 
0.637239 0.0982699 0.288042 0.644641 0.0942 
0.610991 0.801424 0.45403 0.632551 0.356516 
0.574244 0.862458 0.470359 0.0892785 0.118432 
0.985816 0.210127 0.190885 0.956731 0.23229 
0.506794 0.17393 0.0252213 0.201954 0.259747 
0.026712 0.997423 0.0885562 0.727492 0.117369 
0.0483629 0.197695 0.165897 0.0250696 0.721313 
0.0310876 0.604772 0.852392 0.20638 0.869917 
0.090425 0.336737 0.922724 0.973726 0.82334 
0.848803 0.381541 0.695474 0.467581 0.843877 
0.562156 0.0750135 0.0153671 0.64876 0.44028 
0.953398 0.336448 0.927427 0.706856 0.185691 
0.331875 0.197833 0.835998 0.711209 0.975179 
0.483314 0.0604117 0.690541 0.540422 0.260806 
0.240774 0.346259 0.642848 0.551277 0.967092 
0.608325 0.0640984 0.0472266 0.777567 0.295039 
0.662491 0.787676 0.28596 0.0949829 0.803634 
0.690824 0.0272201 0.689536 0.462341 0.364103 
0.0849402 0.161363 0.63303 0.669568 0.237376 
0.992269 0.270558 0.79621 0.374703 0.44813 
0.630024 0.494282 0.475037 0.566126 0.771138 
0.0458564 0.740483 0.306834 0.171796 0.00698986 
0.354264 0.149213 0.853689 0.801003 0.525334 
0.320405 0.434097 0.12083 0.00277815 0.0923413 
0.809025 0.467728 0.276679 0.231561 0.130653 
0.648637 0.435215 0.0924419 0.71079 0.108733 
0.185112 0.511756 0.745123 0.726251 0.856393 
0.0196886 0.945119 0.673209 0.221905 0.52102 
0.156305 0.414966 0.576063 0.436709 0.703255 
0.831139 0.387159 0.62824 0.452109 0.288526 
0.133996 0.377451 0.303694 0.805237 0.882214 
0.986098 0.671884 0.451253 0.386731 0.735838 
0.0287724 0.475966 0.137501 0.0189835 0.617558 
0.89488 0.155922 0.0403024 0.225392 0.549147 
0.40681 0.968741 0.139424 0.919066 0.351188 
0.654503 0.863797 0.0627013 0.353773 0.278668 
0.0730847 0.065329 0.199264 0.501764 0.772402 
0.689468 0.518017 0.306392 0.098098 0.774644 
0.395957 0.389136 0.686228 0.0465416 0.244094 
0.216674 0.602096 0.754934 0.643126 0.218523 
0.0657849 0.448925 0.535199 0.393225 0.375518 
0.115412 0.0265742 0.0158213 0.481723 0.762114 
0.88694 0.212821 0.741407 0.193436 0.851083 
0.106214 0.855217 0.766806 0.848356 0.655325 
0.128241 0.46245 0.98237 0.639692 0.447329 
0.37145 0.776944 0.813235 0.130393 0.709993 
0.0303766 0.395962 0.958238 0.644172 0.185727 
0.327563 0.507412 0.815926 0.56599 0.819697 
0.0534298 0.847153 0.245039 0.907551 0.935483 
0.132261 0.853599 0.961752 0.0121659 0.208711 
0.0216488 0.44586 0.911568 0.686184 0.682545 
0.605104 0.303446 0.249695 0.526624 0.917891 
0.14536 0.458798 0.407373 0.502342 0.642692 
0.986738 0.569571 0.0417017 0.473025 0.998715 
0.968481 0.167263 0.292086 0.572527 0.430564 
0.65225 0.509208 0.128935 0.690797 0.44395 
0.192472 0.286449 0.614207 0.871876 0.245854 
0.281905 0.31452 0.0806091 0.0326627 0.647634 
0.581294 0.185313 0.345675 0.778516 0.69034 
0.457076 0.726464 0.804654 0.909381 0.481768 
0.967247 0.835448 0.186839 0.160224 0.640435 
0.115122 0.0111418 0.692105 0.0523944 0.649918 
0.00497228 0.984021 0.730725 0.19903 0.906487 
0.781686 0.286743 0.710501 0.235789 0.735399 
0.589524 0.899474 0.677515 0.767012 0.641899 
0.928751 0.456028 0.411962 0.763774 0.332736 
0.411207 0.889799 0.166251 0.687471 0.392127 
0.640338 0.980532 0.0507196 0.653532 0.948248 
0.522473 0.929942 0.0483804 0.582728 0.699284 
0.613267 0.471881 0.459869 0.326961 0.377563 
0.831892 0.452981 0.786606 0.0520651 0.353575 
0.482551 0.825208 0.941625 0.62893 0.211655 
0.743757 0.409997 0.607383 0.478918 0.545715 
0.409092 0.0979707 0.991505 0.60008 0.444222 
0.33932 0.778291 0.216574 0.673369 0.396372 
0.426218 0.460974 0.751616 0.687987 0.781002 
0.944131 0.611023 0.188954 0.0153276 0.345558 
0.920276 0.638512 0.00594419 0.516559 0.844875 
0.943435 0.0824268 0.0602505 0.851533 0.559684 
0.532918 0.97561 0.621637 0.949901 0.296206 
0.023308 0.398754 0.916459 0.899813 0.889858 
0.776872 0.0944828 0.359184 0.0249173 0.958748 
0.280799 0.818575 0.896131 0.570491 0.343015 
0.490784 0.359783 0.53734 0.589415 0.808947 
0.58225 0.9036 0.15906 0.935094 0.330343 
0.639447 0.616161 0.393528 0.422631 0.885991 
0.221237 0.126945 0.976619 0.610446 0.807945 
0.797154 0.157907 0.330825 0.967296 0.992114 
0.21546 0.0972377 0.171352 0.724957 0.0610072 
0.127054 0.690431 0.636775 0.702301 0.381357 
0.598654 0.665258 0.814655 0.384848 0.155098 
0.240836 0.148395 0.0761814 0.629445 0.76909 
0.3905 0.821206 0.530896 0.530906 0.0468971 
0.6661 0.867886 0.456757 0.175059 0.137133 
0.371372 0.853444 0.669956 0.951121 0.033642 
0.171099 0.426874 0.948657 0.414619 0.279767 
0.708885 0.333721 0.425703 0.670616 0.216219 
0.896952 0.0909416 0.114704 0.306658 0.47789 
0.430267 0.971537 0.913514 0.190025 0.582999 
0.845218 0.16917 0.502767 0.150428 0.220351 
0.881271 0.41166 0.116363 0.457122 0.103466 
0.989258 0.882843 0.287156 0.778609 0.0302644 
0.682391 0.851245 0.723662 0.0713231 0.47257 
0.0352636 0.276334 0.510597 0.899688 0.052664 
0.0266304 0.775718 0.327743 0.600318 0.191804 
0.0710812 0.901233 0.649839 0.714131 0.132535 
0.28749 0.191558 0.130353 0.473978 0.617381 
0.988456 0.223152 0.687837 0.956218 0.951162 
0.287325 0.689656 0.0953728 0.414977 0.230263 
0.691309 0.180953 0.124027 0.320618 0.879217 
0.862486 0.538155 0.712905 0.743866 0.140006 
0.461997 0.223506 0.586425 0.9084 0.121751 
0.596212 0.580553 0.491417 0.627388 0.869168 
0.360578 0.402492 0.628458 0.448255 0.66089 
0.932401 0.320157 0.192192 0.755415 0.123512 
0.365546 0.243132 0.402708 0.431675 0.426049 
0.663588 0.354205 0.538577 0.299268 0.709577 
0.941836 0.7972 0.663081 0.950089 0.641809 
0.947443 0.363709 0.273017 0.0557446 0.00608057 
0.275103 0.465843 0.098975 0.238773 0.299905 
0.215191 0.760371 0.497971 0.0594527 0.883538 
0.696241 0.897669 0.322625 0.575085 0.90726 
0.621026 0.700794 0.918716 0.19201 0.180535 
0.660256 0.911659 0.0144246 0.324935 0.452165 
0.245976 0.853854 0.0984632 0.369387 0.807199 
0.329304 0.150836 0.104028 0.519787 0.695923 
0.160929 0.918042 0.188116 0.755052 0.100384 
0.360053 0.217631 0.801552 0.0436963 0.887061 
0.582436 0.178448 0.917785 0.594201 0.0885802 
0.491571 0.849665 0.94192 0.144861 0.531807 
0.43612 0.25658 0.708408 0.888867 0.155422 
0.238351 0.146805 0.724019 0.30131 0.63454 
0.535735 0.57128 0.156525 0.458852 0.792588 
0.0598061 0.664573 0.378469 0.306249 0.406041 
0.170048 0.371284 0.373487 0.881933 0.75896 
0.255073 0.31482 0.468309 0.984263 0.831237 
0.449617 0.61754 0.979276 0.485378 0.557701 
0.774615 0.262124 0.933527 0.878561 0.413528 
0.970367 0.219336 0.826597 0.384479 0.326352 
0.166689 0.607095 0.918473 0.738239 0.246325 
0.955473 0.503105 0.262582 0.0747894 0.895965 
0.805789 0.485975 0.542531 0.6012 0.376696 
0.854328 0.00849929 0.921621 0.569357 0.870757 
0.830291 0.776242 0.162579 0.609912 0.154936 
0.351997 0.839265 0.118416 0.839481 0.223079 
0.553331 0.95978 0.252354 0.344747 0.934933 
0.884806 0.13559 0.757748 0.223552 0.300254 
0.397733 0.615783 0.477894 0.619178 0.979353 
0.444089 0.679565 0.00526641 0.521369 0.788836 
0.455465 0.10175 0.143568 0.575209 0.152128 
0.131284 0.854354 0.813448 0.676157 0.793515 
0.818101 0.0873483 0.73286 0.561033 0.301575 
0.290227 0.49457 0.838639 0.844051 0.95474 
0.297779 0.566513 0.220198 0.273648 0.812676 
0.599667 0.125384 0.450482 0.0942504 0.138341 
0.401214 0.131831 0.809925 0.14819 0.332519 
0.894656 0.681625 0.703524 0.111318 0.498478 
0.957544 0.84426 0.890996 0.398633 0.992595 
0.650312 0.345508 0.433726 0.287625 0.0759464 
0.950003 0.985866 0.106922 0.492147 0.0682048 
0.398982 0.587035 0.0279323 0.645034 0.041141 
0.262418 0.582708 0.523346 0.562744 0.573492 
0.580645 0.996958 0.63163 0.411769 0.257797 
0.112783 0.513731 0.685695 0.275257 0.389818 
0.269414 0.755656 0.131263 0.827277 0.864265 
0.754294 0.0374771 0.604396 0.15528 0.188715 
0.371089 0.710419 0.34586 0.301416 0.278543 
0.722654 0.0265848 0.977408 0.464104 0.543387 
0.297846 0.179149 0.887372 0.101361 0.304017 
0.867422 0.235552 0.622775 0.350347 0.979377 
0.967993 0.543885 0.710368 0.727061 0.537571 
0.133331 0.784317 0.929251 0.0233612 0.552537 
0.0295013 0.931422 0.913619 0.338709 0.393102 
0.424164 0.548786 0.958156 0.867631 0.578681 
0.895279 0.479965 0.406874 0.782819 0.548036 
0.954344 0.861284 0.2343 0.248477 0.426298 
0.769392 0.229789 0.949388 0.88206 0.803896 
0.284432 0.804343 0.948379 0.855779 0.0380381 
0.629747 0.636347 0.595103 0.963619 0.433269 
0.583975 0.575125 0.63195 0.190473 0.996418 
0.352575 0.645831 0.822753 0.614145 0.873815 
0.585153 0.670234 0.0249614 0.675627 0.282973 
0.698056 0.664269 0.715198 0.399414 0.108416 
0.0689072 0.65391 0.91886 0.905375 0.459104 
0.521201 0.843151 0.590387 0.969003 0.231565 
0.135567 0.696881 0.411552 0.372552 0.698173 
0.428887 0.937867 0.372064 0.700076 0.235607 
0.443114 0.772857 0.598302 0.0594546 0.687246 
0.732542 0.351921 0.914734 0.587804 0.786759 
0.0187288 0.291935 0.032364 0.596062 0.645921 
0.0771367 0.995597 0.83442 0.614228 0.970597 
0.358289 0.858963 0.743781 0.460148 0.176638 
0.884819 0.0459754 0.809336 0.0637311 0.542981 
0.727154 0.563606 0.626723 0.82825 0.464454 
0.0588754 0.15998 0.268721 0.174385 0.32856 
0.145176 0.153739 0.243732 0.371182 0.27587 
0.601742 0.115629 0.808297 0.509814 0.311233 
0.696343 0.0761267 0.167568 0.448065 0.913813 
0.0431025 0.306557 0.593966 0.383832 0.793941 
0.901211 0.600783 0.105466 0.591395 0.801585 
0.433738 0.277636 0.748233 0.479253 0.340889 
0.35611 0.356046 0.408942 0.401841 0.53848 
0.205294 0.0666082 0.359321 0.508878 0.736331 
0.933092 0.159958 0.287623 0.763787 0.0428938 
0.502695 0.977362 0.00567018 0.537797 0.754837 
0.0706036 0.130917 0.12821 0.762424 0.208687 
0.0979655 0.693229 0.0115067 0.423755 0.321198 
0.500402 0.747165 0.00734399 0.342615 0.392979 
0.451564 0.361568 0.751956 0.416754 0.927012 
0.873788 0.390431 0.992278 0.288985 0.330865 
0.647921 0.0294099 0.845633 0.729701 0.892341 
0.0426418 0.959055 0.936948 0.781487 0.106701 
0.673501 0.0702193 0.0164586 0.511997 0.668897 
0.0662368 0.619698 0.301091 0.0351719 0.783285 
0.233142 0.852648 0.458648 0.443194 0.995998 
0.513732 0.201986 0.158433 0.138606 0.50257 
0.986505 0.196139 0.546192 0.322301 0.929314 
0.450574 0.322416 0.310974 0.166683 0.933595 
0.346451 0.521962 0.425817 0.93346 0.134294 
0.760727 0.748558 0.666041 0.463626 0.513859 
0.512856 0.300089 0.762703 0.826911 0.655999 
0.41623 0.829625 0.459628 0.692172 0.727016 
0.942965 0.27486 0.860424 0.738125 0.0952339 
0.123165 0.233471 0.101577 0.0578953 0.49124 
0.995421 0.939077 0.535405 0.979324 0.257128 
0.330101 0.902132 0.458845 0.0554208 0.467435 
0.805161 0.595603 0.741982 0.057717 0.393078 
0.315886 0.0227002 0.263778 0.630273 0.48947 
0.662805 0.03891 0.895233 0.125691 0.39954 
0.41357 0.284993 0.427895 0.335293 0.0136538 
0.434202 0.0773371 0.546854 0.267312 0.715315 
0.430198 0.465514 0.600155 0.065593 0.874152 
0.275628 0.331478 0.59541 0.379212 0.00655185 
0.550764 0.320373 0.882365 0.388928 0.688204 
0.406344 0.152766 0.913666 0.653024 0.561173 
0.61377 0.036557 0.402881 0.934787 0.00938459 
0.653381 0.463174 0.960476 0.0522526 0.153634 
0.310779 0.107621 0.178122 0.022804 0.882787 
0.511943 0.235311 0.624917 0.127375 0.404224 
0.0440684 0.460191 0.99109 0.545804 0.719955 
0.887309 0.0802414 0.73256 0.460534 0.268539 
0.831526 0.298928 0.0515524 0.647394 0.144016 
0.134158 0.382841 0.712661 0.490187 0.93514 
0.507699 0.0667243 0.30924 0.258828 0.00646943 
0.195001 0.20205 0.886564 0.390769 0.842949 
0.146421 0.503535 0.0365346 0.092804 0.635323 
0.352851 0.375621 0.532633 0.434608 0.802759 
0.253456 0.242359 0.511024 0.963332 0.0953057 
0.785054 0.761209 0.536225 0.255147 0.6438 
0.68727 0.152916 0.734926 0.790466 0.0206317 
0.427387 0.19326 0.228917 0.279616 0.649022 
0.266492 0.65013 0.852403 0.194618 0.241465 
0.257079 0.883106 0.331752 0.281895 0.679428 
0.60632 0.675457 0.549363 0.436474 0.780308 
0.452008 0.954091 0.50756 0.205573 0.984115 
0.903241 0.384005 0.943913 0.205502 0.738475 
0.0669753 0.154635 0.3794 0.503145 0.216315 
0.0920284 0.892553 0.99339 0.748227 0.843434 
0.263329 0.878423 0.23286 0.633359 0.196443 
0.299389 0.346159 0.332472 0.361569 0.808945 
0.223014 0.167545 0.820981 0.314119 0.93037 
0.969222 0.910807 0.639493 0.079897 0.662436 
0.938287 0.0264967 0.570428 0.0818063 0.2844 
0.748698 0.49742 0.159641 0.18851 0.879763 
0.136052 0.0967196 0.810963 0.628966 0.0261834 
0.78717 0.960489 0.0455034 0.375578 0.641954 
0.175046 0.841798 0.498831 0.361617 0.508356 
0.519133 0.265175 0.621483 0.838662 0.500836 
0.852089 0.921937 0.846552 0.86779 0.257682 
0.236296 0.544148 0.620214 0.342516 0.929879 
0.272669 0.126724 0.396908 0.447979 0.106415 
0.130545 0.798527 0.652394 0.712186 0.517302 
0.105279 0.60868 0.970469 0.686537 0.701571 
0.698552 0.151695 0.63469 0.367781 0.812284 
0.840314 0.119956 0.060564 0.63806 0.711293 
0.0333078 0.425074 0.757703 0.175145 0.352351 
0.200561 0.220233 0.821119 0.695989 0.446939 
0.988057 0.565263 0.677427 0.208495 0.817765 
0.740079 0.585555 0.684833 0.367929 0.272935 
0.469149 0.305993 0.732672 0.450406 0.792297 
0.0703353 0.502555 0.765034 0.531966 0.905189 
0.787083 0.552059 0.299966 0.611272 0.61669 
0.462085 0.961 0.929084 0.855801 0.850573 
0.598614 0.470835 0.113739 0.456831 0.448128 
0.379875 0.806607 0.305824 0.345238 0.268639 
0.061513 0.679601 0.0747877 0.155935 0.843659 
0.500142 0.468698 0.82503 0.0140423 0.137977 
0.480405 0.396589 0.430205 0.170882 0.718736 
0.80928 0.102149 0.270081 0.488989 0.520272 
0.844928 0.0452253 0.00698643 0.445595 0.613388 
0.584175 0.171622 0.0249821 0.940096 0.0412005 
0.0612795 0.669773 0.978762 0.787623 0.746993 
0.120409 0.511362 0.196903 0.2242 0.483345 
0.18495 0.468824 0.507454 0.804334 0.918729 
0.371235 0.668012 0.499585 0.274217 0.175866 
0.342643 0.81873 0.468678 0.817572 0.680446 
0.85835 0.872553 0.388066 0.770178 0.0281376 
0.632958 0.26 0.790257 0.528005 0.575776 
0.152925 0.830457 0.780981 0.417314 0.58448 
0.799329 0.673667 0.666541 0.642283 0.517112 
0.517845 0.113729 0.576827 0.777034 0.260631 
0.982322 0.219032 0.32087 0.58823 0.38587 
0.823648 0.0679837 0.794318 0.978867 0.191541 
0.0962576 0.251885 0.509049 0.347155 0.617031 
0.0135143 0.0838585 0.664975 0.953145 0.0156818 
0.643465 0.741015 0.86646 0.336325 0.31771 
0.680921 0.0630857 0.299179 0.373037 0.787546 
0.939164 0.0828692 0.439349 0.648455 0.95841 
0.760432 0.648651 0.086524 0.486681 0.115487 
0.665423 0.822326 0.523678 0.463928 0.851142 
0.796893 0.669463 0.0870684 0.390504 0.465432 
0.172243 0.0123317 0.0181034 0.0243192 0.167357 
0.835526 0.699815 0.0784194 0.482039 0.136279 
0.0319909 0.409724 0.943705 0.571707 0.639766 
0.0353865 0.773306 0.642483 0.901239 0.395568 
0.0613141 0.0323367 0.850312 0.344277 0.964229 
0.188473 0.472765 0.347831 0.21738 0.838094 
0.779258 0.964997 0.186464 0.94611 0.665377 
0.376018 0.947592 0.829725 0.566888 0.738187 
0.223857 0.122702 0.218624 0.0617392 0.646632 
0.684458 0.441769 0.0323456 0.350381 0.48161 
0.350437 0.747017 0.36871 0.697017 0.27523 
0.0828258 0.568604 0.411779 0.289605 0.431791 
0.702599 0.93404 0.875544 0.687239 0.719013 
0.710976 0.793118 0.755374 0.601076 0.446395 
0.952572 0.349773 0.747885 0.737666 0.472377 
0.615599 0.436395 5.20682e-05 0.223363 0.265577 
0.815156 0.885289 0.975709 0.0440211 0.34634 
0.339375 0.0679682 0.323862 0.737984 0.0766411 
0.913785 0.323083 0.732433 0.0398354 0.622542 
0.866043 0.587504 0.31882 0.177074 0.643927 
0.627651 0.183097 0.266772 0.102155 0.705107 
0.52391 0.274706 0.499136 0.487917 0.25906 
0.413341 0.205131 0.814675 0.0495154 0.15322 
0.00543555 0.738365 0.105109 0.130232 0.0738654 
0.587359 0.887796 0.285272 0.412183 0.978747 
0.711752 0.023741 0.342392 0.701569 0.545716 
0.955842 0.606441 0.360104 0.737233 0.182394 
0.774197 0.66826 0.244536 0.668827 0.587048 
0.17505 0.894883 0.563603 0.331792 0.772986 
0.444542 0.901944 0.857038 0.0593912 0.0220149 
0.428133 0.509791 0.353601 0.130283 0.816265 
0.236147 0.635354 0.645963 0.504512 0.25326 
0.475623 0.944201 0.916109 0.264477 0.519328 
0.186629 0.733988 0.195796 0.764851 0.553383 
0.713 0.754997 0.078614 0.773308 0.646056 
0.614944 0.0699873 0.152813 0.512197 0.62844 
0.353199 0.0188096 0.336681 0.932086 0.566312 
0.0388275 0.931472 0.7451 0.831188 0.471026 
0.606443 0.539238 0.864369 0.363868 0.0425987 
0.822582 0.0720206 0.0201853 0.775432 0.0520699 
0.659542 0.239786 0.771774 0.524656 0.762897 
0.880948 0.857484 0.643489 0.410455 0.192637 
0.169176 0.0108148 0.455061 0.0848983 0.120109 
0.375352 0.661992 0.763321 0.687169 0.636376 
0.150984 0.166586 0.08111 0.284433 0.414192 
0.609605 0.233301 0.645163 0.944387 0.260484 
0.0149687 0.847276 0.00890329 0.289876 0.0567777 
0.969503 0.251768 0.262993 0.734795 0.241099 
0.060928 0.256811 0.599704 0.601612 0.482564 
0.684889 0.288615 0.519617 0.732815 0.238088 
0.133917 0.432843 0.648515 0.431169 0.703934 
0.128337 0.214534 0.423261 0.94928 0.950494 
0.391039 0.649865 0.537235 0.763153 0.0328553 
0.194869 0.666892 0.787006 0.945456 0.342637 
0.0273739 0.347769 0.394727 0.434093 0.325065 
0.873533 0.776468 0.685148 0.737337 0.0224986 
0.229049 0.85149 0.447461 0.474283 0.963795 
0.0430378 0.664117 0.0160837 0.92095 0.740277 
0.116105 0.887033 0.96686 0.346978 0.0855581 
0.263173 0.871916 0.603436 0.493845 0.0366969 
0.292351 0.930584 0.300539 0.369007 0.760133 
0.411184 0.629895 0.165842 0.0985564 0.473363 
0.695299 0.664252 0.517047 0.929909 0.750901 
0.652573 0.426414 0.534822 0.610686 0.778994 
0.837189 0.112556 0.485472 0.448855 0.386883 
0.799734 0.610779 0.713846 0.679614 0.939237 
0.929727 0.522597 0.362695 0.599835 0.216816 
0.570581 0.216888 0.564676 0.997093 0.509557 
0.635105 0.586002 0.25044 0.0608976 0.349604 
0.881975 0.405116 0.408156 0.2977 0.341367 
0.296738 0.653099 0.0761801 0.508668 0.939831 
0.137231 0.458424 0.689304 0.664007 0.843307 
0.89543 0.0189853 0.813173 0.903919 0.445341 
0.727898 0.344133 0.464883 0.46263 0.832901 
0.916169 0.991087 0.308753 0.196081 0.730903 
0.582806 0.605308 0.803883 0.313861 0.467125 
0.370309 0.140483 0.914879 0.012097 0.605467 
0.723762 0.790456 0.970693 0.93496 0.467681 
0.623616 0.958115 0.165559 0.426433 0.0403832 
0.906999 0.301721 0.650226 0.259116 0.987116 
0.0752424 0.0670848 0.582918 0.0635048 0.599653 
0.526213 0.661389 0.75806 0.54464 0.971555 
0.444044 0.13121 0.738531 0.713823 0.907125 
0.200741 0.189666 0.697265 0.656478 0.486787 
0.836947 0.340078 0.855491 0.69721 0.035569 
0.504378 0.591072 0.445901 0.524334 0.629264 
0.293567 0.454956 0.920629 0.430912 0.594535 
0.718696 0.614764 0.536698 0.0264123 0.600738 
0.438877 0.744864 0.605281 0.95132 0.65744 
0.800967 0.311565 0.14463 0.976965 0.670523 
0.867494 0.481249 0.00935496 0.237315 0.100893 
0.5799 0.127879 0.116828 0.899558 0.200238 
0.0435463 0.0318954 0.122544 0.286935 0.227057 
0.921616 0.185723 0.348618 0.291026 0.201992 
0.86295 0.810124 0.121631 0.260016 0.201229 
0.193523 0.675219 0.640211 0.0423089 0.651235 
0.00440284 0.349245 0.297607 0.725027 0.612931 
0.240654 0.304117 0.736631 0.496345 0.279225 
0.076157 0.526334 0.302712 0.464585 0.463834 
0.785407 0.559535 0.561832 0.359381 0.575063 
0.302786 0.00470928 0.296408 0.118234 0.293404 
0.202839 0.330887 0.0975794 0.388678 0.671371 
0.98634 0.784917 0.162649 0.260059 0.841306 
0.193319 0.658576 0.0021105 0.659185 0.47382 
0.184415 0.552461 0.660354 0.0990329 0.255748 
0.616625 0.747592 0.402777 0.484229 0.367142 
0.894348 0.296294 0.879112 0.130315 0.030647 
0.928092 0.194697 0.688685 0.779559 0.191985 
0.974456 0.843911 0.373647 0.150725 0.583452 
0.129155 0.672836 0.178483 0.0344981 0.119175 
0.667024 0.0456738 0.650937 0.637996 0.339805 
0.46959 0.925927 0.333269 0.548884 0.750223 
0.179289 0.163199 0.996325 0.847541 0.39006 
0.385487 0.477459 0.44513 0.701904 0.544075 
0.107415 0.970546 0.752555 0.682901 0.850767 
0.929529 0.457674 0.152257 0.477122 0.354389 
0.515127 0.814603 0.218837 0.624224 0.720302 
0.467433 0.71537 0.266871 0.434209 0.00788128 
0.459953 0.910876 0.928619 0.0233466 0.421532 
0.721574 0.661213 0.0917053 0.134247 0.0291424 
0.983141 0.679164 0.41945 0.147339 0.50271 
0.729322 0.342389 0.353807 0.38904 0.119779 
0.847361 0.507652 0.576082 0.896886 0.447435 
0.557937 0.550548 0.397785 0.230364 0.755566 
0.754373 0.526855 0.481175 0.550037 0.108033 
0.956903 0.175628 0.922567 0.272589 0.786607 
0.211927 0.375121 0.504401 0.9862 0.518735 
0.313046 0.743143 0.382765 0.692784 0.116108 
0.361729 0.061562 0.402131 0.0404381 0.834923 
0.556815 0.48075 0.330992 0.652676 0.287594 
0.125893 0.246114 0.658915 0.0489825 0.351309 
0.561433 0.579749 0.377589 0.390259 0.239669 
0.703697 0.226038 0.256912 0.995968 0.857098 
0.83591 0.0702134 0.0113222 0.145102 0.939827 
0.503618 0.101291 0.766286 0.290531 0.72719 
0.40106 0.441536 0.00507636 0.0673887 0.586936 
0.451278 0.341388 0.170358 0.54785 0.215423 
0.924935 0.632679 0.688147 0.219119 0.474497 
0.0594987 0.629709 0.90948 0.962056 0.372549 
0.0806103 0.0177977 0.599406 0.276822 0.135309 
0.755617 0.666668 0.748923 0.679004 0.166618 
0.116441 0.169614 0.22837 0.341257 0.0858289 
0.444083 0.710127 0.494002 0.163329 0.891288 
0.784736 0.218935 0.40692 0.65411 0.656526 
0.102017 0.677719 0.319272 0.839161 0.416088 
0.00709011 0.815234 0.971473 0.838786 0.265532 
0.560408 0.471261 0.365013 0.568447 0.866312 
0.947318 0.791458 0.919857 0.319929 0.631367 
0.304302 0.643096 0.10166 0.542811 0.517911 
0.755333 0.559392 0.708426 0.793756 0.775349 
0.0598307 0.908495 0.381848 0.504008 0.531957 
0.329713 0.406229 0.773177 0.658152 0.0490357 
0.920656 0.410441 0.955598 0.790035 0.999685 
0.452618 0.348559 0.379129 0.169343 0.289467 
0.40728 0.121795 0.499664 0.432153 0.0346357 
0.849447 0.392217 0.815398 0.502288 0.942637 
0.503557 0.689754 0.0724865 0.329642 0.386286 
0.477475 0.482853 0.16078 0.65943 0.317403 
0.212161 0.415075 0.0801343 0.324041 0.928844 
0.698859 0.467615 0.948563 0.706094 0.048621 
0.564738 0.442779 0.852288 0.877949 0.6574 
0.672393 0.443674 0.0367333 0.446462 0.679537 
0.415503 0.126338 0.107481 0.569065 0.352639 
0.507663 0.603385 0.437177 0.294017 0.830682 
0.956419 0.469809 0.106432 0.404423 0.41549 
0.0577628 0.263634 0.566697 0.294032 0.0921141 
0.0783677 0.383481 0.397916 0.0164086 0.00119373 
0.695416 0.292045 0.710383 0.938113 0.773121 
0.520905 0.54893 0.972741 0.863419 0.777917 
0.680007 0.376123 0.50787 0.0562035 0.125129 
0.557094 0.125642 0.00712065 0.493101 0.961229 
0.101839 0.596051 0.763849 0.720757 0.282585 
0.562597 0.304715 0.589296 0.0970307 0.662707 
0.575951 0.665862 0.365373 0.0456997 0.968217 
0.9444 0.288947 0.796168 0.969761 0.936016 
0.813627 0.201025 0.959557 0.5729 0.411899 
0.965931 0.581677 0.598249 0.0449497 0.642452 
0.258961 0.720668 0.0729376 0.863434 0.929925 
0.201232 0.973615 0.258137 0.584864 0.588931 
0.915599 0.4204 0.830179 0.154206 0.542335 
0.62697 0.653999 0.964906 0.0715521 0.791265 
0.338853 0.330875 0.7468 0.382488 0.130134 
0.344681 0.608598 0.143644 0.676412 0.60215 
0.0647415 0.262383 0.615123 0.416538 0.216925 
0.844565 0.830519 0.595019 0.613123 0.967557 
0.745848 0.841498 0.320734 0.280418 0.398341 
0.884244 0.933108 0.587092 0.286439 0.0366281 
0.969348 0.131947 0.662397 0.959763 0.211859 
0.69027 0.0900073 0.779274 0.158305 0.746771 
0.673686 0.449024 0.395988 0.698373 0.902279 
0.989719 0.162429 0.760393 0.689511 0.996888 
0.383723 0.598808 0.95898 0.174335 0.854514 
0.27353 0.69058 0.528843 0.962856 0.297327 
0.0796364 0.0265329 0.610527 0.920559 0.352917 
0.0959317 0.439768 0.0538276 0.809522 0.0593611 
0.178204 0.177421 0.996786 0.0140273 0.154161 
0.43612 0.436485 0.626474 0.404426 0.559871 
0.64133 0.0545425 0.469823 0.925438 0.916897 
0.117341 0.0699259 0.329514 0.411304 0.948023 
0.789978 0.188422 0.560512 0.773859 0.311178 
0.586849 0.999784 0.245664 0.294895 0.346465 
0.17868 0.698595 0.0006221 0.0245187 0.464066 
0.432708 0.0500276 0.308684 0.453749 0.578726 
0.362973 0.338813 0.865909 0.462619 0.759021 
0.557994 0.490868 0.975671 0.431824 0.3964 
0.295208 0.295777 0.923963 0.65028 0.597568 
0.253645 0.767536 0.474879 0.30508 0.337019 
0.194302 0.0853093 0.617764 0.794718 0.96702 
0.171532 0.913449 0.181119 0.766269 0.946177 
0.878376 0.917593 0.733002 0.603117 0.616654 
0.62685 0.851845 0.335588 0.344945 0.579779 
0.805027 0.239622 0.600412 0.170975 0.462849 
0.450173 0.177724 0.513747 0.859796 0.39956 
0.48418 0.509615 0.162568 0.107625 0.464138 
0.708589 0.217696 0.232029 0.0854736 0.368281 
0.0692152 0.598189 0.160019 0.86957 0.736148 
0.00929352 0.264877 0.701598 0.627947 0.501572 
0.413265 0.0718882 0.371101 0.741572 0.377457 
0.506866 0.0986814 0.711494 0.64915 0.444761 
0.870592 0.70197 0.406254 0.111424 0.450951 
0.924259 0.194068 0.234996 0.299449 0.6171 
0.285591 0.423865 0.174768 0.674826 0.987959 
0.656678 0.35436 0.154415 0.23232 0.377643 
0.680356 0.375221 0.335846 0.953126 0.271887 
0.0263055 0.768095 0.111352 0.396199 0.44051 
0.280056 0.797143 0.148486 0.8865 0.824244 
0.787664 0.699193 0.180629 0.155815 0.848816 
0.749533 0.589188 0.545819 0.312629 0.105527 
0.611512 0.196344 0.271617 0.153743 0.751688 
0.836478 0.938612 0.831144 0.276269 0.936656 
0.605184 0.513287 0.890475 0.603117 0.657367 
0.184703 0.728864 0.656796 0.979899 0.10902 
0.54698 0.299403 0.50786 0.864877 0.30356 
0.867773 0.19584 0.339325 0.878262 0.734802 
0.716943 0.545925 0.443493 0.733701 0.724737 
0.19814 0.624826 0.601436 0.91477 0.705945 
0.733731 0.360124 0.226652 0.132434 0.690978 
0.428119 0.74673 0.778124 0.83537 0.671998 
0.705714 0.527149 0.235285 0.135294 0.559388 
0.0863775 0.83984 0.337716 0.678637 0.600492 
0.34737 0.339119 0.35301 0.224666 0.148302 
0.604485 0.185136 0.835465 0.528136 0.652639 
0.160073 0.33194 0.377555 0.123681 0.107358 
0.699746 0.836515 0.457621 0.472801 0.134485 
0.103086 0.0671213 0.473559 0.50753 0.311694 
0.872501 0.0389433 0.633733 0.659323 0.178877 
0.707047 0.943345 0.941069 0.0936206 0.434949 
0.00297668 0.473341 0.498919 0.110545 0.352635 
0.70209 0.267511 0.179707 0.539084 0.404776 
0.738927 0.787097 0.177125 0.651474 0.375493 
0.985758 0.366789 0.31642 0.981974 0.862582 
0.667655 0.139438 0.559446 0.927944 0.0683337 
0.855541 0.652291 0.828402 0.974615 0.911754 
0.228604 0.674212 0.760029 0.0961293 0.851588 
0.519273 0.198463 0.835703 0.215369 0.255008 
0.50509 0.714024 0.590653 0.0534969 0.475847 
0.241028 0.505321 0.630248 0.650831 0.833953 
0.927374 0.551728 0.888128 0.111104 0.238169 
0.907639 0.386986 0.344833 0.116236 0.728367 
0.647365 0.537768 0.847752 0.729319 0.697018 
0.530392 0.731195 0.928858 0.831703 0.210523 
0.353572 0.0230751 0.884686 0.703559 0.100515 
0.529174 0.0280789 0.566016 0.808857 0.147954 
0.593156 0.696722 0.186856 0.143414 0.127576 
0.0805965 0.629175 0.847767 0.15602 0.697379 
0.513208 0.906711 0.26442 0.950216 0.313981 
0.144122 0.0650299 0.338092 0.138408 0.364282 
0.948469 0.365124 0.181155 0.590464 0.46238 
0.166616 0.602771 0.0374066 0.639384 0.634479 
0.842357 0.506742 0.0525263 0.811498 0.164732 
0.363965 0.406731 0.441356 0.729938 0.765979 
0.410172 0.631526 0.407893 0.719197 0.942111 
0.0505051 0.586727 0.453335 0.41953 0.714297 
0.729947 0.21271 0.185071 0.113256 0.713976 
0.751145 0.278003 0.0880404 0.370497 0.85909 
0.698282 0.500874 0.147799 0.359706 0.798155 
0.645915 0.623796 0.467645 0.502911 0.129079 
0.19608 0.0765386 0.0555145 0.950313 0.0404734 
0.823924 0.520354 0.106515 0.395414 0.884155 
0.416944 0.617225 0.756912 0.184601 0.408745 
0.557929 0.684643 0.711968 0.163393 0.974218 
0.23408 0.674386 0.616229 0.169468 0.292479 
0.407777 0.643469 0.516714 0.64849 0.889295 
0.582404 0.261501 0.62986 0.964438 0.80827 
0.453563 0.157766 0.607528 0.669978 0.621091 
0.104965 0.747265 0.121532 0.929161 0.0794859 
0.932706 0.652378 0.667019 0.012758 0.62276 
0.0687437 0.528748 0.351478 0.0271225 0.319899 
0.576275 0.565939 0.151949 0.190361 0.221289 
0.490397 0.0686087 0.862568 0.191989 0.758841 
0.247322 0.485955 0.220118 0.414372 0.421166 
0.290949 0.607565 0.303623 0.851444 0.0093171 
0.581715 0.290159 0.401875 0.219851 0.522609 
0.228379 0.416744 0.112487 0.638386 0.527896 
0.889562 0.858967 0.404506 0.764767 0.817787 
0.122854 0.728707 0.234933 0.25429 0.00152708 
0.673491 0.646885 0.809214 0.802823 0.521605 
0.166517 0.64838 0.809035 0.841685 0.2825 
0.347691 0.986448 0.226422 0.924841 0.86679 
0.115998 0.310407 0.748103 0.287462 0.525924 
0.689825 0.219023 0.360373 0.207804 0.693289 
0.427658 0.341521 0.621302 0.318818 0.145671 
0.435758 0.329509 0.238228 0.450649 0.674149 
0.224899 0.174306 0.219992 0.711656 0.867156 
0.6503 0.141905 0.568168 0.347574 0.882466 
0.248658 0.220149 0.736585 0.0868716 0.181752 
0.786706 0.0465659 0.182586 0.623887 0.499267 
0.121363 0.961253 0.685137 0.355573 0.904507 
0.438583 0.711742 0.900144 0.00824783 0.947397 
0.329065 0.751572 0.751421 0.527537 0.293676 
0.735365 0.712008 0.780545 0.680901 0.143143 
0.551151 0.717392 0.782568 0.991726 0.301848 
0.242867 0.846501 0.422092 0.333397 0.399758 
0.499002 0.448813 0.471186 0.944016 0.871598 
0.508724 0.923001 0.923977 0.147658 0.154102 
0.790906 0.206706 0.213056 0.75571 0.57304 
0.824476 0.848445 0.424527 0.980281 0.512232 
0.387351 0.424072 0.818762 0.593753 0.853452 
0.973357 0.862607 0.744032 0.27387 0.330605 
0.586925 0.237702 0.674779 0.853561 0.31284 
0.936254 0.544023 0.56738 0.901542 0.857255 
0.680316 0.540754 0.821188 0.525758 0.956391 
0.11764 0.413244 0.350524 0.19119 0.419714 
0.85047 0.883737 0.193716 0.477191 0.225976 
0.659847 0.737542 0.671161 0.295978 0.711869 
0.793229 0.810108 0.936516 0.66699 0.749151 
0.951239 0.784214 0.236706 0.827246 0.898785 
0.87781 0.896398 0.0361492 0.194229 0.710535 
0.843505 0.956857 0.285681 0.679206 0.556411 
0.492338 0.997864 0.444496 0.219939 0.0789912 
0.433058 0.967661 0.606343 0.304723 0.233703 
0.222738 0.0842722 0.233532 0.553278 0.177834 
0.72603 0.503663 0.61513 0.381581 0.278085 
0.864164 0.948827 0.268983 0.0557004 0.671462 
0.498045 0.447542 0.669663 0.750137 0.595648 
0.181437 0.211569 0.634023 0.716575 0.49193 
0.807411 0.115365 0.601221 0.78002 0.134562 
0.934953 0.88675 0.105607 0.525909 0.300679 
0.924608 0.313989 0.208849 0.482267 0.320965 
0.0343612 0.109851 0.115251 0.00664422 0.419393 
0.642492 0.617302 0.731665 0.320205 0.399752 
0.791762 0.0280914 0.59021 0.557448 0.233902 
0.352236 0.102745 0.294375 0.244751 0.352044 
0.596598 0.822044 0.403416 0.0693351 0.44273 
0.450272 0.819705 0.970739 0.112042 0.543815 
0.450152 0.228809 0.363008 0.640747 0.422229 
0.413503 0.914459 0.356139 0.475634 0.101591 
0.422159 0.210379 0.0126992 0.683058 0.295467 
0.927809 0.0740478 0.892718 0.257021 0.733718 
0.736201 0.726627 0.836992 0.408347 0.490829 
0.491453 0.486409 0.721375 0.666771 0.377811 
0.0604785 0.884339 0.702473 0.0786997 0.956715 
0.0803127 0.287306 0.847968 0.68524 0.478012 
0.82515 0.664565 0.76084 0.533251 0.130326 
0.591599 0.67425 0.143107 0.900951 0.420916 
0.969955 0.613972 0.825908 0.000341946 0.703369 
0.709219 0.390063 0.130881 0.284487 0.16538 
0.405085 0.624167 0.654154 0.714486 0.109807 
0.0297828 0.227473 0.0410546 0.451969 0.230841 
0.343606 0.822918 0.992064 0.695848 0.970847 
0.0502336 0.135817 0.773737 0.269517 0.23269 
0.280311 0.818089 0.168255 0.281206 0.637285 
0.415998 0.860837 0.986562 0.370859 0.750472 
0.495903 0.659263 0.167013 0.349522 0.506551 
0.651182 0.362948 0.966542 0.604492 0.0595014 
0.893452 0.233256 0.0886104 0.795654 0.3757 
0.0748299 0.130506 0.686484 0.0753099 0.168559 
0.238131 0.843074 0.46595 0.462512 0.660011 
0.345603 0.831939 0.650705 0.85261 0.587718 
0.957067 0.0146586 0.0778853 0.336371 0.0330866 
0.181907 0.123306 0.324464 0.0506945 0.448116 
0.881137 0.907802 0.682817 0.0601124 0.508714 
0.300035 0.524821 0.629867 0.0656491 0.874043 
0.250129 0.532055 0.910288 0.465008 0.125482 
0.987654 0.985446 0.125037 0.810771 0.628105 
0.818259 0.622857 0.448863 0.820059 0.224834 
0.788679 0.542602 0.720937 0.721819 0.0626869 
0.637539 0.180639 0.342702 0.0541923 0.431703 
0.388814 0.718797 0.748805 0.722145 0.705303 
0.327412 0.12088 0.857891 0.499057 0.874853 
0.946303 0.720181 0.743367 0.129168 0.157151 
0.557504 0.933015 0.502142 0.841518 0.368819 
0.498215 0.135074 0.590668 0.800991 0.159598 
0.102498 0.758504 0.339774 0.462226 0.695268 
0.778442 0.722676 0.774431 0.266648 0.574734 
0.144643 0.175093 0.227002 0.0159636 0.275205 
0.696914 0.636891 0.889197 0.114932 0.6133 
0.896702 0.0838322 0.670758 0.72287 0.626729 
0.699851 0.910245 0.591637 0.816185 0.773417 
0.695591 0.212618 0.477217 0.944138 0.147102 
0.585853 0.848364 0.863976 0.515928 0.062022 
0.418883 0.612903 0.368078 0.676392 0.110104 
0.0280715 0.430332 0.3378 0.812383 0.788474 
0.0649574 0.479945 0.241674 0.968144 0.504079 
0.123835 0.329678 0.449066 0.694208 0.0730541 
0.609192 0.831285 0.726261 0.637916 0.937281 
0.254251 0.573842 0.681277 0.846019 0.00419349 
0.266095 0.802972 0.378236 0.431146 0.781768 
0.132453 0.747439 0.0274565 0.483148 0.502178 
0.152801 0.0387745 0.10953 0.0571963 0.0729812 
0.221198 0.314401 0.580449 0.450303 0.756534 
0.679076 0.461593 0.162118 0.734735 0.150017 
0.934903 0.0097615 0.150784 0.860452 0.019938 
0.840552 0.225813 0.499846 0.380291 0.313397 
0.655701 0.630817 0.335189 0.258542 0.786237 
0.533401 0.145154 0.0661822 0.452892 0.600954 
0.914221 0.376763 0.134496 0.0563581 0.915554 
0.697749 0.506772 0.865907 0.36082 0.868326 
0.295505 0.719725 0.995002 0.918316 0.810011 
0.00602302 0.128243 0.580385 0.64302 0.738037 
0.44392 0.565325 0.0100473 0.647304 0.959814 
0.0308494 0.264762 0.442525 0.292359 0.144616 
0.993025 0.156197 0.499818 0.465193 0.0898643 
0.468235 0.686665 0.569321 0.68306 0.503732 
0.373216 0.102863 0.255065 0.265937 0.0798105 
0.156731 0.0883194 0.228681 0.545867 0.575168 
0.122865 0.761979 0.477141 0.199579 0.261606 
0.424173 0.0704302 0.712662 0.60152 0.45948 
0.700808 0.0918917 0.262832 0.927758 0.971915 
0.719325 0.380152 0.27512 0.989851 0.653744 
0.318908 0.312651 0.635641 0.512176 0.938787 
0.48609 0.792567 0.0281272 0.376475 0.46648 
0.394871 0.482381 0.147373 0.200722 0.419395 
0.156264 0.372053 0.802602 0.832956 0.225047 
0.171463 0.921836 0.391547 0.833442 0.890412 
0.785821 0.76998 0.447167 0.367252 0.898353 
0.957954 0.0321967 0.665206 0.675044 0.766324 
0.229026 0.813196 0.161041 0.0874386 0.80591 
0.51917 0.232147 0.12043 0.269829 0.654318 
0.347876 0.751364 0.787157 0.66251 0.389143 
0.222358 0.530408 0.636688 0.930511 0.296714 
0.173199 0.0649312 0.389968 0.119424 0.610453 
0.783178 0.770806 0.971882 0.522953 0.462278 
0.00552038 0.648834 0.438803 0.643809 0.254755 
0.00439411 0.323638 0.260502 0.874675 0.168282 
0.159281 0.154096 0.448297 0.66281 0.384447 
0.358597 0.301568 0.230393 0.734268 0.229404 
0.932423 0.405203 0.0262012 0.687659 0.464373 
0.713348 0.402132 0.233827 0.0583496 0.981134 
0.693569 0.393532 0.0993004 0.426577 0.579822 
0.0403533 0.404285 0.0614118 0.870017 0.183761 
0.0571325 0.278129 0.631776 0.159384 0.0181119 
0.709606 0.858091 0.177283 0.245491 0.759271 
0.836839 0.36628 0.244953 0.443854 0.720869 
0.858877 0.966432 0.83637 0.0477741 0.00327496 
0.928462 0.168106 0.252833 0.509865 0.710227 
0.286577 0.484723 0.963676 0.139265 0.967937 
0.784938 0.0323807 0.403209 0.914696 0.832268 
0.670803 0.104927 0.840192 0.370999 0.874244 
0.566134 0.370325 0.173636 0.345704 0.675211 
0.606607 0.513373 0.556933 0.320565 0.50386 
0.0424151 0.73729 0.476345 0.624343 0.944218 
0.304332 0.7986 0.996045 0.506828 0.245417 
0.322008 0.627574 0.285715 0.184652 0.180189 
0.627835 0.936632 0.324366 0.883839 0.213394 
0.85892 0.591212 0.938792 0.0148236 0.804873 
0.822342 0.911662 0.148882 0.870328 0.578834 
0.284947 0.508678 0.949414 0.437797 0.167043 
0.198108 0.723392 0.378121 0.866028 0.571848 
0.612989 0.293665 0.783919 0.492411 0.264007 
0.657526 0.982006 0.821695 0.390915 0.807168 
0.130457 0.0715688 0.213341 0.380861 0.324836 
0.775828 0.820253 0.876074 0.144885 0.791683 
0.591685 0.658412 0.0335425 0.873397 0.717827 
0.716241 0.893017 0.215436 0.302527 0.352867 
0.788073 0.22763 0.116423 0.700817 0.226166 
0.681158 0.606025 0.721696 0.151754 0.495809 
0.732747 0.0509007 0.767495 0.106817 0.880348 
0.331936 0.544836 0.26626 0.20838 0.623413 
0.990495 0.56137 0.555782 0.267556 0.730908 
0.328374 0.194454 0.491115 0.349941 0.452875 
0.726093 0.492555 0.383705 0.557141 0.00653896 
0.850138 0.45117 0.894355 0.686562 0.698965 
0.438811 0.879576 0.303224 0.566527 0.789765 
0.267871 0.684577 0.347637 0.61647 0.942935 
0.994802 0.852955 0.859255 0.80223 0.761443 
0.391888 0.572993 0.214635 0.573688 0.10032 
0.883318 0.399628 0.706003 0.222826 0.82764 
0.887783 0.544012 0.352661 0.92197 0.183435 
0.113619 0.772213 0.828183 0.972968 0.0582412 
0.968873 0.243139 0.421714 0.307031 0.762965 
0.359793 0.667254 0.0599197 0.860383 0.0274586 
0.200174 0.593703 0.410532 0.872632 0.00508701 
0.729477 0.458768 0.407007 0.526288 0.482318 
0.935654 0.0695021 0.102635 0.224649 0.858829 
0.634956 0.612685 0.75464 0.319106 0.00995168 
0.954893 0.199965 0.78745 0.177006 0.0518115 
0.375537 0.797694 0.0551434 0.602801 0.728986 
0.345227 0.274241 0.40942 0.462974 0.487696 
0.0208656 0.917987 0.984846 0.239978 0.864695 
0.414877 0.417161 0.534963 0.922499 0.317391 
0.7316 0.674981 0.537152 0.840628 0.749601 
0.722715 0.444211 0.836852 0.428884 0.619223 
0.876529 0.758022 0.314598 0.891583 0.0333522 
0.621437 0.00124079 0.00149598 0.124768 0.76863 
0.671603 0.283141 0.0570042 0.591301 0.598656 
0.0539599 0.137466 0.836174 0.999493 0.904497 
0.01562 0.402303 0.156868 0.897119 0.91152 
0.118006 0.379748 0.380345 0.809598 0.20675 
0.46215 0.156227 0.0895034 0.682294 0.608251 
0.417179 0.282023 0.399498 0.948682 0.973649 
0.779234 0.348885 0.52799 0.260825 0.318402 
0.285735 0.526396 0.930354 0.849883 0.460758 
0.694373 0.505074 0.540415 0.0335431 0.999409 
0.572975 0.794122 0.877343 0.527044 0.0325997 
0.5025 0.12611 0.055343 0.32259 0.331654 
0.0396024 0.355191 0.315012 0.380998 0.550087 
0.381577 0.939467 0.0216537 0.686204 0.573467 
0.623739 0.0786525 0.905513 0.645265 0.477125 
0.605875 0.853512 0.0676504 0.605364 0.25954 
0.722744 0.142659 0.534626 0.767589 0.849096 
0.167979 0.186536 0.838159 0.108739 0.588288 
0.953671 0.89851 0.174445 0.920711 0.454801 
0.683356 0.865343 0.407776 0.416523 0.519309 
0.3796 0.771752 0.245284 0.559474 0.0212446 
0.463195 0.676234 0.421562 0.204068 0.611634 
0.512724 0.0917355 0.64636 0.828614 0.115046 
0.041599 0.436472 0.196206 0.316664 0.777093 
0.942533 0.718692 0.51737 0.634987 0.104605 
0.229152 0.0927859 0.219369 0.388625 0.887702 
0.876787 0.267526 0.61946 0.839071 0.993066 
0.346214 0.595674 0.77812 0.149658 0.652166 
0.203653 0.00265 0.682584 0.83729 0.252154 
0.804703 0.749119 0.661022 0.837589 0.32358 
0.328031 0.654948 0.384914 0.577071 0.19838 
0.918231 0.00587765 0.365447 0.118351 0.994746 
0.742792 0.46302 0.857585 0.449622 0.565566 
0.391748 0.732205 0.222767 0.583263 0.61246 
0.755051 0.00467696 0.379599 0.486093 0.712234 
0.17531 0.155981 0.367265 0.0635837 0.35487 
0.0258295 0.687978 0.920405 0.296427 0.65441 
0.85381 0.514696 0.789859 0.65766 0.881046 
0.356309 0.573025 0.854946 0.180948 0.96133 
0.765877 0.021271 0.327136 0.91376 0.876579 
0.853987 0.217165 0.355904 0.662876 0.0303356 
0.278629 0.865895 0.222793 0.496207 0.750631 
0.369612 0.981846 0.47637 0.646674 0.0734838 
0.0119293 0.57577 0.689882 0.797165 0.522537 
0.53062 0.376694 0.626615 0.27501 0.453347 
0.97232 0.908439 0.652484 0.163855 0.71833 
0.577622 0.786379 0.229508 0.530923 0.812564 
0.917325 0.161877 0.786572 0.269609 0.959476 
0.536314 0.177071 0.790792 0.894081 0.348312 
0.446828 0.643849 0.85513 0.796173 0.790384 
0.324572 0.347319 0.170098 0.20936 0.818888 
0.182071 0.140302 0.511771 0.55541 0.88549 
0.148745 0.0239576 0.332237 0.877916 0.544529 
0.258143 0.552892 0.410529 0.702536 0.164569 
0.123407 0.670004 0.474151 0.107924 0.629763 
0.756283 0.0656061 0.190342 0.0253412 0.143973 
0.476689 0.080752 0.155067 0.864389 0.802472 
0.0904225 0.454494 0.851676 0.786891 0.358882 
0.521832 0.898938 0.920241 0.0928309 0.662649 
0.354041 0.140851 0.49108 0.687372 0.556929 
0.329013 0.207731 0.407771 0.876736 0.00962672 
0.322715 0.402891 0.95359 0.684308 0.297141 
0.986916 0.0153135 0.66474 0.621691 0.826087 
0.293168 0.18429 0.300317 0.161552 0.669708 
0.613936 0.926865 0.821321 0.263428 0.137482 
0.761707 0.178851 0.490762 0.0705234 0.231793 
0.0310584 0.691147 0.274166 0.687497 0.0301983 
0.895183 0.658735 0.54904 0.171737 0.584554 
0.303054 0.983056 0.425098 0.564423 0.369874 
0.999972 0.0569825 0.821117 0.371921 0.727385 
0.522175 0.220664 0.910207 0.978513 0.618941 
0.737547 0.36068 0.853434 0.512484 0.281728 
0.638063 0.655168 0.210911 0.134068 0.683264 
0.147936 0.114061 0.95023 0.199768 0.599101 
0.493935 0.204577 0.150105 0.591272 0.163125 
0.465877 0.677755 0.808168 0.047892 0.927458 
0.430892 0.635901 0.944319 0.121432 0.684455 
0.692903 0.148608 0.0280348 0.714415 0.674342 
0.959967 0.982159 0.189539 0.428719 0.290198 
0.519933 0.673963 0.738108 0.464642 0.0310058 
0.0377399 0.602775 0.427619 0.676148 0.310217 
0.492086 0.322946 0.0532334 0.348207 0.578403 
0.295391 0.240512 0.192694 0.255936 0.428491 
0.586216 0.728771 0.946664 0.446723 0.386595 
0.941964 0.581661 0.878164 0.0574798 0.831773 
0.461241 0.935195 0.448102 0.0587021 0.523461 
0.107084 0.452188 0.0508571 0.2452 0.722053 
0.470667 0.744907 0.698839 0.794226 0.996898 
0.761621 0.0474249 0.296502 0.997733 0.55853 
0.743345 0.156723 0.0893553 0.792726 0.514185 
0.134505 0.257228 0.701536 0.143748 0.380344 
0.509914 0.80763 0.980056 0.443201 0.815802 
0.726773 0.157888 0.54921 0.298098 0.698339 
0.399331 0.647716 0.642866 0.149969 0.656096 
0.186811 0.573717 0.501359 0.573882 0.38971 
0.763047 0.887716 0.921065 0.773363 0.0631657 
0.120264 0.359972 0.159217 0.21668 0.421277 
0.318854 0.603034 0.143615 0.193624 0.38152 
0.537698 0.660394 0.474391 0.453976 0.382388 
0.287738 0.289005 0.385969 0.47691 0.700958 
0.0209705 0.673375 0.159157 0.521105 0.346566 
0.564049 0.25576 0.888199 0.652826 0.974522 
0.15353 0.369374 0.363549 0.183774 0.427238 
0.782752 0.156045 0.569029 0.531981 0.459914 
0.32099 0.297479 0.763657 0.258946 0.926919 
0.506932 0.422754 0.86998 0.843556 0.58426 
0.138027 0.804855 0.94433 0.982038 0.387171 
0.0836555 0.324759 0.635685 0.7854 0.576861 
0.100856 0.837573 0.0257378 0.483327 0.871135 
0.199778 0.987529 0.276607 0.263507 0.0994579 
0.963865 0.50638 0.391868 0.0619573 0.967941 
0.201603 0.37915 0.499684 0.330763 0.361881 
0.288384 0.258252 0.309908 0.410081 0.709802 
0.552904 0.38976 0.859806 0.969652 0.429417 
0.569445 0.734194 0.361508 0.460334 0.61836 
0.225859 0.453967 0.826267 0.281948 0.691825 
0.849015 0.767244 0.240834 0.60653 0.34434 
0.974165 0.867404 0.227094 0.777517 0.442856 
0.0691102 0.408772 0.0506792 0.586954 0.482807 
0.044064 0.197088 0.142989 0.884748 0.23354 
0.723955 0.598441 0.0176899 0.218401 0.949727 
0.764032 0.366011 0.200627 0.93117 0.710538 
0.473001 0.0254229 0.64786 0.741397 0.659745 
0.927502 0.385984 0.787016 0.424144 0.265863 
0.0834306 0.519618 0.499203 0.21986 0.106373 
0.145276 0.636805 0.656434 0.212021 0.856899 
0.933462 0.544486 0.272033 0.342378 0.362763 
0.22177 0.7775 0.589231 0.642718 0.636384 
0.539096 0.63313 0.18946 0.275497 0.120558 
0.977353 0.0338833 0.357113 0.924349 0.718045 
0.48121 0.0897529 0.32302 0.720515 0.704415 
0.238098 0.550903 0.796673 0.0502656 0.945739 
0.757161 0.433838 0.322019 0.724064 0.732849 
0.656904 0.0191226 0.441924 0.0821971 0.683122 
0.209262 0.735672 0.215888 0.929965 0.0120106 
0.266907 0.954219 0.784563 0.439928 0.999804 
0.298676 0.632779 0.586029 0.761551 0.248148 
0.519913 0.18646 0.00727234 0.952827 0.836379 
0.340545 0.414791 0.833402 0.632731 0.878392 
0.375836 0.286993 0.651688 0.489279 0.235043 
0.976948 0.14705 0.377319 0.990313 0.189571 
0.99073 0.0457203 0.692806 0.627674 0.998435 
0.0600846 0.755615 0.775034 0.135887 0.25184 
0.215001 0.492712 0.184438 0.539917 0.547135 
0.5492 0.241419 0.895799 0.261569 0.00199446 
0.0682279 0.0543919 0.40637 0.14567 0.590233 
0.747162 0.651627 0.899963 0.756833 0.0113264 
0.18591 0.983869 0.842857 0.943636 0.356135 
0.7314 0.637832 0.569676 0.850374 0.569181 
0.00917503 0.947318 0.93772 0.157157 0.56219 
0.603066 0.306126 0.710355 0.703482 0.996456 
0.915133 0.63657 0.0532006 0.397849 0.383688 
0.184644 0.359163 0.0808163 0.838324 0.107142 
0.622525 0.648521 0.739621 0.919708 0.387715 
0.201538 0.842677 0.375242 0.825021 0.539272 
0.838511 0.6378 0.654884 0.626776 0.110003 
0.185879 0.720561 0.431083 0.916517 0.937629 
0.347428 0.447994 0.91871 0.534542 0.74725 
0.471296 0.734492 0.838626 0.420263 0.544349 
0.395397 0.961029 0.896851 0.101306 0.734653 
0.164749 0.0136057 0.491636 0.112458 0.00127898 
