2300 5
0.498816 0.448304 0.809206 0.537322 0.5401 
0.760851 0.0457508 0.531878 0.818753 0.968756 
0.453299 0.687251 0.384428 0.239793 0.794067 
0.698236 0.0559433 0.155272 0.707347 0.375992 
0.931577 0.431738 0.149541 0.349147 0.52529 
0.790622 0.204003 0.592553 0.318966 0.339806 
0.0635408 0.8145 0.385127 0.159541 0.385843 
0.484568 0.784822 0.829693 0.285484 0.183711 
0.0101558 0.366738 0.477415 0.101892 0.73332 
0.508518 0.273357 0.645968 0.91464 0.215479 
0.699674 0.99337 0.290047 0.657255 0.149839 
0.111494 0.0811012 0.0306221 0.600309 0.00237612 
0.760388 0.372596 0.414608 0.0449249 0.249884 
0.2478 0.113452 0.0233236 0.626129 0.0376254 
0.302169 0.207361 0.38571 0.322134 0.636306 
0.247159 0.305441 0.635761 0.758549 0.00707289 
0.405105 0.470293 0.189976 0.00416609 0.975135 
0.442817 0.255284 0.764745 0.696083 0.430763 
0.714908 0.162959 0.999311 0.41282 0.570798 
0.0849334 0.0853956 0.122858 0.451015 0.72262 
0.225773 0.777015 0.617689 0.675675 0.883026 
0.905368 0.2785 0.593394 0.778594 0.78896 
0.165175 0.666389 0.890074 0.510655 0.894351 
0.0843075 0.63312 0.740544 0.615316 0.261813 
0.987333 0.168686 0.0868361 0.855969 0.56694 
0.6096 0.529243 0.644852 0.155789 0.0198933 
0.300629 0.425448 0.0345923 0.896135 0.341823 
0.429137 0.158782 0.933053 0.44988 0.492326 
0.0268874 0.111958 0.853199 0.199132 0.65189 
0.150702 0.805199 0.103977 0.127625 0.36334 
0.481703 0.349999 0.322896 0.504041 0.490913 
0.0533734 0.90668 0.241166 0.0960076 0.739858 
0.320486 0.711904 0.813122 0.831073 0.278749 
0.994246 0.680621 0.735456 0.661195 0.16447 
0.223216 0.150582 0.843057 0.987889 0.58892 
0.263404 0.661346 0.409004 0.867462 0.034869 
0.86838 0.753675 0.115195 0.12041 0.100354 
0.992978 0.120117 0.328873 0.439289 0.66369 
0.560586 0.467278 0.0153778 0.107841 0.534877 
0.30696 0.801604 0.300453 0.726047 0.995245 
0.635657 0.925509 0.780063 0.522593 0.199364 
0.860215 0.713396 0.570766 0.162366 0.475145 
0.0334403 0.940938 0.44764 0.676611 0.541045 
0.585077 0.929028 0.491565 0.631771 0.158024 
0.0440762 0.457287 0.668286 0.709961 0.979314 
0.97875 0.437494 0.886565 0.958241 0.0399798 
0.504453 0.75615 0.224385 0.873253 0.730614 
0.384329 0.179946 0.2157 0.545231 0.84538 
0.852233 0.770271 0.138552 0.805249 0.602674 
0.193559 0.908055 0.409464 0.663441 0.0285817 
0.865221 0.170496 0.133275 0.00488417 0.644423 
0.653783 0.956213 0.804793 0.593345 0.163475 
0.534899 0.9625 0.914735 0.72471 0.330944 
0.0614595 0.0233026 0.935328 0.88665 0.135594 
0.784407 0.0723465 0.420974 0.675906 0.959593 
0.941489 0.813297 0.559532 0.0180293 0.337956 
0.533939 0.572803 0.662834 0.110922 0.460227 
0.942679 0.64312 0.886587 0.319329 0.719821 
0.899855 0.350453 0.58886 0.095713 0.508803 
0.563732 0.337618 0.781672 0.330028 0.0215043 
0.678036 0.459778 0.767747 0.848155 0.950753 
0.82638 0.078972 0.367237 0.659344 0.297359 
0.350285 0.397923 0.938449 0.706419 0.155128 
0.191064 0.403078 0.869702 0.891543 0.035394 
0.00804556 0.159552 0.551083 0.0506625 0.138306 
0.0545067 0.526237 0.916699 0.0839158 0.26448 
0.572017 0.235902 0.107851 0.62726 0.891183 
0.153139 0.994072 0.17538 0.262291 0.687749 
0.890286 0.518286 0.175854 0.606212 0.804976 
0.570029 0.967644 0.876877 0.0834626 0.473565 
0.434071 0.766414 0.538426 0.693057 0.852334 
0.222019 0.695538 0.542563 0.488387 0.0898246 
0.493857 0.544688 0.849185 0.269337 0.977061 
0.83616 0.865305 0.071262 0.109283 0.569353 
0.642205 0.759405 0.143632 0.439113 0.233522 
0.913665 0.798031 0.368041 0.166214 0.647402 
0.73766 0.0660077 0.877801 0.964355 0.799982 
0.725866 0.614126 0.667039 0.396064 0.149323 
0.617511 0.862223 0.88495 0.957439 0.266108 
0.97639 0.459002 0.31537 0.0687533 0.410069 
0.572718 0.158071 0.570567 0.710374 0.240589 
0.329823 0.193415 0.141771 0.0766531 0.749783 
0.516479 0.907668 0.659726 0.817373 0.767009 
0.281607 0.380653 0.0892154 0.282139 0.63649 
0.4813 0.56509 0.948211 0.744544 0.402865 
0.241242 0.435454 0.741235 0.22406 0.97126 
0.620524 0.100582 0.702623 0.248327 0.818508 
0.227402 0.37109 0.271526 0.908574 0.892942 
0.68012 0.995188 0.326982 0.654712 0.28282 
0.744375 0.65061 0.502765 0.679643 0.782865 
0.91072 0.415353 0.889883 0.121932 0.530931 
0.0597107 0.702932 0.317466 0.628875 0.957117 
0.399622 0.966287 0.295836 0.465219 0.212538 
0.204992 0.583506 0.250817 0.663735 0.860673 
0.429411 0.723857 0.0328651 0.686874 0.50911 
0.881151 0.72433 0.587888 0.202562 0.863643 
0.249224 0.17682 0.736304 0.322298 0.802091 
0.30021 0.169725 0.00179782 0.97805 0.751086 
0.42738 0.905105 0.760634 0.740209 0.371384 
0.88975 0.0469226 0.703189 0.996697 0.906932 
0.612183 0.0818245 0.772095 0.273121 0.0562055 
0.394364 0.412908 0.363135 0.0475102 0.496455 
0.562518 0.728968 0.96581 0.376723 0.856021 
0.328798 0.820746 0.528498 0.663363 0.194424 
0.462517 0.479782 0.186021 0.918482 0.317479 
0.692314 0.958099 0.124297 0.613804 0.249361 
0.236068 0.507999 0.691773 0.890816 0.0878905 
0.631664 0.547006 0.532509 0.59316 0.00488168 
0.601827 0.542589 0.74451 0.387051 0.592803 
0.327409 0.600307 0.803128 0.38523 0.344605 
0.951907 0.501081 0.0672153 0.873786 0.964994 
0.742064 0.888077 0.893707 0.243522 0.310034 
0.971891 0.904478 0.882593 0.969622 0.0417435 
0.727385 0.419799 0.955747 0.383644 0.101755 
0.109828 0.115673 0.0959143 0.582976 0.163207 
0.251117 0.189964 0.870987 0.460445 0.603877 
0.932841 0.0621431 0.197802 0.145437 0.326923 
0.620817 0.539712 0.798066 0.121369 0.671248 
0.558982 0.826237 0.561359 0.314504 0.932217 
0.174167 0.580294 0.707555 0.501382 0.476221 
0.607892 0.00610811 0.624567 0.611219 0.776344 
0.805649 0.684424 0.0950876 0.0671453 0.295737 
0.0677005 0.334626 0.0395667 0.707072 0.762832 
0.504702 0.253609 0.785944 0.225956 0.746172 
0.833008 0.0810956 0.500498 0.269415 0.543362 
0.290261 0.34283 0.644338 0.198465 0.368753 
0.697641 0.292375 0.6598 0.819301 0.566164 
0.981706 0.292113 0.986997 0.827954 0.57808 
0.833202 0.21493 0.302832 0.899949 0.761263 
0.758572 0.334239 0.480757 0.797671 0.943009 
0.892587 0.0168083 0.60323 0.745076 0.656941 
0.901287 0.0966253 0.849263 0.97174 0.175329 
0.542748 0.209127 0.0798821 0.816518 0.535903 
0.0136149 0.179753 0.0731601 0.111888 0.707913 
0.0724986 0.633506 0.0196121 0.739905 0.569357 
0.23805 0.468439 0.341006 0.0556018 0.927546 
0.19397 0.0845852 0.250955 0.718986 0.172363 
0.160949 0.753619 0.0333013 0.0216645 0.227386 
0.643341 0.413258 0.748555 0.247324 0.121341 
0.454149 0.441642 0.62669 0.158168 0.343859 
0.45744 0.0800345 0.137131 0.79194 0.0444212 
0.807002 0.540492 0.33987 0.40147 0.76371 
0.960581 0.357127 0.406962 0.113964 0.580301 
0.47352 0.582406 0.209808 0.00967409 0.286339 
0.716408 0.326576 0.940381 0.569546 0.167852 
0.750957 0.607715 0.88226 0.293289 0.774977 
0.584628 0.95494 0.789107 0.838184 0.808301 
0.0309229 0.0717918 0.965579 0.786048 0.217853 
0.0344454 0.143941 0.569091 0.877126 0.596853 
0.899477 0.409465 0.882543 0.749372 0.516608 
0.224577 0.324565 0.314451 0.351952 0.771314 
0.835706 0.757114 0.339196 0.648251 0.376996 
0.440376 0.799653 0.60086 0.667035 0.965516 
0.754712 0.897684 0.831822 0.510255 0.260962 
0.429269 0.599745 0.498702 0.108381 0.428498 
0.575186 0.914448 0.264764 0.865093 0.292848 
0.629244 0.122488 0.854106 0.267997 0.971297 
0.537509 0.71201 0.60277 0.194764 0.585047 
0.258685 0.792364 0.791651 0.0528352 0.417233 
0.888657 0.982391 0.638784 0.212978 0.776941 
0.480463 0.373696 0.377047 0.188139 0.156984 
0.618309 0.581645 0.234439 0.505917 0.457238 
0.294491 0.548288 0.592891 0.0431449 0.906997 
0.871972 0.0269779 0.122051 0.88039 0.430068 
0.955611 0.598032 0.728609 0.254647 0.377837 
0.927845 0.476657 0.443632 0.96728 0.903908 
0.178191 0.750707 0.423995 0.833569 0.43798 
0.621909 0.538251 0.812177 0.850396 0.0793112 
0.930324 0.753361 0.708053 0.776386 0.27711 
0.756624 0.475947 0.177572 0.434734 0.454467 
0.465885 0.852191 0.307317 0.875521 0.0483435 
0.968753 0.483094 0.31513 0.616772 0.512341 
0.462429 0.945569 0.271512 0.37409 0.908227 
0.0630023 0.277817 0.669792 0.0202787 0.510794 
0.463311 0.863505 0.233936 0.667603 0.520408 
0.888121 0.835005 0.520797 0.236001 0.0626861 
0.929198 0.961412 0.326772 0.137939 0.497954 
0.822788 0.0674297 0.593283 0.68107 0.985012 
0.124749 0.893012 0.798727 0.0930352 0.183755 
0.462136 0.552602 0.696176 0.212774 0.630042 
0.0302212 0.211089 0.536925 0.148958 0.455161 
0.0111747 0.847018 0.645419 0.309774 0.0404795 
0.563983 0.657611 0.609548 0.224646 0.990868 
0.742993 0.147644 0.209783 0.808335 0.516457 
0.498341 0.491646 0.008374 0.348202 0.232445 
0.214374 0.134132 0.737081 0.88768 0.0038139 
0.17968 0.310597 0.547628 0.445405 0.252857 
0.0705806 0.301951 0.211835 0.147179 0.720464 
0.848149 0.684166 0.354959 0.740411 0.263785 
0.261672 0.893919 0.889029 0.738936 0.623762 
0.526728 0.0556327 0.385714 0.329628 0.889284 
0.562463 0.034845 0.17689 0.408123 0.282678 
0.00703064 0.200965 0.288145 0.78147 0.425824 
0.334937 0.217831 0.05311 0.116834 0.595402 
0.776219 0.487873 0.180222 0.259094 0.45316 
0.455112 0.399351 0.0975149 0.828832 0.622458 
0.242483 0.419317 0.487355 0.857378 0.363776 
0.768022 0.456677 0.0664918 0.175626 0.945534 
0.0383288 0.67815 0.886204 0.664244 0.873657 
0.755266 0.73254 0.739093 0.0900791 0.793036 
0.732692 0.361505 0.972929 0.752255 0.848984 
0.996598 0.486055 0.456455 0.528277 0.511073 
0.0550457 0.358377 0.769805 0.544699 0.346768 
0.395245 0.556294 0.65557 0.41359 0.867525 
0.226712 0.36151 0.284606 0.680432 0.62217 
0.513816 0.945298 0.804381 0.279225 0.817351 
0.311191 0.840357 0.729877 0.777959 0.769102 
0.173905 0.705261 0.76651 0.552136 0.951544 
0.515515 0.392713 0.118355 0.364975 0.409558 
0.785875 0.362549 0.358448 0.398887 0.0525187 
0.395125 0.0674277 0.96018 0.365964 0.42241 
0.586452 0.679926 0.473981 0.607431 0.676463 
0.107309 0.799291 0.658789 0.516824 0.300213 
0.377575 0.556879 0.877774 0.267717 0.348148 
0.618012 0.184429 0.125426 0.889645 0.792493 
0.747942 0.75518 0.553131 0.914251 0.671656 
0.930041 0.603801 0.824742 0.0766778 0.422507 
0.708272 0.729137 0.0803632 0.877976 0.841943 
0.0566925 0.540405 0.267711 0.523595 0.987307 
0.941795 0.701969 0.766882 0.624358 0.400015 
0.572215 0.398157 0.786862 0.263598 0.504923 
0.414971 0.553182 0.288084 0.983943 0.0126917 
0.241196 0.194159 0.791339 0.371634 0.348151 
0.218452 0.690561 0.766919 0.410506 0.0955903 
0.937715 0.612619 0.667024 0.757401 0.0962207 
0.345445 0.304482 0.539722 0.557328 0.47379 
0.137814 0.152406 0.371341 0.623951 0.0627311 
0.072369 0.888535 0.582103 0.591472 0.730657 
0.767555 0.72004 0.732021 0.257753 0.258988 
0.541311 0.347643 0.839995 0.430803 0.104133 
0.228698 0.833265 0.900807 0.416754 0.497516 
0.681551 0.0176144 0.0744253 0.39574 0.834593 
0.562604 0.631642 0.93614 0.326644 0.197724 
0.834807 0.0479179 0.111357 0.571767 0.129055 
0.564447 0.349273 0.222265 0.756411 0.175509 
0.993408 0.555318 0.314455 0.979052 0.113674 
0.787806 0.157291 0.510415 0.89417 0.290327 
0.54006 0.119291 0.528894 0.670714 0.745938 
0.116108 0.0321564 0.703535 0.583654 0.206203 
0.298468 0.628284 0.292432 0.0170656 0.230298 
0.897711 0.0301154 0.663924 0.980435 0.4759 
0.478046 0.357949 0.922363 0.942902 0.779629 
0.342862 0.479625 0.750609 0.832164 0.628459 
0.853889 0.219211 0.599914 0.221319 0.395778 
0.515193 0.456873 0.436342 0.306349 0.482332 
0.809532 0.656869 0.365597 0.964229 0.799397 
0.458467 0.0778192 0.229182 0.910216 0.557249 
0.609394 0.590345 0.0483211 0.909998 0.922009 
0.101948 0.432981 0.640441 0.43881 0.0732261 
0.569319 0.586557 0.23704 0.994337 0.779006 
0.356991 0.672714 0.34664 0.936367 0.636112 
0.999962 0.954518 0.747743 0.66566 0.766335 
0.921928 0.303058 0.0583086 0.982751 0.0492936 
0.631379 0.836457 0.748769 0.83305 0.617188 
0.409496 0.896655 0.38443 0.325273 0.554224 
0.129309 0.957924 0.238989 0.356455 0.97357 
0.619724 0.0176381 0.490292 0.391374 0.180288 
0.900822 0.459387 0.0457746 0.601362 0.76814 
0.184452 0.588003 0.890452 0.790165 0.0752868 
0.714878 0.0255206 0.774629 0.777602 0.564592 
0.0819093 0.20292 0.52186 0.631366 0.0679752 
0.580509 0.199536 0.183779 0.848759 0.750008 
0.724527 0.744189 0.0192162 0.623431 0.208636 
0.07217 0.977146 0.530583 0.290173 0.659208 
0.820243 0.959007 0.0602074 0.757451 0.966728 
0.197126 0.966867 0.374253 0.274467 0.484895 
0.825167 0.115451 0.83467 0.727721 0.106217 
0.553121 0.392905 0.645146 0.780426 0.0354456 
0.783492 0.244178 0.603426 0.738304 0.285787 
0.24618 0.456744 0.581044 0.761275 0.700646 
0.948714 0.884066 0.122604 0.535083 0.021579 
0.497101 0.386598 0.390292 0.184973 0.548117 
0.451619 0.331196 0.412758 0.926954 0.438341 
0.805109 0.75456 0.496621 0.022822 0.177679 
0.48227 0.802476 0.385833 0.378856 0.820997 
0.727639 0.90037 0.48885 0.921422 0.316737 
0.459568 0.619655 0.600285 0.48931 0.324399 
0.674152 0.738362 0.175833 0.26787 0.832057 
0.546075 0.150636 0.857639 0.144634 0.901849 
0.646225 0.0674097 0.34897 0.28118 0.5486 
0.680947 0.484529 0.841185 0.496905 0.544795 
0.942728 0.481815 0.19147 0.243262 0.74318 
0.119624 0.581794 0.233609 0.518984 0.667275 
0.5389 0.912501 0.287347 0.858602 0.447398 
0.757715 0.448705 0.13521 0.346941 0.00786138 
0.729794 0.920551 0.491085 0.855487 0.799794 
0.035849 0.939179 0.485253 0.869382 0.976854 
0.859167 0.331354 0.783364 0.381261 0.0880601 
0.973527 0.224836 0.197574 0.060753 0.714902 
0.41737 0.607432 0.0996919 0.304074 0.625953 
0.528376 0.41962 0.000403524 0.0314984 0.413037 
0.0704648 0.63257 0.256531 0.542455 0.125799 
0.501343 0.986359 0.507245 0.544582 0.0589333 
0.94903 0.126849 0.437717 0.506404 0.0986233 
0.0570537 0.656497 0.572994 0.577522 0.521311 
0.0798499 0.64735 0.256126 0.230997 0.71705 
0.262373 0.548863 0.923186 0.813494 0.484266 
0.0815375 0.714428 0.308104 0.790426 0.207464 
0.53022 0.250712 0.234133 0.32269 0.119798 
0.701516 0.673699 0.0860557 0.783829 0.918833 
0.927656 0.910918 0.348845 0.0788105 0.186405 
0.873687 0.538177 0.972634 0.921242 0.35959 
0.873751 0.623322 0.994568 0.933754 0.133292 
0.388778 0.720022 0.49863 0.436264 0.796435 
0.432439 0.340586 0.70651 0.745548 0.333798 
0.343974 0.644038 0.921824 0.6366 0.472401 
0.628692 0.476484 0.366909 0.123776 0.586553 
0.631123 0.399386 0.556358 0.256007 0.653152 
0.912167 0.456645 0.253385 0.478956 0.524596 
0.696096 0.513492 0.670247 0.502286 0.717509 
0.365951 0.297722 0.305189 0.365966 0.360052 
0.0419001 0.630472 0.792488 0.340668 0.125041 
0.155475 0.236945 0.018379 0.316867 0.848365 
0.683405 0.912731 0.490017 0.336422 0.0387491 
0.566465 0.358332 0.255203 0.252972 0.173565 
0.474706 0.944298 0.68537 0.741227 0.845274 
0.903725 0.464651 0.401614 0.846311 0.183604 
0.716811 0.130894 0.35097 0.974415 0.84644 
0.363946 0.964326 0.106311 0.955708 0.0288664 
0.0965725 0.161451 0.654598 0.906579 0.506258 
0.766588 0.00885621 0.337761 0.644229 0.979361 
0.78172 0.676439 0.0880428 0.603644 0.405886 
0.807624 0.167498 0.196585 0.667575 0.82766 
0.0821167 0.0504605 0.424513 0.997649 0.123328 
0.578432 0.22711 0.278459 0.3958 0.0826632 
0.378651 0.83549 0.140765 0.510932 0.443848 
0.199504 0.893111 0.838843 0.35432 0.11842 
0.0493211 0.0871835 0.961113 0.80988 0.790642 
0.346123 0.929903 0.154319 0.794012 0.920545 
0.433305 0.125844 0.240921 0.586733 0.27115 
0.929187 0.532623 0.879471 0.368895 0.569004 
0.24022 0.190001 0.865425 0.241851 0.075938 
0.807641 0.18443 0.819113 0.877262 0.7952 
0.670472 0.943373 0.93798 0.771942 0.148328 
0.493368 0.666693 0.320846 0.890638 0.070146 
0.455423 0.631689 0.245153 0.920145 0.760307 
0.421935 0.0603126 0.694651 0.597195 0.811385 
0.76304 0.191314 0.940424 0.98081 0.359907 
0.038059 0.373432 0.642033 0.647443 0.872753 
0.0546978 0.61185 0.0488123 0.383652 0.610129 
0.931758 0.892744 0.262389 0.432901 0.830432 
0.848159 0.70639 0.156935 0.934441 0.673524 
0.432097 0.571636 0.161688 0.960171 0.477373 
0.0241072 0.988361 0.652045 0.937162 0.551473 
0.207376 0.862969 0.17567 0.458191 0.434236 
0.025643 0.0771691 0.179189 0.436721 0.792718 
0.738697 0.916649 0.623226 0.300222 0.754868 
0.00214709 0.267556 0.578471 0.732465 0.898889 
0.256802 0.327229 0.0117276 0.276671 0.527175 
0.650554 0.940813 0.719488 0.989807 0.207319 
0.770077 0.49468 0.356222 0.0826558 0.436631 
0.832427 0.543472 0.966144 0.951821 0.501658 
0.719788 0.248913 0.555626 0.790121 0.694047 
0.930704 0.127762 0.868177 0.385974 0.300408 
0.595602 0.279614 0.114775 0.349913 0.124905 
0.183848 0.0116745 0.665944 0.902687 0.416136 
0.961852 0.378601 0.457654 0.17818 0.729415 
0.424129 0.65763 0.315429 0.217187 0.870191 
0.932254 0.950186 0.69376 0.76848 0.325213 
0.124493 0.465114 0.733506 0.359613 0.173857 
0.559005 0.145089 0.135729 0.168489 0.905623 
0.281167 0.134511 0.619346 0.832503 0.10814 
0.942173 0.054554 0.141379 0.260362 0.350493 
0.892563 0.813644 0.801721 0.68269 0.363899 
0.719534 0.348406 0.468911 0.52872 0.578889 
0.39287 0.994917 0.6731 0.635998 0.0588001 
0.890621 0.94913 0.582137 0.406201 0.425462 
0.166522 0.326846 0.758344 0.824101 0.306037 
0.37968 0.644932 0.929293 0.711905 0.228334 
0.402581 0.631474 0.909082 0.925004 0.321742 
0.715648 0.587233 0.586028 0.774848 0.24609 
0.0761673 0.382262 0.900173 0.109619 0.183639 
0.557097 0.504835 0.760797 0.700539 0.5673 
0.610991 0.667306 0.355757 0.440397 0.98273 
0.946883 0.712508 0.704561 0.345767 0.661618 
0.17983 0.978029 0.236912 0.965145 0.35412 
0.792321 0.448572 0.178203 0.53392 0.955337 
0.749082 0.979786 0.276624 0.991827 0.713847 
0.439025 0.768098 0.817701 0.365795 0.890669 
0.725923 0.809237 0.264098 0.518739 0.172095 
0.847898 0.246647 0.302244 0.274792 0.906175 
0.958646 0.874183 0.342528 0.416682 0.553683 
0.918613 0.933483 0.534355 0.590864 0.877853 
0.492818 0.636482 0.568031 0.152723 0.890085 
0.749172 0.82171 0.933724 0.431702 0.247778 
0.71855 0.550452 0.419186 0.792806 0.588679 
0.149266 0.499542 0.0312482 0.967806 0.881584 
0.790284 0.823599 0.440288 0.0425299 0.219182 
0.0467863 0.384989 0.558318 0.0313422 0.343169 
0.83681 0.0867676 0.135934 0.330606 0.0824063 
0.707655 0.623617 0.208498 0.646655 0.967951 
0.979121 0.176199 0.999298 0.515952 0.493064 
0.278565 0.0537157 0.354894 0.695158 0.189053 
0.360855 0.258009 0.825531 0.527334 0.680762 
0.254642 0.310706 0.96763 0.231802 0.00234836 
0.922484 0.416643 0.328803 0.948862 0.189402 
0.256614 0.965971 0.988414 0.693534 0.872626 
0.32224 0.170901 0.320051 0.733301 0.841476 
0.653903 0.891117 0.621928 0.503966 0.42687 
0.0238152 0.379996 0.30417 0.3907 0.805609 
0.141402 0.382618 0.830584 0.865554 0.637226 
0.329986 0.297735 0.967534 0.784809 0.444273 
0.80441 0.749996 0.513885 0.211601 0.96784 
0.393856 0.111623 0.465949 0.336071 0.187834 
0.482021 0.266253 0.388719 0.293272 0.104267 
0.279578 0.568425 0.444403 0.930227 0.555016 
0.640677 0.87107 0.00106165 0.654306 0.92795 
0.743909 0.886024 0.334494 0.164411 0.442601 
0.541952 0.327284 0.81699 0.564513 0.0327748 
0.572369 0.694108 0.680096 0.762628 0.399427 
0.270092 0.860472 0.55088 0.122988 0.265606 
0.0340659 0.132117 0.689954 0.120659 0.570829 
0.920961 0.926573 0.816689 0.417102 0.917978 
0.299131 0.0283863 0.484788 0.304161 0.132267 
0.891505 0.44059 0.0749866 0.711061 0.485572 
0.682632 0.419673 0.294703 0.649697 0.650244 
0.652171 0.477437 0.750554 0.485922 0.0579558 
0.875631 0.701658 0.494618 0.855318 0.696705 
0.661591 0.764082 0.555301 0.252196 0.937947 
0.065321 0.902379 0.926674 0.373001 0.700388 
0.701161 0.0362066 0.913408 0.430737 0.181283 
0.856817 0.504264 0.763461 0.681233 0.872753 
0.578113 0.218167 0.963383 0.211087 0.0814992 
0.195855 0.35071 0.0515401 0.256593 0.230394 
0.531963 0.520239 0.925834 0.0690535 0.862071 
0.27845 0.73197 0.505018 0.707855 0.904921 
0.240675 0.104897 0.697972 0.53419 0.615548 
0.849087 0.141014 0.390793 0.703117 0.46916 
0.240473 0.49701 0.0612186 0.981354 0.0605303 
0.920841 0.0433962 0.168199 0.359471 0.411381 
0.196815 0.807574 0.999914 0.645699 0.455217 
0.981831 0.322612 0.368314 0.94393 0.263885 
0.152344 0.99983 0.454934 0.272699 0.324326 
0.211732 0.501824 0.565959 0.845823 0.353577 
0.75891 0.971904 0.718465 0.718031 0.5599 
0.602909 0.107566 0.266175 0.388182 0.140128 
0.237302 0.37901 0.981846 0.816844 0.962695 
0.890056 0.0654508 0.667593 0.759786 0.929437 
0.43493 0.642293 0.832028 0.183409 0.231586 
0.175408 0.0858597 0.338983 0.919731 0.573447 
0.751774 0.353904 0.590665 0.389393 0.912285 
0.53009 0.626868 0.495916 0.206026 0.715388 
0.866569 0.243616 0.404779 0.839225 0.819676 
0.700235 0.860584 0.527959 0.827793 0.738023 
0.0808966 0.288428 0.95594 0.428667 0.867606 
0.474579 0.34206 0.314197 0.289114 0.725104 
0.522985 0.514758 0.974031 0.106283 0.991498 
0.419377 0.563644 0.12425 0.488742 0.686493 
0.564701 0.314882 0.572532 0.645229 0.999725 
0.205119 0.092864 0.102698 0.87684 0.324795 
0.424455 0.02507 0.284971 0.495823 0.307252 
0.399875 0.182585 0.92281 0.234155 0.460025 
0.349255 0.421426 0.342357 0.412681 0.791036 
0.496613 0.148042 0.735862 0.786633 0.0346704 
0.102055 0.363399 0.364737 0.273154 0.421345 
0.472551 0.047259 0.43679 0.335545 0.0549419 
0.896597 0.778899 0.478854 0.948688 0.736332 
0.722853 0.6448 0.787304 0.310598 0.848133 
0.55163 0.206924 0.748263 0.942241 0.677776 
0.758343 0.701844 0.681318 0.902317 0.835986 
0.253397 0.232763 0.562974 0.969535 0.74599 
0.195512 0.710363 0.335815 0.335654 0.481156 
0.125076 0.987949 0.933872 0.10808 0.279335 
0.248753 0.530027 0.606872 0.591092 0.946749 
0.721602 0.377619 0.769333 0.662237 0.55131 
0.499953 0.870705 0.780046 0.252901 0.53774 
0.485774 0.953129 0.103099 0.74048 0.101234 
0.284048 0.24005 0.342369 0.0823964 0.309192 
0.3411 0.124462 0.0889444 0.267632 0.408665 
0.328741 0.408445 0.613551 0.386757 0.476136 
0.14332 0.572998 0.8322 0.584223 0.149402 
0.0666953 0.801047 0.303957 0.627591 0.253031 
0.484527 0.348715 0.609002 0.427857 0.706591 
0.85859 0.274139 0.264138 0.73592 0.122926 
0.628889 0.923401 0.985556 0.330742 0.397566 
0.0381471 0.246516 0.832916 0.438663 0.683494 
0.799062 0.923375 0.103775 0.0235023 0.628548 
0.290484 0.524499 0.921939 0.333371 0.242615 
0.345511 0.927932 0.0509223 0.364868 0.716543 
0.147827 0.0396686 0.543744 0.882359 0.840471 
0.244419 0.1464 0.645911 0.370575 0.710413 
0.273999 0.737161 0.932146 0.650293 0.980149 
0.0759337 0.235342 0.500947 0.872148 0.127942 
0.949497 0.420924 0.869502 0.385778 0.137322 
0.906492 0.743254 0.626649 0.0475132 0.865326 
0.623105 0.398705 0.169747 0.510428 0.437733 
0.348953 0.807842 0.898235 0.00537573 0.803492 
0.771996 0.144563 0.723409 0.533376 0.328374 
0.69127 0.372361 0.0835176 0.219496 0.672684 
0.113931 0.831819 0.987863 0.504289 0.523037 
0.0549273 0.402331 0.306508 0.0966595 0.45692 
0.238958 0.629895 0.373729 0.963645 0.669328 
0.0880585 0.964028 0.931067 0.875322 0.266233 
0.658391 0.455555 0.518211 0.878651 0.733875 
0.961735 0.426625 0.196919 0.666541 0.100136 
0.835826 0.0134272 0.0714333 0.553493 0.797507 
0.532612 0.495678 0.793319 0.250124 0.638773 
0.809418 0.979685 0.802272 0.634266 0.44613 
0.95257 0.972457 0.889697 0.144867 0.16925 
0.0521148 0.207359 0.777401 0.804959 0.564329 
0.928255 0.425922 0.934906 0.173166 0.909687 
0.0586638 0.548113 0.451497 0.629865 0.52467 
0.314365 0.335202 0.62803 0.894168 0.351234 
0.73689 0.465088 0.19281 0.234356 0.066843 
0.448169 0.313818 0.840775 0.549574 0.954136 
0.374598 0.379477 0.60441 0.519917 0.0997953 
0.819998 0.663595 0.703709 0.213397 0.127187 
0.167761 0.770433 0.316229 0.197874 0.548583 
0.396856 0.877828 0.25695 0.384162 0.304458 
0.788836 0.00790547 0.627273 0.178711 0.036315 
0.655888 0.895308 0.607843 0.867154 0.150069 
0.559173 0.599896 0.936234 0.798336 0.466086 
0.985431 0.737957 0.796895 0.611104 0.818731 
0.505305 0.664669 0.529175 0.72198 0.574892 
0.946617 0.856737 0.71389 0.800122 0.36322 
0.787252 0.490155 0.536387 0.287847 0.316737 
0.266901 0.8797 0.334041 0.672274 0.252949 
0.870919 0.58489 0.209162 0.666195 0.696589 
0.0633276 0.730456 0.283184 0.231395 0.377247 
0.641231 0.586871 0.805313 0.74502 0.544314 
0.0585097 0.990759 0.209113 0.356354 0.179509 
0.447106 0.42111 0.44657 0.0066403 0.175335 
0.288948 0.23995 0.720962 0.864267 0.679596 
0.823033 0.950766 0.766912 0.347381 0.259834 
0.533917 0.65509 0.963294 0.262425 0.366252 
0.108886 0.0564312 0.0391014 0.782725 0.839689 
0.224825 0.359994 0.949022 0.982898 0.0945178 
0.32702 0.924122 0.919233 0.742313 0.774719 
0.862257 0.262358 0.671268 0.425568 0.867167 
0.673842 0.669244 0.623154 0.396859 0.961084 
0.19946 0.764284 0.737422 0.113244 0.620604 
0.808915 0.558687 0.991299 0.157523 0.393788 
0.770113 0.0673316 0.239441 0.620521 0.0254215 
0.395987 0.711698 0.865759 0.915021 0.580331 
0.0332784 0.338978 0.152931 0.829463 0.233621 
0.219757 0.967874 0.628295 0.283208 0.0992069 
0.158241 0.528697 0.563959 0.683663 0.510874 
0.64888 0.821679 0.62774 0.892773 0.44679 
0.631046 0.785527 0.123882 0.0709268 0.945754 
0.590847 0.843844 0.566544 0.885107 0.9293 
0.041625 0.600903 0.930934 0.56433 0.313736 
0.701255 0.118986 0.765833 0.162381 0.0784828 
0.280073 0.702246 0.698113 0.928028 0.519437 
0.922975 0.0169789 0.880122 0.909487 0.528682 
0.104844 0.966446 0.216619 0.719213 0.423654 
0.563443 0.791283 0.606299 0.414237 0.558518 
0.658142 0.331627 0.726206 0.50844 0.0556102 
0.170326 0.614056 0.118736 0.0106465 0.0599433 
0.536451 0.0282044 0.751119 0.197359 0.168179 
0.327896 0.849662 0.323708 0.824704 0.290918 
0.850453 0.951615 0.168282 0.86885 0.521995 
0.640156 0.976093 0.211147 0.0362944 0.423836 
0.640089 0.322224 0.828512 0.153008 0.30315 
0.275058 0.660504 0.488505 0.729779 0.0409614 
0.501142 0.687664 0.462652 0.432221 0.026807 
0.934837 0.346017 0.178412 0.0832461 0.294753 
0.327343 0.913231 0.0474836 0.883787 0.897639 
0.924389 0.15553 0.885204 0.814648 0.808197 
0.231732 0.130193 0.300824 0.0944684 0.995494 
0.701452 0.407752 0.966789 0.376692 0.7933 
0.443409 0.235057 0.377189 0.336252 0.786183 
0.184625 0.986046 0.594017 0.784637 0.989056 
0.977222 0.400128 0.333253 0.740176 0.233079 
0.423989 0.445011 0.563673 0.864384 0.804561 
0.140183 0.174281 0.570453 0.380166 0.35998 
0.523049 0.325166 0.693774 0.418542 0.663106 
0.759705 0.957846 0.809503 0.363862 0.425774 
0.553026 0.480583 0.916991 0.98576 0.0463753 
0.853596 0.250637 0.243147 0.72927 0.066264 
0.642784 0.163799 0.883732 0.561902 0.594467 
0.776596 0.0353502 0.487323 0.620407 0.818782 
0.0202147 0.543532 0.00551491 0.586023 0.337254 
0.891835 0.159765 0.513239 0.298603 0.369112 
0.158356 0.797206 0.0616573 0.748057 0.189997 
0.981425 0.272277 0.878201 0.898283 0.706928 
0.176025 0.621648 0.981887 0.796544 0.126974 
0.715194 0.221396 0.66721 0.473655 0.0743197 
0.2231 0.613841 0.767108 0.00998664 0.552991 
0.970763 0.762239 0.0430747 0.114368 0.939713 
0.151945 0.333281 0.154814 0.399239 0.823742 
0.344098 0.830359 0.461815 0.163727 0.890482 
0.778327 0.0044374 0.847953 0.645604 0.937644 
0.962759 0.259287 0.0509855 0.14399 0.564964 
0.846774 0.668107 0.165197 0.0728696 0.892846 
0.133678 0.787872 0.66152 0.0352125 0.0189536 
0.57413 0.842493 0.555127 0.504379 0.446602 
0.689774 0.0663671 0.0291683 0.31423 0.952595 
0.679748 0.418696 0.999141 0.240849 0.72031 
0.38592 0.130791 0.93002 0.741199 0.81542 
0.281669 0.0805947 0.701749 0.656275 0.683132 
0.149447 0.704276 0.425959 0.833303 0.946558 
0.398416 0.517851 0.0083854 0.0796781 0.0211386 
0.594107 0.82582 0.807011 0.714968 0.792556 
0.203451 0.309521 0.717584 0.910657 0.610565 
0.301212 0.135301 0.346931 0.751115 0.965591 
0.382162 0.13149 0.902772 0.116749 0.130052 
0.453386 0.40283 0.657664 0.651601 0.525527 
0.677288 0.584651 0.225428 0.781464 0.860562 
0.235789 0.191665 0.914845 0.10021 0.518147 
0.865773 0.14859 0.591212 0.682465 0.828362 
0.258779 0.177507 0.947627 0.511913 0.283179 
0.23286 0.146617 0.22972 0.237007 0.904574 
0.592515 0.678148 0.211458 0.82553 0.910073 
0.689088 0.765558 0.796057 0.531738 0.389109 
0.88033 0.478555 0.109578 0.440184 0.807867 
0.619733 0.496397 0.406831 0.51834 0.493714 
0.467967 0.769103 0.0168284 0.361479 0.255847 
0.962475 0.816921 0.591828 0.838243 0.954121 
0.0718796 0.902362 0.599073 0.825053 0.08527 
0.759499 0.215552 0.359822 0.16481 0.500402 
0.122015 0.303371 0.382319 0.961256 0.907307 
0.813627 0.974297 0.476595 0.179218 0.580824 
0.720008 0.827311 0.658614 0.565671 0.259863 
0.562448 0.170593 0.876145 0.0428875 0.778465 
0.568788 0.613988 0.24836 0.20836 0.216543 
0.313967 0.668153 0.464756 0.848988 0.274434 
0.878965 0.114668 0.163277 0.906786 0.977114 
0.157773 0.742113 0.429494 0.807495 0.295101 
0.161959 0.832815 0.480359 0.776351 0.0950394 
0.530855 0.000734773 0.791832 0.0484663 0.404588 
0.193359 0.269405 0.389068 0.579897 0.532892 
0.111478 0.287528 0.422801 0.761502 0.78841 
0.51504 0.0612539 0.154575 0.493575 0.761502 
0.0402143 0.0218484 0.366973 0.171816 0.737218 
0.44721 0.810771 0.516764 0.785905 0.205981 
0.0482073 0.475709 0.466127 0.128765 0.740923 
0.807988 0.835972 0.894707 0.017251 0.980805 
0.0775543 0.592161 0.221288 0.824055 0.878025 
0.828754 0.402251 0.0732185 0.290473 0.998614 
0.386727 0.0936252 0.897549 0.156584 0.422958 
0.508597 0.0140441 0.732497 0.224479 0.727697 
0.231697 0.562605 0.492991 0.390194 0.909872 
0.650154 0.0604444 0.621111 0.427984 0.151997 
0.559267 0.438973 0.952368 0.776237 0.624818 
0.960317 0.444896 0.369126 0.086911 0.40833 
0.541563 0.853557 0.47078 0.844007 0.0514261 
0.575861 0.905634 0.321859 0.589514 0.265502 
0.738631 0.756981 0.346086 0.549568 0.630201 
0.992071 0.423331 0.0739898 0.826077 0.490444 
0.842438 0.211837 0.00148981 0.432011 0.18462 
0.395578 0.0992434 0.929297 0.822347 0.0191822 
0.248244 0.0425684 0.324041 0.506594 0.790794 
0.728687 0.605484 0.00501049 0.473424 0.213691 
0.678737 0.0685846 0.950528 0.581062 0.859788 
0.668975 0.0233117 0.32944 0.156699 0.592409 
0.523359 0.806083 0.0304147 0.264568 0.506368 
0.0338252 0.0959889 0.730026 0.476448 0.0530997 
0.566622 0.163272 0.327535 0.899498 0.0537949 
0.119306 0.338597 0.618955 0.605064 0.281608 
0.333357 0.0253584 0.688723 0.235938 0.350271 
0.105366 0.889364 0.193825 0.52663 0.00816678 
0.353787 0.165296 0.231311 0.578355 0.717205 
0.453631 0.0274921 0.648161 0.0472344 0.460156 
0.58987 0.11003 0.990092 0.321566 0.581053 
0.429699 0.988194 0.0271267 0.903586 0.355446 
0.1986 0.833861 0.100416 0.759053 0.19079 
0.194543 0.772954 0.318298 0.505681 0.179207 
0.720462 0.668645 0.159974 0.316224 0.450493 
0.610322 0.718733 0.358782 0.0301376 0.800721 
0.754262 0.96118 0.328679 0.384767 0.396891 
0.841867 0.85539 0.894607 0.611202 0.745628 
0.618565 0.795068 0.0827612 0.645019 0.387596 
0.33811 0.653031 0.369945 0.073118 0.483365 
0.962106 0.788649 0.90515 0.283933 0.632446 
0.719943 0.0606699 0.57496 0.760501 0.584999 
0.179664 0.527769 0.326615 0.925665 0.0332084 
0.686057 0.841998 0.554866 0.739187 0.510129 
0.629031 0.180249 0.0318979 0.794256 0.788177 
0.0769279 0.253962 0.660865 0.788581 0.334472 
0.226268 0.157806 0.732675 0.429816 0.66696 
0.403838 0.29687 0.565574 0.387843 0.114467 
0.892795 0.453496 0.585031 0.947044 0.0118836 
0.819934 0.828834 0.387066 0.254374 0.356996 
0.0361429 0.0682565 0.375373 0.467214 0.982099 
0.951296 0.39382 0.351547 0.785312 0.492294 
0.416165 0.95068 0.179711 0.751518 0.600348 
0.0410924 0.75381 0.82122 0.150237 0.198821 
0.370532 0.121943 0.974262 0.951763 0.791305 
0.885177 0.899397 0.259534 0.693006 0.435573 
0.549076 0.386637 0.171529 0.697187 0.8588 
0.100899 0.0696439 0.0410327 0.781075 0.186323 
0.963512 0.651513 0.828086 0.171819 0.798546 
0.831035 0.98201 0.819066 0.075099 0.741363 
0.260984 0.927774 0.0938973 0.609525 0.304956 
0.967412 0.0802858 0.708991 0.385771 0.515579 
0.343595 0.902818 0.808082 0.991102 0.182882 
0.520125 0.0763436 0.373356 0.662452 0.548805 
0.324113 0.398808 0.805075 0.765845 0.616374 
0.0974986 0.828397 0.250335 0.0987335 0.333176 
0.154314 0.925338 0.46482 0.259075 0.648748 
0.488288 0.284323 0.0488237 0.253041 0.749561 
0.433209 0.589556 0.0482998 0.432868 0.0315481 
0.188255 0.903778 0.313149 0.918603 0.0435587 
0.432762 0.54763 0.252329 0.910734 0.382798 
0.537902 0.104826 0.806687 0.909827 0.726078 
0.959688 0.69624 0.898157 0.688117 0.937158 
0.973743 0.0830059 0.0525678 0.656795 0.533906 
0.801634 0.425843 0.0172979 0.277222 0.900933 
0.972459 0.864408 0.335249 0.640353 0.750092 
0.0365187 0.632452 0.318566 0.402157 0.103162 
0.272575 0.0486763 0.910013 0.0861037 0.471719 
0.573815 0.289058 0.167368 0.172492 0.433682 
0.034415 0.0637235 0.910633 0.509483 0.615634 
0.857171 0.136222 0.0183975 0.0407841 0.088099 
0.968369 0.267023 0.943821 0.086467 0.649142 
0.570706 0.518561 0.000901035 0.627968 0.995881 
7.30608e-05 0.351522 0.364877 0.51711 0.619507 
0.534716 0.619629 0.47502 0.407634 0.880689 
0.666938 0.502066 0.27184 0.655003 0.439891 
0.982879 0.316489 0.393326 0.816221 0.91471 
0.0800541 0.0102697 0.138555 0.547284 0.93981 
0.708668 0.898303 0.478284 0.0251808 0.939469 
0.201073 0.204344 0.552916 0.851072 0.742565 
0.781743 0.0434125 0.67873 0.556115 0.592268 
0.322794 0.772068 0.204239 0.581581 0.704014 
0.199723 0.91876 0.983524 0.304387 0.275557 
0.655913 0.742273 0.692553 0.677753 0.441074 
0.0824639 0.865355 0.926182 0.519306 0.363967 
0.757071 0.219107 0.924495 0.182152 0.831709 
0.321591 0.398196 0.220401 0.577756 0.781263 
0.684569 0.618332 0.691908 0.735313 0.0739359 
0.206918 0.399797 0.899323 0.166488 0.460387 
0.172197 0.687717 0.310418 0.362547 0.580259 
0.400765 0.381348 0.338193 0.920498 0.763855 
0.0255254 0.848436 0.0551434 0.63374 0.852889 
0.463403 0.414978 0.299699 0.6514 0.572427 
0.184078 0.385703 0.240387 0.527371 0.898643 
0.851196 0.109116 0.676674 0.809344 0.729973 
0.324978 0.975629 0.778107 0.816059 0.245008 
0.237442 0.322128 0.828684 0.61226 0.393974 
0.072597 0.309679 0.318051 0.331158 0.412359 
0.00444969 0.565954 0.501056 0.0381041 0.877655 
0.505404 0.820954 0.816004 0.563301 0.770808 
0.914536 0.184805 0.875509 0.667068 0.0796044 
0.523207 0.443765 0.15532 0.981592 0.165684 
0.706566 0.46964 0.937691 0.255265 0.69511 
0.515021 0.103785 0.604661 0.15457 0.27152 
0.242307 0.00443913 0.593522 0.630303 0.806267 
0.123034 0.86835 0.28321 0.105878 0.664155 
0.372453 0.797638 0.916056 0.698469 0.494438 
0.803061 0.290198 0.815534 0.263272 0.956153 
0.619698 0.889261 0.544237 0.680475 0.983448 
0.108739 0.170113 0.100883 0.614525 0.346439 
0.57099 0.579291 0.535102 0.635041 0.765088 
0.264839 0.883469 0.729128 0.0483895 0.946477 
0.021647 0.669563 0.129445 0.362593 0.0855588 
0.788783 0.51545 0.579145 0.683863 0.139349 
0.0679305 0.257429 0.892967 0.282787 0.548243 
0.485118 0.109507 0.76956 0.600095 0.164705 
0.276594 0.222079 0.278594 0.528117 0.645134 
0.654595 0.421511 0.34904 0.632332 0.293606 
0.295488 0.30058 0.343831 0.911992 0.538694 
0.295119 0.571843 0.377545 0.264741 0.562813 
0.426616 0.584768 0.0173511 0.881698 0.982149 
0.94569 0.116643 0.853219 0.461943 0.382791 
0.229446 0.974024 0.807095 0.843662 0.442839 
0.136545 0.730447 0.565219 0.771022 0.355848 
0.203432 0.138025 0.615983 0.536462 0.332744 
0.560177 0.808487 0.525307 0.993311 0.379015 
0.0215092 0.442658 0.0566475 0.563588 0.798337 
0.391956 0.681698 0.642619 0.394683 0.952305 
0.596202 0.583707 0.27399 0.381587 0.474011 
0.218098 0.289355 0.90254 0.221162 0.962361 
0.947027 0.937113 0.00173095 0.405456 0.413864 
0.122138 0.0223464 0.477528 0.296163 0.17398 
0.402748 0.818677 0.187704 0.278385 0.554101 
0.201207 0.364199 0.741267 0.311467 0.298511 
0.724396 0.469539 0.930828 0.262678 0.645086 
0.392656 0.572327 0.920962 0.920979 0.236453 
0.883183 0.765496 0.145093 0.614016 0.257929 
0.450125 0.572408 0.932467 0.843339 0.74788 
0.818844 0.475605 0.0258968 0.552735 0.617473 
0.389373 0.641581 0.634542 0.47821 0.59988 
0.836613 0.349488 0.739434 0.853229 0.163815 
0.464269 0.918002 0.309291 0.74829 0.788721 
0.274708 0.895836 0.145335 0.380364 0.183322 
0.562784 0.172278 0.155574 0.700937 0.200764 
0.624438 0.547722 0.835748 0.715022 0.77163 
0.236218 0.968135 0.871963 0.964927 0.275348 
0.13404 0.671101 0.437141 0.41094 0.245551 
0.243765 0.967104 0.164713 0.573648 0.654472 
0.515928 0.823116 0.608676 0.549323 0.0866394 
0.412483 0.509516 0.443037 0.115059 0.734744 
0.805752 0.775743 0.866982 0.0494118 0.465069 
0.393797 0.627647 0.803797 0.147071 0.530134 
0.836221 0.590431 0.754206 0.879853 0.50249 
0.828618 0.477747 0.209022 0.784155 0.795433 
0.331062 0.0552287 0.799805 0.212481 0.733314 
0.0921698 0.853903 0.0828322 0.920592 0.484812 
0.159883 0.141994 0.43912 0.297987 0.747079 
0.358518 0.220291 0.231757 0.992537 0.955092 
0.943905 0.589726 0.0864179 0.0791114 0.31629 
0.175572 0.771177 0.470104 0.106316 0.249251 
0.146609 0.5759 0.517725 0.612675 0.315293 
0.412342 0.516345 0.193115 0.518423 0.974724 
0.352589 0.00564797 0.492826 0.994992 0.778715 
0.890843 0.570334 0.975823 0.617591 0.951071 
0.106623 0.54264 0.613301 0.842933 0.901565 
0.644835 0.0249221 0.495263 0.931028 0.642673 
0.210738 0.474845 0.3563 0.196105 0.773964 
0.121271 0.466724 0.541417 0.115114 0.560531 
0.43924 0.791965 0.503419 0.785947 0.412353 
0.989909 0.910715 0.586425 0.278814 0.637118 
0.212953 0.717737 0.618971 0.433526 0.85042 
0.890731 0.374063 0.0767312 0.944791 0.227104 
0.0467286 0.988154 0.546145 0.8971 0.208915 
0.0766976 0.385104 0.308306 0.350476 0.292508 
0.340346 0.464037 0.0625189 0.134378 0.750845 
0.482361 0.789783 0.207413 0.410077 0.722839 
0.329985 0.109451 0.00126065 0.559291 0.515623 
0.764744 0.854739 0.361612 0.826041 0.0138711 
0.602797 0.868723 0.337107 0.22978 0.241594 
0.562725 0.104689 0.69691 0.267109 0.387645 
0.0957936 0.17418 0.168917 0.69282 0.463122 
0.137259 0.212232 0.68102 0.874768 0.78314 
0.315623 0.335556 0.553537 0.572733 0.561981 
0.0245572 0.362911 0.0949303 0.475949 0.992835 
0.644329 0.688932 0.711573 0.850085 0.68562 
0.0610635 0.842212 0.281872 0.260478 0.240286 
0.201134 0.643076 0.530966 0.357411 0.75112 
0.68865 0.954675 0.55705 0.443561 0.228157 
0.85221 0.823284 0.701042 0.48913 0.580168 
0.103577 0.494436 0.815327 0.326657 0.608133 
0.858796 0.499168 0.38339 0.470273 0.151789 
0.127658 0.00313322 0.757651 0.419985 0.742211 
0.880185 0.317513 0.410413 0.12271 0.782291 
0.455091 0.562802 0.000531105 0.899355 0.665416 
0.730419 0.363246 0.392233 0.957162 0.436735 
0.925276 0.501158 0.0948037 0.871064 0.431465 
0.54616 0.249855 0.299844 0.472023 0.119796 
0.059452 0.000641119 0.574823 0.880882 0.318623 
0.802398 0.868945 0.288952 0.905114 0.33595 
0.120279 0.151382 0.652616 0.85817 0.857083 
0.0614722 0.963145 0.350454 0.194747 0.767911 
0.00351033 0.149123 0.428983 0.803448 0.297256 
0.519239 0.24286 0.310491 0.868477 0.566773 
0.937791 0.352047 0.555255 0.496021 0.546203 
0.495473 0.697026 0.169173 0.453642 0.229824 
0.025648 0.217087 0.0830204 0.0825412 0.461571 
0.227642 0.414656 0.682055 0.58485 0.617062 
0.538527 0.696243 0.193207 0.807585 0.331103 
0.041587 0.085101 0.0776123 0.354745 0.907878 
0.632091 0.600153 0.7902 0.531322 0.918282 
0.167022 0.44184 0.715643 0.174281 0.709135 
0.0165894 0.230934 0.864828 0.0683993 0.241187 
0.455198 0.908717 0.180204 0.127058 0.253399 
0.0400432 0.366339 0.791799 0.723746 0.619203 
0.494545 0.96577 0.138175 0.304529 0.151894 
0.864205 0.719129 0.0176906 0.634572 0.745054 
0.919324 0.047916 0.683946 0.535455 0.0872219 
0.718049 0.631482 0.0610011 0.558298 0.168188 
0.635659 0.452393 0.988859 0.513564 0.609501 
0.910772 0.935141 0.935273 0.296712 0.905748 
0.932963 0.397355 0.986015 0.752564 0.745345 
0.784467 0.68069 0.323424 0.436534 0.964648 
0.530199 0.156886 0.682646 0.267309 0.973939 
0.735424 0.489174 0.751346 0.348872 0.634472 
0.296685 0.846933 0.639875 0.0501471 0.468809 
0.909381 0.302506 0.796015 0.541329 0.639102 
0.0539924 0.446607 0.467174 0.850433 0.39209 
0.23843 0.368473 0.0765802 0.784542 0.0564515 
0.0833447 0.0633645 0.863134 0.79475 0.159847 
0.596965 0.106281 0.843518 0.688318 0.352792 
0.823756 0.434808 0.924281 0.813823 0.106652 
0.7335 0.919393 0.138349 0.912108 0.937664 
0.511898 0.280784 0.548539 0.0279701 0.109403 
0.0225591 0.133533 0.207177 0.821414 0.444453 
0.951182 0.623787 0.675495 0.458681 0.0485038 
0.713347 0.0349169 0.0320631 0.110103 0.268407 
0.987642 0.749714 0.614815 0.87282 0.633967 
0.992959 0.235005 0.677777 0.112129 0.521588 
0.761089 0.925671 0.0139391 0.256292 0.996456 
0.22743 0.327247 0.224445 0.505306 0.801735 
0.426133 0.539091 0.812072 0.105859 0.564014 
0.536574 0.164934 0.763149 0.411232 0.116167 
0.0054656 0.0831522 0.115021 0.927581 0.926154 
0.0167832 0.685859 0.76011 0.629911 0.39897 
0.755066 0.742954 0.177827 0.805282 0.22129 
0.344225 0.954715 0.382777 0.833165 0.348123 
0.888919 0.359734 0.581976 0.647407 0.973229 
0.480484 0.953226 0.862391 0.980767 0.733525 
0.970666 0.509715 0.985847 0.297929 0.635892 
0.0559188 0.864709 0.496971 0.227661 0.934798 
0.710949 0.718705 0.66922 0.611898 0.189916 
0.98425 0.996505 0.178879 0.292262 0.717115 
0.70532 0.932177 0.706364 0.99172 0.206818 
0.272519 0.419945 0.026936 0.329035 0.798875 
0.543196 0.597518 0.897983 0.450887 0.121353 
0.165558 0.993739 0.514671 0.482073 0.303718 
0.961293 0.735778 0.473928 0.840578 0.73993 
0.213273 0.607819 0.760911 0.537094 0.101598 
0.208438 0.503178 0.87305 0.587601 0.267518 
0.59004 0.0596405 0.585743 0.640281 0.148771 
0.422517 0.616382 0.682802 0.824547 0.781499 
0.0792903 0.654915 0.725969 0.0772511 0.968362 
0.000426512 0.538773 0.42319 0.522166 0.9103 
0.442378 0.656307 0.0343711 0.732713 0.365216 
0.743563 0.769264 0.579928 0.777224 0.628865 
0.57172 0.320145 0.391565 0.712989 0.0565724 
0.660014 0.263304 0.502098 0.614269 0.348638 
0.976901 0.0743064 0.75544 0.667548 0.900081 
0.937132 0.331957 0.213427 0.526553 0.266062 
0.705356 0.372304 0.269762 0.438248 0.691226 
0.34564 0.264245 0.203023 0.778209 0.928524 
0.00415343 0.800124 0.452418 0.036118 0.938699 
0.701944 0.818816 0.793817 0.50253 0.505834 
0.315662 0.415421 0.571184 0.438548 0.0678864 
0.658371 0.707017 0.220845 0.222608 0.930216 
0.362394 0.909591 0.582009 0.980748 0.89452 
0.56278 0.0739602 0.354148 0.78316 0.310349 
0.981361 0.586185 0.683564 0.0556318 0.827232 
0.052301 0.941379 0.580178 0.167248 0.34515 
0.686332 0.45389 0.159307 0.294253 0.281961 
0.347489 0.322935 0.321465 0.952087 0.516553 
0.888704 0.926805 0.909229 0.0334049 0.373949 
0.391598 0.749185 0.95634 0.969537 0.895836 
0.974973 0.916294 0.691218 0.905701 0.162822 
0.492477 0.217828 0.885614 0.720772 0.217311 
0.742367 0.502063 0.252057 0.0903608 0.100774 
0.0378316 0.180036 0.576041 0.380898 0.388025 
0.358191 0.690881 0.0493128 0.0262523 0.0993846 
0.691732 0.473043 0.467662 0.110316 0.67785 
0.761236 0.718437 0.413252 0.0577681 0.942221 
0.746827 0.341447 0.956876 0.483638 0.588437 
0.807568 0.805853 0.19516 0.550634 0.966363 
0.530646 0.482586 0.739389 0.807619 0.830016 
0.493149 0.82267 0.172955 0.78169 0.694417 
0.687947 0.950715 0.973309 0.219424 0.645907 
0.888066 0.558903 0.104901 0.58111 0.750195 
0.207001 0.171801 0.0726113 0.440586 0.0808064 
0.134296 0.638422 0.673558 0.00730305 0.194497 
0.33251 0.813901 0.705132 0.427943 0.720812 
0.548525 0.747808 0.204487 0.616811 0.566082 
0.856647 0.082823 0.648598 0.815235 0.953184 
0.500931 0.294 0.260686 0.505377 0.971603 
0.527126 0.129851 0.895282 0.0641536 0.955729 
0.958551 0.297649 0.765645 0.616764 0.924423 
0.575518 0.0721222 0.951563 0.821533 0.107682 
0.220292 0.49511 0.890754 0.0623337 0.798144 
0.962903 0.436437 0.817566 0.0175885 0.693468 
0.663482 0.417364 0.580372 0.409278 0.87717 
0.257425 0.278421 0.583203 0.166487 0.190925 
0.596881 0.0255489 0.994363 0.911485 0.863311 
0.237963 0.806877 0.578801 0.0380201 0.330194 
0.330174 0.683031 0.937305 0.813908 0.087664 
0.727697 0.806461 0.533799 0.772691 0.0660638 
0.806415 0.351664 0.195152 0.473656 0.851234 
0.769617 0.122618 0.777196 0.865355 0.368338 
0.278521 0.789029 0.716073 0.762973 0.975134 
0.668967 0.193765 0.245522 0.115272 0.199624 
0.14001 0.875643 0.0450655 0.482418 0.812312 
0.0811505 0.302119 0.235886 0.0971975 0.801329 
0.480678 0.0246757 0.758494 0.581256 0.236518 
0.362134 0.214344 0.720059 0.813155 0.81265 
0.99732 0.157178 0.942706 0.119405 0.997293 
0.00545833 0.808255 0.916893 0.0450658 0.407142 
0.542815 0.243731 0.723747 0.569771 0.67696 
0.299853 0.0787433 0.159026 0.988322 0.461577 
0.859646 0.608339 0.932866 0.423109 0.375734 
0.821526 0.904201 0.373307 0.722789 0.813218 
0.936566 0.492648 0.267417 0.564535 0.876797 
0.57193 0.844487 0.0415008 0.898764 0.891806 
0.975055 0.452783 0.774864 0.466978 0.372993 
0.854588 0.979746 0.891146 0.433779 0.948503 
0.802473 0.573617 0.501756 0.321487 0.796304 
0.151723 0.541738 0.615593 0.730591 0.807418 
0.833005 0.0432956 0.552711 0.824129 0.63327 
0.994441 0.709388 0.00663411 0.669025 0.619396 
0.126136 0.0290433 0.736426 0.379918 0.320013 
0.187174 0.582061 0.740888 0.691517 0.4169 
0.959781 0.246125 0.410826 0.730038 0.88752 
0.0557632 0.372818 0.363676 0.500683 0.120855 
0.839348 0.853354 0.611323 0.728435 0.507038 
0.859925 0.235199 0.960689 0.55682 0.572947 
0.395398 0.52595 0.792011 0.802784 0.65008 
0.339054 0.866035 0.276134 0.553833 0.585683 
0.184986 0.745488 0.156916 0.819422 0.525293 
0.574238 0.493845 0.93739 0.894991 0.485831 
0.711038 0.276044 0.167856 0.220742 0.573623 
0.468126 0.593915 0.878955 0.415677 0.660616 
0.238376 0.455193 0.423226 0.4072 0.581071 
0.0569993 0.184497 0.858512 0.61225 0.770132 
0.911966 0.497154 0.0166814 0.0202486 0.712367 
0.683681 0.454745 0.538051 0.160901 0.683687 
0.491805 0.87711 0.754679 0.953438 0.103008 
0.0132236 0.159557 0.051672 0.508006 0.630311 
0.249721 0.935842 0.933343 0.807014 0.322345 
0.405766 0.883773 0.81064 0.336597 0.906517 
0.557663 0.0488615 0.221204 0.896557 0.807813 
0.522433 0.488001 0.482649 0.0909412 0.752029 
0.258697 0.86095 0.411225 0.829593 0.923307 
0.862869 0.539927 0.51064 0.592383 0.494855 
0.142304 0.765189 0.806428 0.278321 0.820585 
0.938788 0.789142 0.222159 0.281317 0.732681 
0.902314 0.280153 0.848528 0.0724105 0.225609 
0.369066 0.898813 0.295114 0.230448 0.00157167 
0.471643 0.212598 0.665592 0.0653094 0.111406 
0.0624833 0.0642919 0.566826 0.933392 0.675248 
0.302173 0.233453 0.33711 0.0949298 0.245673 
0.0909418 0.784277 0.8613 0.399075 0.672538 
0.0254023 0.29976 0.402686 0.641974 0.378742 
0.572146 0.672087 0.803281 0.203595 0.970574 
0.99117 0.994714 0.722059 0.353978 0.595291 
0.330276 0.942055 0.417847 0.0789435 0.170694 
0.560936 0.0710417 0.860477 0.693102 0.145984 
0.186216 0.57447 0.18112 0.0436711 0.928722 
0.119803 0.765878 0.298859 0.946796 0.321033 
0.24511 0.447163 0.219317 0.202922 0.979805 
0.879879 0.0656505 0.521601 0.750755 0.633759 
0.0734856 0.707904 0.832583 0.949439 0.698475 
0.946225 0.0867033 0.162099 0.0695931 0.932242 
0.393402 0.0709403 0.760736 0.104294 0.66789 
0.756035 0.891352 0.452706 0.383472 0.535043 
0.461354 0.448704 0.0575582 0.975636 0.440459 
0.32837 0.731744 0.958496 0.158844 0.170074 
0.283601 0.801559 0.0508051 0.012314 0.363787 
0.335284 0.268931 0.220764 0.466846 0.343438 
0.150024 0.517861 0.677549 0.146322 4.67697e-05 
0.57069 0.0433369 0.987973 0.708629 0.52135 
0.454305 0.703809 0.782105 0.162363 0.404626 
0.816991 0.274528 0.2685 0.636053 0.0316597 
0.693659 0.329508 0.645511 0.839223 0.994238 
0.74852 0.290637 0.645497 0.435125 0.342817 
0.209103 0.51003 0.37914 0.330539 0.933459 
0.133698 0.41616 0.950102 0.613655 0.185348 
0.359118 0.899292 0.658034 0.126941 0.712646 
0.606075 0.342444 0.645059 0.660359 0.359453 
0.789401 0.482575 0.897771 0.790671 0.0738686 
0.339783 0.982926 0.991037 0.854482 0.603852 
0.482932 0.0373252 0.41491 0.301285 0.395953 
0.88999 0.380437 0.181932 0.901584 0.698685 
0.506403 0.820895 0.129336 0.0238029 0.860699 
0.310246 0.639014 0.859388 0.292648 0.630886 
0.135339 0.957961 0.680572 0.576139 0.578566 
0.153556 0.360981 0.922435 0.4386 0.457503 
0.480644 0.605885 0.213291 0.112381 0.49003 
0.940148 0.437749 0.90968 0.968963 0.706678 
0.385079 0.00423934 0.362185 0.497453 0.390305 
0.437596 0.169332 0.897729 0.756427 0.667066 
0.902422 0.138187 0.289068 0.867151 0.693652 
0.812808 0.822874 0.77527 0.672619 0.939521 
0.404706 0.881225 0.924961 0.96718 0.754497 
0.609342 0.255919 0.438279 0.324289 0.845445 
