4700 5
0.492391 0.556067 0.467986 0.837306 0.355377 
0.0300321 0.92846 0.454851 0.442909 0.996239 
0.797281 0.00907203 0.855271 0.343916 0.96702 
0.768023 0.0633042 0.891078 0.216961 0.37275 
0.864483 0.0795353 0.899395 0.444886 0.866815 
0.959104 0.57927 0.271827 0.0622517 0.0243689 
0.882253 0.571692 0.313988 0.370676 0.638209 
0.48632 0.924608 0.856545 0.630414 0.0949078 
0.67392 0.444657 0.52431 0.222518 0.201174 
0.76725 0.873764 0.706901 0.844071 0.709557 
0.364741 0.5558 0.0929183 0.883954 0.570941 
0.262919 0.450837 0.844111 0.532474 0.933374 
0.841979 0.360323 0.254562 0.161518 0.571293 
0.13901 0.817415 0.35755 0.208968 0.0813149 
0.250082 0.555278 0.323523 0.608504 0.776784 
0.407459 0.528747 0.780087 0.363946 0.796257 
0.156414 0.243297 0.154891 0.918344 0.671014 
0.707364 0.697727 0.650681 0.185239 0.636439 
0.887618 0.3125 0.553251 0.971704 0.898112 
0.912006 0.943867 0.381094 0.261502 0.021104 
0.923927 0.215175 0.320239 0.417566 0.455983 
0.694549 0.737483 0.408496 0.587048 0.969601 
0.745327 0.0967797 0.126912 0.364441 0.990515 
0.989759 0.985544 0.282096 0.719383 0.462693 
0.622989 0.565027 0.331727 0.262543 0.948767 
0.345242 0.304041 0.284564 0.48611 0.534866 
0.260221 0.446363 0.629576 0.919286 0.0430027 
0.148368 0.728253 0.808934 0.891639 0.927677 
0.427726 0.744939 0.0492419 0.943143 0.260103 
0.363522 0.801075 0.736831 0.0989132 0.960098 
0.363456 0.0421867 0.527897 0.0170555 0.681803 
0.418836 0.464799 0.53503 0.661264 0.751706 
0.534847 0.32054 0.639912 0.994446 0.162668 
0.769072 0.807124 0.0403415 0.786568 0.428253 
0.0272105 0.213264 0.686509 0.223168 0.612442 
0.446382 0.818738 0.810888 0.748547 0.696311 
0.211061 0.934413 0.418888 0.274269 0.956215 
0.393334 0.182745 0.180158 0.201919 0.0964314 
0.739764 0.148819 0.703071 0.0919328 0.0929366 
0.670723 0.593748 0.021796 0.184612 0.905545 
0.344126 0.496721 0.152988 0.46621 0.0120397 
0.267438 0.635369 0.820348 0.103376 0.419194 
0.576022 0.618243 0.489073 0.0398607 0.215343 
0.236791 0.676163 0.867965 0.479823 0.839675 
0.219961 0.434081 0.814102 0.790539 0.478142 
0.819431 0.140417 0.283897 0.588744 0.27007 
0.0219356 0.985234 0.478988 0.0723029 0.75041 
0.582541 0.526442 0.827769 0.725842 0.679633 
0.434688 0.516694 0.925449 0.508109 0.0597449 
0.303179 0.848895 0.410233 0.601939 0.320881 
0.52367 0.441445 0.224546 0.700307 0.239055 
0.146626 0.0827115 0.944464 0.91859 0.167803 
0.128908 0.73756 0.975718 0.750576 0.604033 
0.548858 0.148319 0.59624 0.663516 0.865883 
0.820221 0.772949 0.690855 0.998473 0.784695 
0.348933 0.993006 0.127433 0.675403 0.0902882 
0.42674 0.3803 0.145675 0.639688 0.672154 
0.209228 0.019064 0.0476635 0.0761836 0.363292 
0.262776 0.787742 0.315262 0.119098 0.574234 
0.957633 0.700999 0.32307 0.407049 0.442656 
0.340848 0.495472 0.776159 0.63286 0.726834 
0.0690261 0.538542 0.553242 0.79556 0.32442 
0.616955 0.0019289 0.211682 0.729558 0.833758 
0.465368 0.116878 0.240083 0.76453 0.817767 
0.231245 0.874065 0.572267 0.148411 0.0434915 
0.467529 0.733402 0.993335 0.554327 0.290174 
0.364847 0.830487 0.353685 0.00913843 0.0819484 
0.917571 0.796752 0.421828 0.588353 0.956076 
0.273584 0.317226 0.135788 0.983926 0.450537 
0.169514 0.236459 0.409064 0.351133 0.470041 
0.0552312 0.0133811 0.702057 0.631351 0.490604 
0.181158 0.352478 0.495569 0.88155 0.608063 
0.461029 0.416113 0.904207 0.0410486 0.645268 
0.973877 0.525052 0.24361 0.778965 0.410291 
0.908564 0.255151 0.473784 0.918151 0.977171 
0.600088 0.819755 0.573362 0.323119 0.886461 
0.0341521 0.808996 0.450873 0.351379 0.0756955 
0.50652 0.556467 0.830882 0.269055 0.945783 
0.523647 0.691746 0.541544 0.620712 0.826436 
0.988462 0.483392 0.346056 0.357119 0.196437 
0.61933 0.661693 0.702642 0.682525 0.174481 
0.359578 0.832365 0.0347146 0.117265 0.345438 
0.758751 0.589295 0.745319 0.869147 0.177359 
0.51693 0.63649 0.375658 0.509444 0.857712 
0.685915 0.317833 0.0275335 0.655785 0.0944396 
0.639259 0.880572 0.639243 0.889087 0.828033 
0.846536 0.543963 0.0914431 0.621649 0.0499834 
0.00259678 0.886857 0.122275 0.667905 0.908672 
0.988109 0.678401 0.569731 0.952702 0.348045 
0.133939 0.933384 0.267711 0.609367 0.979305 
0.586697 0.745239 0.928133 0.765258 0.27516 
0.408801 0.937744 0.598488 0.221079 0.0996867 
0.472399 0.0304714 0.750313 0.0326495 0.45684 
0.864626 0.481505 0.760478 0.0934603 0.364383 
0.0369606 0.252728 0.998884 0.184342 0.252634 
0.511234 0.826693 0.785376 0.477162 0.000597582 
0.717097 0.51789 0.652038 0.732901 0.679106 
0.939178 0.790742 0.703794 0.36687 0.452162 
0.669548 0.663529 0.662577 0.773967 0.587924 
0.243319 0.492786 0.302995 0.342321 0.301303 
0.734403 0.261811 0.797268 0.203739 0.413154 
0.544325 0.351929 0.590068 0.880112 0.335143 
0.111512 0.159433 0.710136 0.779161 0.263488 
0.0371443 0.95403 0.958706 0.94818 0.630026 
0.202724 0.412437 0.399291 0.673155 0.874442 
0.444322 0.393789 0.856258 0.341034 0.193956 
0.429929 0.080839 0.65711 0.0919278 0.643633 
0.201141 0.0682877 0.21527 0.317074 0.900085 
0.310285 0.327291 0.417796 0.988567 0.920896 
0.263346 0.85291 0.858347 0.0669956 0.319535 
0.495356 0.709896 0.0451037 0.849234 0.741007 
0.395313 0.7751 0.575328 0.771302 0.788289 
0.146316 0.620874 0.356428 0.903836 0.318871 
0.970208 0.33227 0.614892 0.173807 0.405138 
0.205796 0.786379 0.736747 0.183049 0.658014 
0.745298 0.204851 0.991702 0.66327 0.0929638 
0.429934 0.64568 0.283532 0.994551 0.499598 
0.12018 0.280715 0.049281 0.771584 0.124074 
0.370822 0.212963 0.483224 0.778218 0.673174 
0.439739 0.727803 0.397978 0.251414 0.0935342 
0.489786 0.785579 0.0543646 0.201072 0.740996 
0.275985 0.423776 0.865992 0.887524 0.360076 
0.487374 0.681839 0.022793 0.88781 0.914041 
0.355667 0.431064 0.419698 0.388399 0.647793 
0.664117 0.668651 0.859984 0.508701 0.761928 
0.903361 0.227491 0.101081 0.139943 0.547538 
0.683166 0.467019 0.889229 0.200649 0.918496 
0.199002 0.194182 0.15849 0.0357154 0.827919 
0.133326 0.900416 0.322252 0.330934 0.865219 
0.653116 0.360438 0.591487 0.178041 0.551598 
0.622846 0.284207 0.6978 0.854579 0.246961 
0.346744 0.1174 0.223363 0.236791 0.449468 
0.589334 0.181512 0.706272 0.545633 0.915788 
0.711023 0.674451 0.54299 0.96899 0.525275 
0.389564 0.678029 0.415642 0.656992 0.874018 
0.288349 0.139601 0.270408 0.832769 0.794626 
0.00148294 0.709375 0.932449 0.460286 0.610642 
0.7972 0.676723 0.38518 0.401329 0.352686 
0.298702 0.902576 0.216357 0.509712 0.101427 
0.704779 0.767001 0.199914 0.369901 0.654948 
0.503618 0.370941 0.0516603 0.79747 0.895722 
0.215057 0.500895 0.92962 0.273983 0.586898 
0.37972 0.628278 0.597692 0.355951 0.268792 
0.109402 0.554381 0.428166 0.373626 0.474626 
0.56377 0.626584 0.689225 0.0452712 0.188823 
0.302202 0.583102 0.21442 0.889051 0.698721 
0.0692788 0.459389 0.654664 0.315402 0.342517 
0.0964016 0.0309754 0.93589 0.0691555 0.560292 
0.648401 0.598904 0.769091 0.371116 0.66009 
0.556266 0.828687 0.800789 0.305059 0.621177 
0.278399 0.681652 0.40234 0.662107 0.95301 
0.959888 0.786352 0.959265 0.130402 0.969881 
0.851977 0.19948 0.672258 0.205159 0.705797 
0.306135 0.353087 0.952903 0.357397 0.936353 
0.418166 0.626118 0.708786 0.381035 0.251501 
0.979293 0.674149 0.167897 0.111204 0.152503 
0.255851 0.857957 0.675891 0.487201 0.117514 
0.650563 0.560793 0.293801 0.787025 0.81499 
0.912959 0.469699 0.101256 0.646173 0.739564 
0.398763 0.593488 0.863705 0.375375 0.393119 
0.881889 0.290757 0.872383 0.102996 0.253494 
0.607258 0.483685 0.484078 0.727245 0.550891 
0.512552 0.75104 0.118768 0.829804 0.588773 
0.226764 0.487934 0.294506 0.606611 0.249503 
0.687894 0.54503 0.344571 0.726546 0.526786 
0.751665 0.491196 0.91913 0.949246 0.354473 
0.341646 0.323344 0.309584 0.382896 0.466008 
0.831657 0.0504061 0.751561 0.316034 0.141801 
0.172223 0.51448 0.836398 0.859418 0.792718 
0.551728 0.592561 0.291464 0.00814921 0.286976 
0.541147 0.890743 0.959568 0.431602 0.476902 
0.383422 0.66526 0.643037 0.384377 0.98762 
0.403596 0.453699 0.725406 0.398439 0.819046 
0.651414 0.779579 0.99308 0.530406 0.173417 
0.743101 0.545734 0.794102 0.964345 0.344741 
0.088336 0.907464 0.636038 0.399987 0.510267 
0.315083 0.241301 0.472541 0.889332 0.159469 
0.0881787 0.0372766 0.0179913 0.710476 0.0189058 
0.248278 0.0755409 0.569486 0.311674 0.603264 
0.0349273 0.531564 0.449081 0.0704055 0.242654 
0.331434 0.673343 0.237087 0.236689 0.635834 
0.930422 0.16629 0.2167 0.0206732 0.283509 
0.625974 0.478397 0.246361 0.680992 0.206516 
0.0943645 0.559718 0.218013 0.129274 0.144325 
0.12634 0.935624 0.819334 0.446058 0.597736 
0.427038 0.186201 0.597389 0.442548 0.310015 
0.854634 0.0680123 0.633382 0.154583 0.000135526 
0.843212 0.233865 0.623667 0.0133154 0.416212 
0.705473 0.083234 0.299821 0.188631 0.967373 
0.0376811 0.0123423 0.751804 0.361432 0.599473 
0.563894 0.586877 0.962616 0.154426 0.537994 
0.390056 0.545156 0.301958 0.651418 0.913204 
0.176568 0.12482 0.131929 0.390219 0.291491 
0.530796 0.41435 0.11597 0.646404 0.780225 
0.313003 0.824384 0.852384 0.0549554 0.718157 
0.864291 0.838587 0.530529 0.733883 0.323197 
0.200178 0.947016 0.762145 0.00899909 0.655864 
0.372754 0.30374 0.503314 0.635854 0.210153 
0.246819 0.617998 0.144476 0.253069 0.756181 
0.956313 0.949565 0.421216 0.129988 0.09174 
0.505108 0.330785 0.186738 0.368069 0.815093 
0.207956 0.955237 0.605968 0.989865 0.534708 
0.907176 0.96794 0.778647 0.740721 0.0106787 
0.797201 0.0506473 0.0270666 0.780056 0.0385644 
0.467993 0.075313 0.519166 0.745098 0.850172 
0.965357 0.814284 0.662599 0.254193 0.751994 
0.737264 0.308424 0.641806 0.0772921 0.809326 
0.967833 0.902732 0.891343 0.367121 0.449732 
0.486979 0.176441 0.104633 0.962056 0.147362 
0.690811 0.569225 0.737908 0.6901 0.704356 
0.0431522 0.0989309 0.404373 0.125145 0.495776 
0.58655 0.54424 0.695681 0.580197 0.97548 
0.350919 0.0268281 0.233931 0.826205 0.370176 
0.15578 0.951488 0.231317 0.592945 0.119996 
0.372644 0.0175458 0.189743 0.497118 0.457953 
0.224118 0.423107 0.0401277 0.223678 0.404557 
0.64374 0.579501 0.261791 0.0345056 0.77531 
0.108334 0.66642 0.558887 0.300167 0.491313 
0.0432461 0.831096 0.515247 0.849785 0.38004 
0.372088 0.544334 0.812607 0.622028 0.939215 
0.0931121 0.442042 0.562249 0.480305 0.437753 
0.951432 0.563259 0.141943 0.808475 0.861244 
0.0401245 0.940962 0.998787 0.411408 0.310037 
0.418463 0.732637 0.95794 0.0613693 0.87983 
0.54547 0.503687 0.337561 0.795902 0.715213 
0.503011 0.494271 0.914974 0.669037 0.269696 
0.418911 0.557827 0.119411 0.277054 0.496948 
0.286301 0.278446 0.133271 0.79864 0.462228 
0.584252 0.324303 0.474397 0.329268 0.266085 
0.0782567 0.90534 0.695239 0.976533 0.582578 
0.303419 0.178371 0.246759 0.0698724 0.00822328 
0.175454 0.268754 0.329189 0.265441 0.166984 
0.290334 0.0418374 0.8564 0.507982 0.968059 
0.524669 0.106719 0.93491 0.834665 0.178231 
0.86864 0.938483 0.413242 0.0936389 0.558857 
0.620343 0.176539 0.00753063 0.703813 0.157575 
0.117536 0.503948 0.0839606 0.631011 0.138451 
0.235117 0.166415 0.981301 0.251245 0.989138 
0.196397 0.806361 0.695172 0.982016 0.967408 
0.342918 0.987139 0.330484 0.213765 0.414065 
0.654689 0.249481 0.771735 0.470734 0.204193 
0.4233 0.336616 0.111805 0.981803 0.896402 
0.0909722 0.607751 0.49777 0.211383 0.353781 
0.19714 0.938717 0.0510729 0.846422 0.221481 
0.204016 0.921626 0.574131 0.33063 0.654966 
0.0749321 0.25414 0.839303 0.878986 0.930031 
0.253052 0.130638 0.105202 0.762638 0.124816 
0.562126 0.252099 0.916619 0.579809 0.100529 
0.492827 0.989551 0.643543 0.733421 0.958772 
0.0488852 0.698795 0.356702 0.82204 0.983035 
0.401104 0.365522 0.948908 0.989252 0.736102 
0.599436 0.81635 0.375443 0.253415 0.495159 
0.269434 0.986959 0.0394505 0.044703 0.693606 
0.786576 0.136938 0.559212 0.00512588 0.115303 
0.0200438 0.627478 0.997769 0.140068 0.237535 
0.390996 0.182315 0.323412 0.644556 0.675565 
0.00666129 0.253458 0.526279 0.93751 0.502651 
0.92259 0.617443 0.34577 0.395097 0.197503 
0.66889 0.574353 0.275927 0.495854 0.782722 
0.939782 0.444182 0.0281051 0.221714 0.415855 
0.532465 0.727738 0.565095 0.598103 0.361796 
0.669727 0.166967 0.336045 0.357915 0.52664 
0.280099 0.301244 0.178679 0.073456 0.0285699 
0.859131 0.393536 0.621881 0.535835 0.316527 
0.0295374 0.42948 0.732779 0.263325 0.443558 
0.512341 0.521729 0.0910626 0.00287032 0.0537381 
0.137042 0.926008 0.599693 0.357804 0.987669 
0.0395323 0.473554 0.77132 0.961929 0.665445 
0.414682 0.0225437 0.322363 0.69872 0.663856 
0.348247 0.863002 0.697407 0.992283 0.874874 
0.400952 0.618154 0.924473 0.455494 0.236483 
0.0675503 0.535957 0.162547 0.826642 0.267639 
0.897252 0.786022 0.441224 0.928948 0.982618 
0.720074 0.721435 0.565478 0.280911 0.175117 
0.70914 0.364001 0.720052 0.808514 0.486681 
0.460428 0.630824 0.723093 0.642677 0.394902 
0.995649 0.234171 0.880054 0.934013 0.549996 
0.665474 0.935281 0.247591 0.475982 0.690532 
0.741228 0.743885 0.572427 0.894386 0.901365 
0.450467 0.0898679 0.0933857 0.0494824 0.250576 
0.600443 0.035946 0.80167 0.910992 0.658649 
0.699552 0.197087 0.361231 0.169461 0.501797 
0.932942 0.747607 0.36363 0.575981 0.0862727 
0.331984 0.431722 0.919448 0.0163431 0.633137 
0.348342 0.706481 0.83231 0.190905 0.697718 
0.591767 0.621239 0.909844 0.731913 0.419326 
0.700745 0.0804715 0.813713 0.337908 0.234318 
0.641247 0.52383 0.309522 0.394988 0.999422 
0.795908 0.00314352 0.796637 0.794579 0.0595524 
0.24526 0.347253 0.771348 0.447653 0.147573 
0.160391 0.77437 0.550148 0.500632 0.35355 
0.253938 0.431681 0.156298 0.166218 0.266418 
0.627755 0.949404 0.247819 0.941862 0.938856 
0.260497 0.0669666 0.84112 0.51322 0.685127 
0.52635 0.203498 0.463175 0.587091 0.837262 
0.223092 0.156521 0.878397 0.10948 0.226575 
0.617714 0.116447 0.531882 0.658009 0.999021 
0.731269 0.274471 0.447711 0.402015 0.562312 
0.412641 0.673977 0.0518747 0.694689 0.329098 
0.999467 0.841331 0.502958 0.790858 0.765251 
0.55753 0.162974 0.82404 0.603623 0.540579 
0.0736327 0.869766 0.471171 0.0935028 0.0678327 
0.985702 0.88954 0.666547 0.786846 0.543083 
0.713521 0.22607 0.88189 0.123853 0.571864 
0.500868 0.00581382 0.380545 0.766543 0.269168 
0.14179 0.599133 0.560337 0.99407 0.983107 
0.837832 0.230409 0.991469 0.698552 0.667125 
0.324904 0.112737 0.590968 0.977328 0.677021 
0.567259 0.571872 0.786955 0.221668 0.487517 
0.489787 0.918697 0.267103 0.624178 0.454445 
0.59563 0.800007 0.116992 0.800034 0.619069 
0.0820938 0.235682 0.0642251 0.794673 0.0890904 
0.563664 0.375209 0.204944 0.840722 0.613989 
0.483166 0.651123 0.719632 0.963002 0.859854 
0.76453 0.29732 0.98 0.101232 0.330232 
0.965044 0.264464 0.802083 0.285791 0.474167 
0.674998 0.450721 0.170586 0.462825 0.416881 
0.9988 0.0706158 0.982629 0.346073 0.292922 
0.210701 0.438141 0.659604 0.199699 0.88646 
0.0196667 0.415398 0.59724 0.329028 0.0264098 
0.705165 0.705332 0.641883 0.30215 0.615335 
0.570534 0.961714 0.472089 0.982825 0.162991 
0.556509 0.222088 0.604988 0.767229 0.0653696 
0.86438 0.466343 0.525308 0.910535 0.363893 
0.944466 0.715831 0.459938 0.514314 0.257916 
0.977827 0.289327 0.639861 0.457885 0.807756 
0.233727 0.935289 0.908722 0.97892 0.577493 
0.818225 0.147663 0.674724 0.536311 0.262303 
0.395992 0.924048 0.608034 0.449857 0.536848 
0.950873 0.382408 0.529635 0.743418 0.434609 
0.176665 0.375435 0.696058 0.654853 0.0611804 
0.835894 0.0109128 0.122925 0.647007 0.615962 
0.497677 0.48861 0.309591 0.291859 0.291059 
0.517408 0.438374 0.0491633 0.760988 0.888372 
0.402448 0.158346 0.310528 0.448021 0.526214 
0.175275 0.633108 0.639242 0.418549 0.253043 
0.370278 0.679811 0.668005 0.0813482 0.515087 
0.432945 0.0766593 0.947692 0.0342195 0.152136 
0.606741 0.630821 0.102461 0.323266 0.737882 
0.0745708 0.777861 0.796149 0.745013 0.0680775 
0.712467 0.992622 0.829973 0.429689 0.503785 
0.693217 0.137036 0.67155 0.743247 0.810353 
0.390326 0.385805 0.571755 0.352382 0.719417 
0.657613 0.526048 0.521163 0.342261 0.0238711 
0.933129 0.0834491 0.379283 0.757064 0.290582 
0.604374 0.30032 0.0818114 0.558702 0.24228 
0.791314 0.56819 0.194724 0.618181 0.165769 
0.0936322 0.664423 0.819981 0.852911 0.416488 
0.999466 0.886581 0.10861 0.297658 0.0880472 
0.802565 0.404877 0.979823 0.378205 0.715756 
0.131533 0.00974529 0.580278 0.0148261 0.100017 
0.183987 0.689718 0.893664 0.415284 0.432515 
0.454246 0.717743 0.0666622 0.759874 0.677239 
0.372288 0.33401 0.123549 0.939626 0.777817 
0.245167 0.204169 0.329063 0.0376045 0.812105 
0.862235 0.0371464 0.125693 0.3064 0.55208 
0.556689 0.810851 0.728588 0.000216353 0.862321 
0.930793 0.324362 0.423448 0.522205 0.742873 
0.869889 0.324046 0.684738 0.973806 0.134242 
0.743696 0.192438 0.807756 0.873938 0.208027 
0.863465 0.790561 0.564844 0.37309 0.830081 
0.858458 0.493463 0.0369826 0.264489 0.458523 
0.0855828 0.586093 0.893822 0.689003 0.165738 
0.103618 0.78679 0.169363 0.38577 0.860594 
0.824686 0.634057 0.147948 0.45212 0.235178 
0.197069 0.754661 0.940408 0.820349 0.65214 
0.698888 0.298304 0.336402 0.462278 0.575234 
0.341704 0.239393 0.337975 0.152142 0.23973 
0.253508 0.368233 0.0975843 0.783717 0.381054 
0.764173 0.528781 0.426313 0.334155 0.665717 
0.264756 0.588645 0.582514 0.160054 0.468973 
0.371257 0.785219 0.830219 0.80679 0.673978 
0.235891 0.672544 0.990455 0.290701 0.126458 
0.435056 0.556826 0.282588 0.226096 0.367144 
0.975065 0.328033 0.0273148 0.857623 0.914652 
0.276669 0.4798 0.529142 0.0412501 0.167988 
0.149408 0.013594 0.563607 0.0588548 0.284857 
0.182956 0.0661756 0.780853 0.346963 0.0618682 
0.480949 0.339186 0.0978547 0.357085 0.0475462 
0.239044 0.336695 0.643005 0.325326 0.28471 
0.473286 0.308887 0.366909 0.991703 0.536994 
0.694728 0.0573171 0.419444 0.952824 0.226188 
0.507749 0.284615 0.723291 0.804005 0.71082 
0.47033 0.383525 0.613642 0.0259538 0.140122 
0.503992 0.0744385 0.267183 0.695409 0.510199 
0.318398 0.959029 0.347015 0.169588 0.184499 
0.802279 0.468612 0.213842 0.416609 0.911692 
0.211929 0.541363 0.70566 0.282573 0.933417 
0.680998 0.549387 0.915362 0.554011 0.43413 
0.18999 0.749528 0.437 0.612918 0.821107 
0.739042 0.228525 0.956123 0.186459 0.95273 
0.641518 0.0548953 0.649695 0.542207 0.443486 
0.706386 0.820012 0.751958 0.223295 0.953264 
0.744613 0.872311 0.782751 0.783827 0.767857 
0.849329 0.264631 0.124816 0.48352 0.283056 
0.211144 0.62451 0.716642 0.959446 0.380573 
0.0488491 0.462506 0.729488 0.970671 0.158939 
0.597201 0.806814 0.753882 0.675193 0.561017 
0.193431 0.364532 0.426243 0.344816 0.0815083 
0.397781 0.108484 0.111232 0.797464 0.26383 
0.151532 0.779921 0.138449 0.261473 0.932632 
0.83438 0.66515 0.40773 0.520372 0.485252 
0.317652 0.763283 0.651856 0.0730355 0.170407 
0.0221281 0.597065 0.800323 0.876136 0.871651 
0.369765 0.0673083 0.731609 0.0890912 0.352731 
0.34712 0.0912053 0.562989 0.723885 0.253968 
0.0590955 0.159362 0.0185148 0.959334 0.236422 
0.673975 0.835155 0.660627 0.780996 0.0593637 
0.893008 0.939891 0.845505 0.538699 0.129266 
0.767229 0.112101 0.0452942 0.0435558 0.173506 
0.301042 0.100601 0.202768 0.259321 0.322133 
0.446451 0.665161 0.525353 0.514601 0.0149242 
0.840324 0.0302431 0.603017 0.374634 0.0354812 
0.188866 0.0336817 0.0216023 0.819053 0.539929 
0.126408 0.842681 0.395278 0.624946 0.214769 
0.618071 0.599253 0.0511451 0.71926 0.078708 
0.80044 0.411539 0.555239 0.938697 0.314352 
0.520997 0.861643 0.665349 0.181257 0.347807 
0.800909 0.482124 0.309224 0.406165 0.662759 
0.130593 0.378918 0.12335 0.356767 0.413554 
0.825368 0.744648 0.80497 0.0265597 0.824968 
0.0174683 0.519545 0.508424 0.748898 0.271627 
0.881778 0.25021 0.896003 0.37994 0.120151 
0.915426 0.864753 0.553592 0.755395 0.89334 
0.669051 0.560783 0.95718 0.23159 0.883522 
0.762881 0.816332 0.752375 0.379472 0.69074 
0.684495 0.696366 0.361955 0.873871 0.238579 
0.420017 0.983639 0.906379 0.633254 0.920226 
0.430696 0.761127 0.475131 0.77835 0.187723 
0.151804 0.887668 0.741131 0.686547 0.865194 
0.497378 0.392632 0.948045 0.183942 0.412161 
0.377146 0.0406994 0.144672 0.051862 0.825677 
0.50318 0.060861 0.0465909 0.918273 0.0890221 
0.213891 0.0702795 0.342693 0.470617 0.331312 
0.240157 0.12639 0.694256 0.711678 0.655408 
0.33529 0.959263 0.875012 0.421029 0.370357 
0.0893944 0.172608 0.904097 0.493332 0.380988 
0.987673 0.579217 0.604171 0.994303 0.336905 
0.838399 0.327521 0.234197 0.449587 0.19326 
0.88725 0.0858405 0.0465412 0.170869 0.219631 
0.363895 0.643217 0.0062317 0.403131 0.862577 
0.285923 0.948565 0.762742 0.110894 0.000634093 
0.579017 0.74048 0.594327 0.207041 0.433037 
0.391864 0.282786 0.962658 0.969029 0.261131 
0.238381 0.91362 0.3668 0.210573 0.851723 
0.258992 0.0530442 0.344099 0.901477 0.176071 
0.634152 0.573825 0.570961 0.773385 0.983847 
0.771939 0.242015 0.0329506 0.760401 0.453059 
0.00318178 0.741306 0.866998 0.901283 0.441492 
0.718046 0.266484 0.824069 0.284576 0.86248 
0.540137 0.516247 0.814677 0.459119 0.0498649 
0.846308 0.269043 0.334263 0.679761 0.533475 
0.151885 0.954047 0.247749 0.0199036 0.199626 
0.745992 0.841605 0.299365 0.64859 0.453589 
0.452634 0.948938 0.765435 0.462373 0.00132226 
0.117441 0.850534 0.949227 0.802319 0.847052 
0.19532 0.909625 0.834592 0.937284 0.909972 
0.831798 0.810157 0.0691013 0.193621 0.177298 
0.173534 0.540953 0.891699 0.512978 0.0789869 
0.950402 0.609481 0.381278 0.390735 0.250705 
0.445252 0.748443 0.74393 0.492357 0.637066 
0.837145 0.480913 0.653768 0.861817 0.898835 
0.680383 0.971796 0.8172 0.822014 0.429855 
0.286826 0.735522 0.487225 0.135178 0.418152 
0.660381 0.277095 0.171215 0.982085 0.418966 
0.791388 0.294185 0.0260946 0.429557 0.0217341 
0.989277 0.917272 0.975665 0.993368 0.29608 
0.0476915 0.689595 0.233375 0.0996942 0.166306 
0.124012 0.434757 0.663412 0.984788 0.825765 
0.620688 0.0343932 0.462379 0.733596 0.766317 
0.470446 0.503502 0.343137 0.811594 0.146907 
0.251416 0.265063 0.781374 0.200382 0.120112 
0.491561 0.332162 0.656612 0.569411 0.881525 
0.0499982 0.22587 0.56174 0.381744 0.919689 
0.411746 0.890021 0.0845429 0.38548 0.485139 
0.714609 0.291319 0.757362 0.997254 0.650418 
0.881702 0.384918 0.194644 0.623854 0.26168 
0.935723 0.939844 0.750672 0.3743 0.701648 
0.0934826 0.0338812 0.840412 0.72848 0.926137 
0.0950253 0.285697 0.636746 0.0944179 0.794504 
0.852956 0.89131 0.28925 0.988489 0.552626 
0.152918 0.722664 0.673155 0.462198 0.218083 
0.00752815 0.712521 0.304821 0.904885 0.57079 
0.0585329 0.493988 0.0805372 0.104421 0.481188 
0.365439 0.928765 0.862431 0.651345 0.568138 
0.115698 0.0103208 0.514985 0.795794 0.578739 
0.390131 0.585536 0.0830059 0.726659 0.914532 
0.200206 0.479701 0.56601 0.992159 0.635045 
0.509644 0.128898 0.789702 0.804733 0.952822 
0.377737 0.663827 0.155405 0.648126 0.0193447 
0.921039 0.753853 0.616825 0.45643 0.69538 
0.951754 0.0252688 0.192373 0.323325 0.228073 
0.227064 0.974138 0.525996 0.783045 0.294027 
0.455262 0.403176 0.485255 0.481556 0.162466 
0.630066 0.679575 0.237685 0.485475 0.778621 
0.598624 0.146539 0.0748167 0.323784 0.665893 
0.221536 0.540538 0.0645022 0.00210076 0.980931 
0.999756 0.259781 0.710311 0.333194 0.941197 
0.949022 0.456222 0.447391 0.503945 0.547457 
0.824222 0.20703 0.118052 0.71448 0.257484 
0.78055 0.213264 0.67337 0.320614 0.614245 
0.0406384 0.0331962 0.709979 0.546092 0.493054 
0.26767 0.312441 0.662774 0.124321 0.229125 
0.745153 0.0548609 0.3793 0.596801 0.343009 
0.119427 0.0382401 0.341835 0.604933 0.892492 
0.27652 0.831448 0.364927 0.816868 0.000562147 
0.862255 0.245512 0.228616 0.499475 0.593223 
0.034555 0.241939 0.226837 0.235168 0.396687 
0.265636 0.0513812 0.807977 0.514016 0.228504 
0.571067 0.555474 0.0451465 0.645251 0.291257 
0.255714 0.382917 0.0372485 0.571728 0.124672 
0.244762 0.0458599 0.979838 0.479584 0.152808 
0.12193 0.975245 0.802391 0.47184 0.240212 
0.55025 0.3538 0.41516 0.962406 0.893548 
0.182766 0.262351 0.917235 0.794875 0.185514 
0.323285 0.75235 0.203339 0.0813152 0.993398 
0.633806 0.800984 0.0245286 0.947498 0.488931 
0.483737 0.653182 0.815419 0.151278 0.224571 
0.984202 0.942928 0.317184 0.658151 0.839833 
0.824119 0.48943 0.492297 0.123946 0.953649 
0.688343 0.195646 0.308909 0.278406 0.478721 
0.623331 0.157438 0.838013 0.741959 0.0450893 
0.00346492 0.940926 0.443192 0.67903 0.929093 
0.34914 0.0391524 0.879904 0.717928 0.439033 
0.967923 0.341997 0.973033 0.13194 0.14526 
0.738567 0.882148 0.361414 0.579761 0.0541626 
0.874912 0.428547 0.742822 0.750944 0.374322 
0.376011 0.218533 0.64189 0.0269692 0.885692 
0.770232 0.889824 0.255441 0.108784 0.0903136 
0.0938555 0.520488 0.874634 0.953098 0.0100172 
0.645462 0.933958 0.541917 0.183377 0.225061 
0.637329 0.770994 0.972055 0.151267 0.346393 
0.666426 0.0114096 0.32286 0.338511 0.0667319 
0.951666 0.676389 0.19399 0.0552739 0.77684 
0.574576 0.307614 0.043247 0.29977 0.58076 
0.718546 0.830555 0.19703 0.268759 0.360184 
0.179282 0.24509 0.80933 0.310061 0.640414 
0.0166157 0.0642214 0.449529 0.0773364 0.930941 
0.417251 0.771799 0.397598 0.51427 0.83657 
0.0933753 0.675207 0.719264 0.713501 0.35096 
0.0667173 0.446783 0.895209 0.988123 0.650766 
0.961619 0.608099 0.744006 0.194725 0.136266 
0.217063 0.0967679 0.89464 0.766312 0.771687 
0.915464 0.881973 0.589432 0.0710495 0.543196 
0.507827 0.10862 0.0347886 0.791203 0.836293 
0.958138 0.355344 0.43611 0.211313 0.970879 
0.193838 0.855004 0.670475 0.0188714 0.610703 
0.558037 0.0149644 0.498871 0.601708 0.527108 
0.920195 0.33878 0.944339 0.801695 0.160702 
0.196304 0.407725 0.76555 0.782379 0.738586 
0.395614 0.435988 0.146909 0.486243 0.4395 
0.749596 0.526042 0.605508 0.483468 0.810986 
0.264585 0.164447 0.700044 0.85476 0.834194 
0.118891 0.341353 0.327088 0.624979 0.0582229 
0.0714194 0.795115 0.858074 0.899216 0.0303197 
0.544082 0.69201 0.749307 0.861481 0.719421 
0.780473 0.667723 0.274193 0.694063 0.844711 
0.790244 0.978294 0.172808 0.498831 0.0223039 
0.175814 0.817774 0.297214 0.000772332 0.618521 
0.607585 0.34945 0.757415 0.81692 0.793708 
0.173915 0.665735 0.0334964 0.0833194 0.78918 
0.901577 0.541748 0.601107 0.728925 0.825815 
0.970696 0.935399 0.828149 0.877357 0.297584 
0.335021 0.531827 0.542068 0.173042 0.593761 
0.525116 0.651425 0.682443 0.351105 0.239194 
0.772531 0.770766 0.555682 0.529245 0.752251 
0.154977 0.148298 0.567547 0.454084 0.248632 
0.26566 0.503437 0.134166 0.781823 0.719922 
0.422481 0.889638 0.908302 0.316063 0.348818 
0.24935 0.343893 0.8825 0.309011 0.624442 
0.628018 0.89841 0.889154 0.462023 0.0754967 
0.990567 0.633309 0.730133 0.351471 0.59843 
0.842158 0.0570447 0.542627 0.660345 0.198387 
0.198789 0.251639 0.072166 0.44235 0.219002 
0.767605 0.0337736 0.248168 0.619808 0.521398 
0.458846 0.223439 0.639071 0.559009 0.418409 
0.224973 0.857521 0.11376 0.151932 0.516031 
0.979761 0.103125 0.0527526 0.525803 0.128447 
0.770737 0.953766 0.458962 0.468427 0.0538584 
0.774872 0.922189 0.055339 0.770703 0.437567 
0.72774 0.00166907 0.653277 0.405935 0.870525 
0.589588 0.127883 0.313558 0.605952 0.793937 
0.703941 0.175209 0.454079 0.865597 0.833913 
0.85171 0.396208 0.225574 0.653024 0.895213 
0.662287 0.542186 0.130458 0.409808 0.65671 
0.467553 0.428414 0.756518 0.681971 0.752213 
0.594861 0.645339 0.559299 0.460063 0.0300314 
0.365804 0.279935 0.243916 0.0469709 0.485841 
0.939422 0.188395 0.275682 0.891433 0.975363 
0.759492 0.361605 0.497075 0.856097 0.42695 
0.959359 0.682908 0.18111 0.0862928 0.855828 
0.942127 0.179515 0.261511 0.624094 0.187008 
0.109799 0.83805 0.684756 0.114455 0.794566 
0.294784 0.6704 0.984325 0.713194 0.785451 
0.176864 0.974473 0.635346 0.966489 0.835449 
0.137481 0.691116 0.362317 0.754978 0.230206 
0.333048 0.512184 0.0582557 0.552358 0.74911 
0.695821 0.919815 0.189032 0.213478 0.155385 
0.822912 0.08135 0.565162 0.0238407 0.847095 
0.168237 0.679507 0.391579 0.237284 0.410693 
0.534417 0.938433 0.395125 0.201167 0.295015 
0.722573 0.587361 0.419417 0.538866 0.732731 
0.575212 0.715409 0.941023 0.00491489 0.286534 
0.369899 0.561979 0.883531 0.345801 0.697503 
0.127616 0.49992 0.0306886 0.813593 0.429335 
0.42907 0.0214415 0.43557 0.519732 0.791518 
0.0947038 0.385802 0.750893 0.140291 0.903987 
0.0835925 0.624134 0.0231804 0.0752015 0.438829 
0.194333 0.717554 0.170452 0.770848 0.211094 
0.674859 0.0782033 0.327857 0.329281 0.305023 
0.492726 0.576277 0.185458 0.30258 0.0667413 
0.652124 0.875656 0.772417 0.322345 0.582961 
0.514407 0.360832 0.675902 0.185446 0.0186268 
0.312795 0.526206 0.219211 0.255943 0.335665 
0.790231 0.581173 0.67919 0.693959 0.235599 
0.0146918 0.425388 0.0272279 0.999346 0.308207 
0.30427 0.536353 0.117686 0.843029 0.385876 
0.395253 0.743616 0.742335 0.89346 0.743971 
0.0454033 0.181744 0.881152 0.577976 0.086019 
0.934965 0.213194 0.690492 0.427882 0.908053 
0.539206 0.283303 0.744501 0.843617 0.708489 
0.573284 0.528554 0.856108 0.815922 0.0356026 
0.890016 0.212725 0.658894 0.0856496 0.31662 
0.414802 0.680105 0.943426 0.606217 0.980881 
0.560884 0.110339 0.781958 0.990563 0.973416 
0.197155 0.806916 0.377698 0.151045 0.397895 
0.231576 0.351413 0.299892 0.978101 0.39035 
0.288252 0.927595 0.0461827 0.0857563 0.490351 
0.416733 0.110527 0.422509 0.289029 0.852444 
0.547362 0.234695 0.684398 0.746634 0.634308 
0.247632 0.388899 0.427737 0.870614 0.886109 
0.635712 0.931034 0.831796 0.0988045 0.863533 
0.33572 0.591957 0.460054 0.879491 0.591857 
0.931649 0.505769 0.197426 0.719815 0.499614 
0.687925 0.15638 0.629043 0.850888 0.287922 
0.544939 0.546994 0.415124 0.124613 0.0670927 
0.889672 0.0193509 0.919936 0.0666281 0.541975 
0.295552 0.46476 0.549444 0.179494 0.355049 
0.567447 0.0560727 0.672569 0.853709 0.0354778 
0.473521 0.166783 0.223928 0.529421 0.26291 
0.560144 0.751773 0.856885 0.550446 0.416547 
0.127471 0.681086 0.0342027 0.295343 0.374965 
0.371337 0.24894 0.966553 0.0962554 0.319096 
0.473933 0.516073 0.518223 0.115372 0.311276 
0.899446 0.686352 0.842116 0.635508 0.88688 
0.270563 0.347214 0.198883 0.339626 0.533759 
0.629378 0.181427 0.846657 0.553872 0.16457 
0.0779816 0.505309 0.177916 0.0655887 0.103514 
0.245687 0.761129 0.245826 0.117823 0.810002 
0.172636 0.414262 0.318661 0.895883 0.951855 
0.901956 0.077083 0.371529 0.557669 0.938213 
0.209438 0.00580128 0.662888 0.886055 0.264329 
0.0962649 0.624401 0.0353468 0.546476 0.346855 
0.139298 0.105496 0.871816 0.12328 0.491223 
0.260193 0.360512 0.226305 0.646947 0.576912 
0.830281 0.851237 0.528993 0.90162 0.592994 
0.854092 0.747036 0.863438 0.512942 0.68925 
0.744982 0.163321 0.11084 0.628665 0.212927 
0.83284 0.521722 0.388085 0.0223475 0.60791 
0.508892 0.753013 0.604643 0.583415 0.40255 
0.432827 0.66934 0.67557 0.224414 0.827824 
0.959011 0.426779 0.87399 0.704488 0.852615 
0.600832 0.256967 0.52333 0.155033 0.384249 
0.97206 0.427117 0.425744 0.0542931 0.919243 
0.00798361 0.80861 0.544879 0.232919 0.326151 
0.0385703 0.689919 0.687439 0.10633 0.72259 
0.146144 0.996871 0.777176 0.916193 0.145942 
0.184203 0.949339 0.409808 0.619548 0.282553 
0.214076 0.566909 0.534025 0.968412 0.964389 
0.945963 0.349395 0.533197 0.214718 0.544949 
0.940756 0.811125 0.811894 0.019035 0.524285 
0.72714 0.211896 0.866412 0.398978 0.844458 
0.265643 0.49851 0.874064 0.965735 0.490683 
0.256849 0.303315 0.345054 0.484764 0.154983 
0.225419 0.739135 0.0922681 0.672568 0.402339 
0.100509 0.904093 0.487641 0.0189492 0.797503 
0.0227976 0.225362 0.844904 0.317606 0.448474 
0.415359 0.801131 0.168082 0.564202 0.070537 
0.0595198 0.0580899 0.889411 0.0557674 0.648587 
0.134603 0.108275 0.803734 0.835378 0.274737 
0.201154 0.99746 0.515289 0.405616 0.386866 
0.55044 0.892515 0.227496 0.0352046 0.686987 
0.449136 0.404293 0.580427 0.90912 0.143494 
0.209669 0.181283 0.0822084 0.292751 0.925436 
0.0898124 0.277869 0.268223 0.00954032 0.0144154 
0.308858 0.980723 0.270361 0.662099 0.429083 
0.896425 0.41682 0.895583 0.926462 0.174752 
0.958645 0.444095 0.412643 0.614991 0.158823 
0.806796 0.873309 0.637888 0.76601 0.776362 
0.628967 0.290241 0.547576 0.274624 0.481073 
0.8862 0.146127 0.574728 0.905888 0.528686 
0.653613 0.544794 0.442917 0.182863 0.0492148 
0.482881 0.374106 0.575425 0.17713 0.990006 
0.742684 0.332741 0.220753 0.758522 0.850617 
0.433526 0.714093 0.385415 0.498511 0.0399178 
0.103414 0.601117 0.0278332 0.99734 0.82302 
0.148667 0.00450476 0.00566949 0.285867 0.0772278 
0.986037 0.437111 0.0399516 0.281982 0.146822 
0.242412 0.516782 0.536301 0.0793568 0.727666 
0.227438 0.426494 0.599337 0.183405 0.0326333 
0.390708 0.544009 0.258214 0.377948 0.934909 
0.733121 0.490891 0.000377643 0.477108 0.777623 
0.42492 0.391016 0.46511 0.54018 0.201814 
0.584516 0.109578 0.743341 0.833557 0.302513 
0.805307 0.980343 0.382631 0.95848 0.0480551 
0.772685 0.242189 0.0977429 0.106417 0.769039 
0.928063 0.576174 0.519766 0.550214 0.43887 
0.485325 0.580843 0.898521 0.379577 0.321944 
0.422124 0.404832 0.659718 0.216648 0.808042 
0.556582 0.442163 0.357928 0.919204 0.239391 
0.744147 0.716319 0.149038 0.263081 0.903781 
0.992127 0.627817 0.766179 0.953712 0.193793 
0.871407 0.199507 0.208529 0.779607 0.697876 
0.69051 0.210397 0.803315 0.451402 0.391309 
0.0244063 0.914318 0.502352 0.997714 0.878778 
0.954105 0.468932 0.163603 0.457226 0.165536 
0.566354 0.281327 0.45998 0.840189 0.986419 
0.920441 0.417117 0.0403953 0.359686 0.126627 
0.251112 0.199121 0.373951 0.0481554 0.584244 
0.134757 0.951109 0.502458 0.564271 0.308447 
0.338152 0.9209 0.532759 0.771959 0.213971 
0.422039 0.769889 0.062632 0.197552 0.399485 
0.753292 0.152646 0.202963 0.98872 0.229514 
0.552045 0.800251 0.805428 0.657452 0.252999 
0.500035 0.534729 0.969535 0.791861 0.277453 
0.598993 0.328267 0.607928 0.887657 0.510843 
0.382863 0.645588 0.587922 0.855188 0.157466 
0.13793 0.473031 0.908256 0.418113 0.479524 
0.730513 0.252343 0.298053 0.473096 0.558618 
0.419219 0.548359 0.729373 0.847725 0.677499 
0.855353 0.12833 0.353507 0.660539 0.240694 
0.876582 0.912114 0.129594 0.0881266 0.467897 
0.644449 0.749824 0.71803 0.317108 0.950881 
0.269951 0.231068 0.834498 0.476714 0.0674329 
0.482932 0.71814 0.590555 0.812494 0.65278 
0.0178582 0.381253 0.760564 0.641431 0.752862 
0.469077 0.0228437 0.0597134 0.764734 0.958589 
0.61985 0.514468 0.970173 0.765038 0.722524 
0.710862 0.883527 0.229102 0.0153374 0.297107 
0.988955 0.509309 0.573496 0.0806466 0.895321 
0.178104 0.978141 0.245509 0.179864 0.452264 
0.793896 0.300315 0.831898 0.613324 0.134509 
0.853272 0.543188 0.470564 0.0858441 0.215194 
0.819372 0.678457 0.60418 0.221325 0.241513 
0.452702 0.615684 0.104087 0.788796 0.132201 
0.705426 0.424674 0.93462 0.154116 0.748729 
0.249951 0.97303 0.157336 0.902434 0.988633 
0.0506938 0.0759793 0.84384 0.324876 0.28258 
0.28887 0.242578 0.764928 0.758121 0.155563 
0.0113352 0.620761 0.71688 0.734595 0.217674 
0.492148 0.406615 0.789703 0.263811 0.702474 
0.993461 0.0720186 0.51111 0.74365 0.399699 
0.270123 0.94314 0.916102 0.224525 0.427702 
0.945662 0.479363 0.400493 0.0394515 0.250501 
0.407143 0.109068 0.0872415 0.976883 0.256458 
0.273838 0.561629 0.668406 0.875476 0.605491 
0.747079 0.690284 0.193879 0.0543528 0.039524 
0.112917 0.576692 0.989043 0.949729 0.955729 
0.329149 0.438788 0.512165 0.751608 0.19198 
0.164226 0.274955 0.666996 0.871886 0.81929 
0.134486 0.942774 0.749776 0.308431 0.585744 
0.29302 0.346243 0.811591 0.0145651 0.450037 
0.621233 0.0783275 0.121718 0.648255 0.480819 
0.417019 0.928524 0.903471 0.675062 0.347185 
0.0451075 0.183313 0.232597 0.94714 0.809419 
0.994171 0.247467 0.814021 0.885314 0.820474 
0.884135 0.800682 0.903693 0.595273 0.972393 
0.5236 0.833672 0.824027 0.890318 0.510515 
0.538856 0.215251 0.0695309 0.614838 0.349168 
0.313404 0.251818 0.232911 0.844747 0.305558 
0.0204758 0.786418 0.993957 0.302291 0.91341 
0.597743 0.848552 0.791071 0.357399 0.426602 
0.296364 0.479125 0.887231 0.459367 0.364274 
0.109335 0.079868 0.610506 0.22588 0.662102 
0.464016 0.923808 0.0281 0.489508 0.941934 
0.857115 0.131976 0.885251 0.450331 0.479818 
0.459303 0.922099 0.869064 0.779776 0.971945 
0.559452 0.598962 0.592047 0.24233 0.528624 
0.952182 0.970553 0.444388 0.0519995 0.490602 
0.0541797 0.715126 0.311553 0.247729 0.267333 
0.304543 0.299141 0.301988 0.449191 0.459703 
0.0333196 0.336691 0.122235 0.0129052 0.790285 
0.937363 0.611821 0.184508 0.506142 0.0433581 
0.0422484 0.715923 0.39679 0.766177 0.0213345 
0.0710033 0.506137 0.878976 0.569614 0.923806 
0.717646 0.862788 0.541368 4.05245e-05 0.655758 
0.212214 0.0189487 0.0618068 0.71322 0.676879 
0.976294 0.727196 0.464764 0.174175 0.646956 
0.530509 0.844377 0.234535 0.965299 0.556218 
0.883295 0.0667183 0.947321 0.740593 0.500602 
0.739567 0.68847 0.699725 0.151747 0.270694 
0.909217 0.474525 0.376867 0.169166 0.549613 
0.811672 0.123406 0.431546 0.829616 0.134173 
0.109694 0.321148 0.6527 0.593145 0.353669 
0.0144271 0.160123 0.157688 0.800052 0.255375 
0.468214 0.488285 0.214036 0.414712 0.670202 
0.169429 0.608274 0.901008 0.86811 0.670823 
0.755054 0.752163 0.31171 0.740396 0.911357 
0.246558 0.746611 0.707623 0.427357 0.899188 
0.983218 0.0421768 0.0910825 0.263021 0.929652 
0.739411 0.811902 0.828921 0.534414 0.86151 
0.0396186 0.68074 0.904821 0.0200218 0.343303 
0.743484 0.283113 0.620188 0.197306 0.934853 
0.836418 0.545726 0.869661 0.635446 0.707798 
0.803507 0.196394 0.206023 0.883163 0.741491 
0.0231175 0.250135 0.244824 0.178466 0.87736 
0.839267 0.901249 0.314148 0.30953 0.448474 
0.0119663 0.625613 0.52155 0.183692 0.192551 
0.269962 0.249502 0.883463 0.508402 0.877141 
0.2131 0.234409 0.27388 0.53436 0.4153 
0.169067 0.751783 0.232731 0.208961 0.30762 
0.614293 0.866302 0.419872 0.347387 0.417786 
0.250172 0.866415 0.13077 0.785581 0.436039 
0.161706 0.997715 0.816986 0.306014 0.454821 
0.994841 0.378287 0.276086 0.910109 0.659528 
0.520344 0.751887 0.0711526 0.940341 0.995438 
0.399596 0.00821388 0.266504 0.724227 0.210367 
0.559417 0.433632 0.742319 0.324249 0.291828 
0.420853 0.190754 0.589574 0.649485 0.124799 
0.153279 0.704365 0.965895 0.47997 0.927861 
0.6703 0.0663388 0.602608 0.354021 0.0361963 
0.573861 0.626705 0.742333 0.36314 0.0227231 
0.708941 0.588619 0.406921 0.910873 0.975758 
0.0328525 0.443247 0.773791 0.474244 0.356992 
0.506263 0.610853 0.464024 0.192026 0.0454629 
0.311098 0.272329 0.477624 0.63609 0.824286 
0.968853 0.40428 0.282249 0.48908 0.421866 
0.78873 0.30057 0.51359 0.29263 0.402502 
0.991005 0.14809 0.761759 0.372454 0.459128 
0.719306 0.434027 0.655444 0.446188 0.0750872 
0.273914 0.136797 0.767988 0.572034 0.84745 
0.611699 0.816691 0.91453 0.899135 0.637404 
0.022204 0.319983 0.696278 0.879892 0.0665049 
0.935665 0.967384 0.00541524 0.0780052 0.826735 
0.115757 0.681964 0.91733 0.536489 0.144847 
0.449592 0.249002 0.230158 0.0221435 0.787694 
0.547388 0.680753 0.21114 0.726496 0.947952 
0.529005 0.63628 0.187636 0.189885 0.803772 
0.858316 0.159609 0.672084 0.201599 0.0787937 
0.866227 0.400049 0.0128532 0.658237 0.142996 
0.302374 0.677322 0.597634 0.813864 0.858866 
0.335028 0.392213 0.794578 0.091666 0.215756 
0.699329 0.281006 0.641985 0.763411 0.50636 
0.333385 0.971223 0.556408 0.127604 0.301886 
0.984965 0.089173 0.123014 0.0203637 0.177734 
0.463844 0.150934 0.425558 0.204954 0.891998 
0.565903 0.467837 0.189072 0.886027 0.150787 
0.668069 0.928741 0.253827 0.519265 0.0508224 
0.637727 0.968981 0.180908 0.643252 0.378262 
0.727757 0.643546 0.00634909 0.228411 0.401359 
0.123132 0.215241 0.499479 0.445573 0.0549477 
0.240874 0.839283 0.868104 0.298705 0.208456 
0.59426 0.135173 0.682122 0.352199 0.462019 
0.196178 0.115394 0.185096 0.562753 0.493467 
0.707293 0.852323 0.950045 0.953422 0.877138 
0.0366313 0.373551 0.498516 0.297125 0.297448 
0.91435 0.519979 0.241667 0.0836697 0.76651 
0.123889 0.976036 0.879327 0.635548 0.816465 
0.154995 0.909662 0.906874 0.179469 0.332344 
0.416405 0.714483 0.496474 0.739866 0.232154 
0.707747 0.187157 0.559596 0.957617 0.215688 
0.84394 0.880991 0.407756 0.236003 0.436611 
0.720561 0.311046 0.74033 0.0463761 0.668316 
0.785357 0.985698 0.668364 0.770557 0.660153 
0.705755 0.136468 0.45222 0.81799 0.043472 
0.59435 0.432527 0.76298 0.47531 0.345326 
0.868348 0.183241 0.00873163 0.00103104 0.832509 
0.481133 0.556785 0.850553 0.318089 0.128009 
0.337771 0.696948 0.608766 0.356418 0.0878156 
0.124681 0.411689 0.301611 0.0399179 0.428289 
0.0844504 0.247843 0.360176 0.652069 0.711966 
0.135344 0.664666 0.530387 0.991414 0.4727 
0.92366 0.0264265 0.547496 0.515141 0.666812 
0.645941 0.939081 0.461409 0.162977 0.775439 
0.793138 0.903665 0.0880054 0.480695 0.559202 
0.578052 0.369785 0.474895 0.55145 0.132131 
0.459799 0.0961922 0.727179 0.650273 0.628793 
0.204516 0.877867 0.485478 0.298409 0.0511753 
0.389032 0.402025 0.986915 0.39936 0.0797814 
0.250453 0.223793 0.245692 0.458584 0.951885 
0.702132 0.0974844 0.161669 0.263552 0.615106 
0.262137 0.637597 0.467545 0.597349 0.0138948 
0.845848 0.146857 0.716624 0.739711 0.981679 
0.00859977 0.104117 0.0281435 0.0287791 0.311128 
0.78955 0.602921 0.67256 0.597832 0.0200104 
0.503546 0.565811 0.0352612 0.963363 0.856312 
0.042615 0.280834 0.389045 0.976062 0.837832 
0.159696 0.115637 0.97712 0.0347826 0.354905 
0.85265 0.567786 0.672899 0.48997 0.238851 
0.540734 0.0715211 0.0358635 0.463958 0.513005 
0.70488 0.131807 0.983473 0.866307 0.365599 
0.728019 0.291159 0.00993067 0.766825 0.463115 
0.479212 0.698841 0.167125 0.732641 0.791497 
0.574312 0.764905 0.856398 0.298436 0.596768 
0.896251 0.476274 0.700486 0.839723 0.87512 
0.963236 0.670551 0.574454 0.0302345 0.555645 
0.149185 0.582201 0.943096 0.296964 0.0653232 
0.495268 0.211969 0.99855 0.32648 0.986166 
0.816843 0.467649 0.0394603 0.0569086 0.967436 
0.203534 0.265111 0.876011 0.789943 0.87041 
0.58215 0.274734 0.997881 0.283584 0.992743 
0.329631 0.163625 0.744776 0.169108 0.958727 
0.262888 0.0773161 0.675117 0.579524 0.102405 
0.522085 0.572837 0.852222 0.648184 0.734706 
0.27749 0.884794 0.972039 0.608855 0.93452 
0.715115 0.676664 0.889602 0.894327 0.830482 
0.349501 0.1207 0.316278 0.374711 0.428356 
0.885966 0.112059 0.531517 0.553936 0.742982 
0.886019 0.0851424 0.339661 0.212621 0.095665 
0.515569 0.575735 0.687747 0.781491 0.810408 
0.280414 0.100674 0.139368 0.0938473 0.020949 
0.873759 0.0205649 0.504458 0.478494 0.390783 
0.165724 0.829224 0.303091 0.402813 0.432987 
0.266511 0.380788 0.277592 0.611412 0.23561 
0.701437 0.414312 0.238004 0.565942 0.0597002 
0.89739 0.773499 0.320614 0.737805 0.892513 
0.186756 0.0627605 0.865647 0.291241 0.121017 
0.250695 0.490929 0.776315 0.490689 0.896821 
0.0973205 0.274426 0.803934 0.706612 0.878536 
0.746603 0.96686 0.930729 0.443479 0.230965 
0.970195 0.250009 0.0476775 0.701841 0.327211 
0.261797 0.154153 0.883844 0.223638 0.746769 
0.868257 0.199459 0.962093 0.149614 0.962922 
0.216353 0.143986 0.855746 0.462843 0.990477 
0.341167 0.630123 0.980429 0.878459 0.567294 
0.664522 0.254524 0.715669 0.858655 0.221457 
0.316001 0.424147 0.334737 0.678046 0.64434 
0.481161 0.410282 0.0177768 0.763559 0.300319 
0.313478 0.219984 0.562584 0.337159 0.0417637 
0.01424 0.796722 0.408903 0.119136 0.491382 
0.224405 0.507003 0.346213 0.0769404 0.861189 
0.218131 0.509942 0.964477 0.748322 0.881056 
0.440991 0.999426 0.171719 0.871959 0.00499632 
0.19834 0.655442 0.0846578 0.152515 0.879548 
0.276854 0.472343 0.575875 0.941745 0.0736373 
0.86039 0.397022 0.681867 0.362954 0.518819 
0.354272 0.615678 0.608996 0.33539 0.889823 
0.738375 0.695544 0.317972 0.298864 0.373878 
0.341191 0.563147 0.418565 0.542852 0.568627 
0.723725 0.591965 0.395225 0.732551 0.513443 
0.541673 0.380828 0.442421 0.196803 0.39119 
0.295465 0.698625 0.248895 0.290292 0.785265 
0.672715 0.085817 0.837719 0.345872 0.497341 
0.48305 0.0774161 0.0658226 0.588389 0.158814 
0.0834729 0.301934 0.878982 0.0599822 0.12808 
0.16649 0.734267 0.954671 0.516478 0.395867 
0.130211 0.199561 0.0390165 0.800082 0.182771 
0.704162 0.564737 0.643369 0.738694 0.181858 
0.757708 0.984128 0.845954 0.280802 0.521947 
0.202481 0.509614 0.325383 0.588005 0.581646 
0.917135 0.900337 0.24282 0.876327 0.19302 
0.810685 0.381855 0.869752 0.657285 0.732151 
0.317146 0.311079 0.218202 0.306007 0.810601 
0.974695 0.216404 0.476837 0.321052 0.2678 
0.826452 0.198499 0.653616 0.156723 0.241491 
0.261098 0.58075 0.482816 0.119717 0.632962 
0.134931 0.120533 0.929643 0.0767273 0.465967 
0.296529 0.9219 0.739956 0.811696 0.801385 
0.0503111 0.932066 0.147941 0.507221 0.282977 
0.168827 0.810822 0.774067 0.917184 0.313575 
0.847732 0.307341 0.764895 0.272207 0.466941 
0.318867 0.96827 0.718264 0.662702 0.996732 
0.95866 0.914669 0.923678 0.57467 0.0807372 
0.647744 0.0796951 0.477543 0.805561 0.0530879 
0.694463 0.156887 0.516166 0.978389 0.566474 
0.335456 0.233472 0.679127 0.936943 0.256601 
0.616157 0.413046 0.322636 0.607723 0.983694 
0.854968 0.390519 0.721712 0.665852 0.993793 
0.272979 0.926887 0.889226 0.151058 0.0322169 
0.227545 0.372143 0.427164 0.491719 0.239852 
0.231015 0.787854 0.186743 0.24299 0.390373 
0.111403 0.646335 0.780267 0.596343 0.0699257 
0.189166 0.758566 0.613461 0.465907 0.284684 
0.0758096 0.645222 0.0311651 0.767352 0.371694 
0.133138 0.282323 0.151194 0.552016 0.607254 
0.353539 0.699365 0.0842186 0.712803 0.134058 
0.0195026 0.741546 0.982407 0.425133 0.608106 
0.22091 0.720607 0.71769 0.818735 0.446943 
0.62455 0.0699852 0.204476 0.72083 0.37447 
0.375335 0.761529 0.680058 0.12536 0.744568 
0.325439 0.437774 0.720447 0.986064 0.940388 
0.195453 0.234987 0.531566 0.625638 0.375073 
0.86851 0.469461 0.660871 0.700445 0.902223 
0.901083 0.247075 0.670073 0.506303 0.478901 
0.483641 0.671305 0.240225 0.256313 0.188836 
0.540067 0.224042 0.435977 0.57406 0.0441537 
0.0872055 0.896752 0.603889 0.407498 0.119517 
0.227129 0.865869 0.665176 0.621799 0.221648 
0.589487 0.788437 0.853484 0.194402 0.927181 
0.465185 0.860582 0.275777 0.549041 0.980472 
0.0384383 0.525361 0.38337 0.903934 0.456872 
0.311125 0.346408 0.488302 0.367982 0.951314 
0.34703 0.982039 0.171574 0.266532 0.0762045 
0.482329 0.363895 0.686137 0.0832546 0.215283 
0.24299 0.238852 0.0686001 0.343705 0.357928 
0.17376 0.463722 0.36116 0.395124 0.0400164 
0.669127 0.922079 0.842815 0.339718 0.408746 
0.626288 0.0775274 0.533105 0.433065 0.749772 
0.943736 0.0900009 0.613901 0.197447 0.435225 
0.202045 0.85911 0.66517 0.426928 0.747665 
0.0343263 0.895151 0.920359 0.554421 0.504604 
0.704211 0.517847 0.605095 0.104191 0.647376 
0.202929 0.918759 0.279098 0.176191 0.868458 
0.530313 0.0369862 0.444242 0.601046 0.030377 
0.676514 0.453018 0.129671 0.859435 0.166474 
0.803098 0.655439 0.973798 0.399407 0.243994 
0.92144 0.129079 0.594543 0.632461 0.327581 
0.706641 0.682902 0.0287687 0.933238 0.135853 
0.78294 0.567049 0.260615 0.0835693 0.629276 
0.325508 0.413907 0.988148 0.54999 0.502679 
0.908147 0.360567 0.0945471 0.099254 0.229393 
0.207341 0.480817 0.178959 0.385547 0.814899 
0.257708 0.482234 0.866531 0.347398 0.538138 
0.932317 0.112606 0.190776 0.169998 0.462641 
0.726906 0.821564 0.94031 0.377447 0.465115 
0.945909 0.769499 0.852117 0.794521 0.274886 
0.0239857 0.765754 0.893667 0.626503 0.888321 
0.21548 0.236991 0.277344 0.939764 0.221742 
0.532137 0.838714 0.250213 0.832435 0.201843 
0.900885 0.494672 0.276946 0.586027 0.96145 
0.232885 0.43731 0.744672 0.661352 0.492452 
0.498509 0.813235 0.940402 0.578393 0.00958263 
0.244726 0.75679 0.706241 0.366187 0.877463 
0.387459 0.309439 0.479873 0.261565 0.0405466 
0.0738746 0.945504 0.821648 0.406469 0.706114 
0.842994 0.688063 0.00729349 0.804313 0.401048 
0.32682 0.628066 0.0576844 0.819332 0.5865 
0.249736 0.612725 0.99359 0.66133 0.566316 
0.788106 0.598416 0.555254 0.825093 0.416301 
0.323812 0.423182 0.137696 0.099776 0.0943196 
0.0619137 0.709992 0.45534 0.799207 0.243629 
0.0272077 0.39437 0.146084 0.651562 0.45086 
0.875658 0.365662 0.0186971 0.892625 0.838743 
0.270463 0.103099 0.969218 0.125645 0.240998 
0.187792 0.0564652 0.738318 0.586831 0.253328 
0.596086 0.343857 0.995451 0.723164 0.558858 
0.568477 0.289043 0.502052 0.791014 0.754166 
0.72935 0.700035 0.00144415 0.64236 0.59452 
0.0266483 0.646193 0.00617342 0.913415 0.318047 
0.260491 0.723703 0.465572 0.184944 0.165979 
0.545441 0.891642 0.65016 0.262281 0.675587 
0.954695 0.883833 0.659826 0.85509 0.795506 
