1700 5
0.136627 0.480913 0.50303 0.162519 0.469471 
0.551049 0.985541 0.334794 0.499312 0.782687 
0.29177 0.952988 0.542711 0.415588 0.540724 
0.280652 0.516933 0.671353 0.856158 0.479619 
0.282028 0.352204 0.120133 0.297365 0.819779 
0.436984 0.939209 0.405916 0.559754 0.335675 
0.661751 0.890202 0.158395 0.28634 0.476907 
0.802562 0.231843 0.530212 0.114969 0.491307 
0.96589 0.917813 0.573908 0.573622 0.289965 
0.380117 0.985517 0.730615 0.346917 0.992897 
0.798422 0.650018 0.809807 0.670089 0.248156 
0.716786 0.395522 0.90052 0.141866 0.42411 
0.281926 0.23613 0.760965 0.747022 0.452718 
0.335099 0.179216 0.135313 0.708123 0.28126 
0.673023 0.936206 0.0733777 0.802208 0.563091 
0.295723 0.482403 0.590595 0.800821 0.770387 
0.597965 0.714422 0.678394 0.390839 0.883706 
0.81587 0.689058 0.958254 0.314759 0.41797 
0.373496 0.17404 0.382925 0.329946 0.212438 
0.193133 0.96839 0.921678 0.255675 0.153063 
0.733464 0.429638 0.0571046 0.372077 0.746817 
0.755494 0.758912 0.677909 0.855639 0.0754604 
0.762333 0.862089 0.585673 0.896535 0.292535 
0.534188 0.701666 0.32685 0.917153 0.17343 
0.0702131 0.944192 0.415178 0.616053 0.602606 
0.28322 0.570853 0.770689 0.699207 0.446901 
0.171868 0.235623 0.641155 0.899408 0.342933 
0.658592 0.144492 0.652113 0.96771 0.69085 
0.582479 0.62485 0.0478983 0.881688 0.689563 
0.311964 0.0883257 0.983114 0.620391 0.244242 
0.516819 0.708264 0.13294 0.453542 0.35928 
0.657574 0.354009 0.442633 0.857463 0.431723 
0.65594 0.134592 0.203205 0.693747 0.610744 
0.771209 0.419958 0.256025 0.992795 0.334727 
0.711096 0.45396 0.148697 0.432134 0.173875 
0.443366 0.636654 0.890845 0.995184 0.740051 
0.686179 0.207057 0.172241 0.662105 0.361038 
0.636126 0.88548 0.896481 0.160275 0.65875 
0.710913 0.250848 0.46655 0.910846 0.874122 
0.373237 0.585686 0.114495 0.628542 0.63614 
0.819592 0.802589 0.663701 0.24862 0.0882196 
0.320621 0.0571038 0.278656 0.695454 0.336825 
0.370843 0.757924 0.100915 0.165363 0.96924 
0.618424 0.948427 0.323394 0.264418 0.552763 
0.842243 0.686599 0.55571 0.397157 0.611477 
0.14431 0.68627 0.223795 0.490868 0.251273 
0.525821 0.198608 0.817421 0.630433 0.964012 
0.269854 0.668831 0.602663 0.0303866 0.165122 
0.495623 0.713856 0.93769 0.576441 0.0497227 
0.917176 0.956649 0.789216 0.961979 0.567176 
0.126784 0.62322 0.181782 0.37867 0.985929 
0.413243 0.772972 0.383642 0.357515 0.022997 
0.489212 0.934479 0.275154 0.478677 0.312766 
0.621892 0.108265 0.244707 0.350575 0.897644 
0.281293 0.282939 0.745101 0.349065 0.189646 
0.243203 0.147151 0.570906 0.568909 0.389226 
0.857584 0.685621 0.227415 0.625976 0.254832 
0.866325 0.114359 0.916204 0.678432 0.841309 
0.43987 0.929755 0.636468 0.672893 0.251878 
0.945827 0.28096 0.900227 0.786693 0.76631 
0.0682656 0.275703 0.415991 0.753675 0.316264 
0.37606 0.0216822 0.551951 0.431142 0.45527 
0.511315 0.876239 0.36701 0.114348 0.791383 
0.324485 0.0438239 0.713553 0.730725 0.1403 
0.585168 0.762309 0.374107 0.943498 0.259541 
0.424769 0.933658 0.557075 0.595903 0.0194293 
0.0445395 0.21346 0.692785 0.722962 0.384671 
0.44376 0.455142 0.663313 0.221603 0.471761 
0.815256 0.638528 0.0806304 0.74333 0.0856984 
0.260243 0.425862 0.419638 0.5531 0.107573 
0.978557 0.620675 0.704843 0.343393 0.355717 
0.132562 0.221595 0.221302 0.844886 0.642819 
0.515123 0.48928 0.889878 0.63977 0.357137 
0.975465 0.502026 0.693548 0.105648 0.827436 
0.631404 0.488118 0.515498 0.387303 0.71646 
0.76264 0.348025 0.897367 0.283666 0.711722 
0.116665 0.0434071 0.46851 0.496202 0.0341481 
0.0291396 0.205628 0.0510513 0.402749 0.439353 
0.686571 0.221947 0.836242 0.0363258 0.285019 
0.0941492 0.0222554 0.390669 0.718366 0.268592 
0.854618 0.814309 0.929003 0.397724 0.621625 
0.460664 0.316518 0.712796 0.181363 0.306532 
0.434788 0.0479955 0.762476 0.520441 0.220779 
0.190794 0.785921 0.901262 0.385822 0.763021 
0.930798 0.104143 0.268783 0.110971 0.373145 
0.640253 0.379339 0.415486 0.464558 0.747054 
0.218932 0.576159 0.995976 0.449489 0.849824 
0.821919 0.687091 0.0248817 0.230079 0.00196211 
0.756788 0.7178 0.746773 0.177729 0.758804 
0.952541 0.98569 0.945842 0.512522 0.26685 
0.319795 0.62115 0.172613 0.590824 0.221673 
0.657806 0.525433 0.488136 0.0155563 0.963083 
0.405906 0.204309 0.000603529 0.724472 0.421328 
0.815394 0.25281 0.117977 0.607781 0.499684 
0.984232 0.957149 0.823614 0.579337 0.904348 
0.382421 0.192647 0.819524 0.555819 0.367455 
0.0395633 0.567178 0.151578 0.429514 0.740676 
0.342545 0.801799 0.240058 0.37952 0.995559 
0.70995 0.910874 0.18597 0.70888 0.00397667 
0.42547 0.382626 0.202241 0.315733 0.34599 
0.185477 0.951795 0.364587 0.429138 0.913583 
0.304255 0.514944 0.0385585 0.801262 0.597512 
0.552245 0.336591 0.844325 0.750321 0.926454 
0.958014 0.858786 0.169194 0.984734 0.247178 
0.147361 0.557582 0.0166266 0.427958 0.511872 
0.886673 0.67147 0.515862 0.350826 0.0983931 
0.0549678 0.314933 0.956713 0.0507619 0.873368 
0.319328 0.33018 0.536733 0.170759 0.168714 
0.0257244 0.440642 0.633671 0.892284 0.553689 
0.219893 0.228115 0.627251 0.252453 0.521194 
0.520841 0.583732 0.913166 0.0455655 0.589519 
0.966874 0.417762 0.288191 0.338965 0.95489 
0.971743 0.086931 0.102843 0.536231 0.115951 
0.782777 0.939838 0.421419 0.621234 0.0625357 
0.365323 0.974219 0.73332 0.703959 0.649161 
0.849807 0.5404 0.382003 0.683887 0.132806 
0.0361917 0.170261 0.961658 0.0403615 0.845425 
0.66769 0.93083 0.713139 0.557445 0.380346 
0.282312 0.0824171 0.738336 0.847212 0.322518 
0.454357 0.275867 0.304976 0.128669 0.281399 
0.00549961 0.0408475 0.110557 0.418492 0.108069 
0.97638 0.144691 0.0728365 0.199004 0.908996 
0.703057 0.0645619 0.137976 0.465838 0.342816 
0.542829 0.475914 0.422594 0.00913869 0.51949 
0.234283 0.787732 0.949606 0.522595 0.905149 
0.226033 0.571116 0.557012 0.296959 0.479493 
0.564323 0.523077 0.551661 0.0526212 0.667325 
0.275239 0.917118 0.559303 0.478597 0.0742015 
0.420678 0.173364 0.718287 0.251522 0.113974 
0.660038 0.430724 0.850679 0.95557 0.201562 
0.383301 0.849173 0.0806631 0.89992 0.251271 
0.837243 0.0249544 0.356434 0.66602 0.675992 
0.962757 0.374054 0.27621 0.316512 0.923145 
0.700674 0.318896 0.942223 0.323174 0.634404 
0.916618 0.937673 0.375661 0.0664978 0.484424 
0.295574 0.695439 0.0690388 0.239698 0.103268 
0.424044 0.311062 0.617029 0.0733905 0.73892 
0.0415282 0.224122 0.954412 0.297132 0.157292 
0.731979 0.995171 0.0253356 0.787882 0.71421 
0.484701 0.921889 0.341443 0.77686 0.149423 
0.428005 0.521198 0.717906 0.159833 0.122664 
0.0495984 0.922091 0.0758501 0.511114 0.667571 
0.109407 0.701338 0.672683 0.537791 0.144421 
0.150813 0.0335243 0.442413 0.615079 0.501895 
0.896671 0.127684 0.16932 0.881519 0.891076 
0.715255 0.753546 0.286667 0.846463 0.466841 
0.576449 0.926489 0.161268 0.0794722 0.959048 
0.101984 0.451922 0.494925 0.335562 0.21148 
0.817796 0.0325374 0.765092 0.473409 0.794057 
0.0686105 0.122158 0.504678 0.477822 0.969667 
0.203065 0.200534 0.973405 0.0689224 0.9573 
0.444883 0.868375 0.160463 0.576797 0.670516 
0.21082 0.680259 0.499386 0.202327 0.592648 
0.438585 0.191682 0.76618 0.803191 0.110082 
0.552383 0.699225 0.780788 0.0581964 0.964509 
0.291704 0.023683 0.0852512 0.281448 0.671956 
0.350021 0.453689 0.72715 0.789736 0.712427 
0.807289 0.106382 0.454368 0.21546 0.33789 
0.959845 0.714885 0.762184 0.942423 0.853297 
0.248304 0.276231 0.0622578 0.312608 0.969795 
0.86309 0.592055 0.925088 0.186658 0.151297 
0.657812 0.225367 0.941678 0.021469 0.405649 
0.428873 0.274964 0.903013 0.393754 0.676012 
0.470717 0.320424 0.265519 0.206342 0.498146 
0.459932 0.960143 0.965079 0.569689 0.58664 
0.914327 0.388875 0.907648 0.696431 0.143974 
0.768865 0.617588 0.452842 0.0224922 0.234299 
0.0681846 0.0212455 0.224411 0.358786 0.22834 
0.34285 0.314697 0.463413 0.539537 0.734668 
0.537267 0.515626 0.280507 0.802078 0.251043 
0.194097 0.400525 0.919268 0.861551 0.734531 
0.334429 0.678959 0.0891049 0.0414784 0.3388 
0.247476 0.0989065 0.0457811 0.692011 0.302014 
0.303216 0.096762 0.113727 0.565605 0.0366386 
0.28401 0.307048 0.674294 0.271565 0.604592 
0.488518 0.710195 0.374163 0.737069 0.329673 
0.241749 0.455987 0.256171 0.265086 0.47915 
0.238407 0.199414 0.619847 0.859478 0.734982 
0.928243 0.0713052 0.533456 0.397481 0.308743 
0.262926 0.994073 0.626987 0.204347 0.821152 
0.331222 0.228207 0.464985 0.107186 0.664663 
0.417576 0.816469 0.382776 0.050001 0.580725 
0.951066 0.0564529 0.460439 0.533469 0.316927 
0.554871 0.026106 0.505788 0.355809 0.790096 
0.867842 0.96935 0.520672 0.84253 0.494622 
0.3344 0.642644 0.666851 0.588764 0.492442 
0.690264 0.877976 0.492272 0.758695 0.894356 
0.725684 0.737523 0.367307 0.632523 0.634947 
0.580577 0.176208 0.213074 0.507375 0.881496 
0.768161 0.338621 0.327295 0.128373 0.0287297 
0.0132005 0.975792 0.349846 0.845052 0.119903 
0.79255 0.999568 0.303077 0.904366 0.518132 
0.298652 0.927876 0.557222 0.417634 0.237901 
0.723893 0.478534 0.525171 0.603305 0.612142 
0.20701 0.159867 0.474179 0.654372 0.805263 
0.222842 0.0575158 0.374204 0.817404 0.677765 
0.963254 0.0568051 0.335281 0.96426 0.519793 
0.201952 0.437388 0.239319 0.678996 0.227378 
0.948671 0.622687 0.875151 0.678093 0.754279 
0.611764 0.811008 0.66446 0.586066 0.894737 
0.767624 0.999422 0.827715 0.984024 0.0577107 
0.398672 0.293716 0.888304 0.745875 0.0112487 
0.143421 0.935234 0.376701 0.959846 0.886473 
0.528555 0.534869 0.436616 0.584633 0.871156 
0.524392 0.0722413 0.924121 0.570617 0.86995 
0.83105 0.123445 0.131041 0.154848 0.0758318 
0.599995 0.289917 0.549432 0.528573 0.286208 
0.607936 0.31669 0.25342 0.0337016 0.995893 
0.0602775 0.976532 0.843854 0.102157 0.922854 
0.534784 0.609938 0.11144 0.0681517 0.230485 
0.0993965 0.30881 0.781134 0.889494 0.257378 
0.231482 0.514662 0.849125 0.252075 0.278644 
0.344139 0.916649 0.491877 0.689816 0.238366 
0.794041 0.784243 0.410509 0.7625 0.0754489 
0.381127 0.129522 0.476183 0.844178 0.466514 
0.593921 0.874787 0.295868 0.624219 0.154841 
0.838046 0.01349 0.716356 0.392934 0.472761 
0.137285 0.45022 0.60451 0.104299 0.524059 
0.178674 0.87148 0.811194 0.839976 0.582855 
0.108782 0.124755 0.387053 0.0824566 0.636163 
0.702189 0.933773 0.515423 0.811293 0.0105252 
0.432766 0.694113 0.0928107 0.559733 0.295964 
0.133826 0.586444 0.559943 0.126794 0.0679036 
0.657601 0.584623 0.590309 0.733407 0.11546 
0.542698 0.89185 0.808006 0.657941 0.586366 
0.411697 0.737619 0.303826 0.161332 0.1728 
0.927717 0.00466964 0.0910847 0.494981 0.345831 
0.935269 0.0374141 0.637215 0.450992 0.370733 
0.228174 0.306217 0.298637 0.602738 0.69868 
0.373309 0.361647 0.363459 0.452667 0.807668 
0.67776 0.0859673 0.306675 0.235156 0.753495 
0.855295 0.5134 0.379745 0.865148 0.111048 
0.507318 0.873787 0.214038 0.85303 0.706708 
0.371206 0.982 0.973118 0.993872 0.575455 
0.844427 0.67225 0.865129 0.459083 0.0630543 
0.00706623 0.388589 0.309566 0.354347 0.525055 
0.307424 0.260391 0.241105 0.738264 0.409033 
0.24596 0.315547 0.338094 0.499725 0.721057 
0.459076 0.539127 0.985162 0.0301871 0.507893 
0.273796 0.397352 0.358678 0.200987 0.992699 
0.318813 0.974868 0.280961 0.158945 0.824462 
0.462216 0.201643 0.693648 0.215891 0.936843 
0.454817 0.999028 0.802142 0.956222 0.589763 
0.73012 0.0316789 0.258745 0.032615 0.0304289 
0.243966 0.804965 0.775965 0.865497 0.703333 
0.885004 0.422986 0.183996 0.225169 0.301023 
0.0455153 0.450844 0.342077 0.550364 0.636722 
0.9225 0.249659 0.528144 0.761592 0.866758 
0.791324 0.804639 0.588001 0.815533 0.910801 
0.70639 0.784403 0.293836 0.810498 0.0349449 
0.945689 0.271596 0.615619 0.400415 0.923226 
0.864106 0.297688 0.161141 0.182533 0.584985 
0.937859 0.858353 0.590165 0.432125 0.0557129 
0.972441 0.373343 0.546938 0.864867 0.714389 
0.611939 0.0816197 0.368898 0.44942 0.173459 
0.922509 0.521156 0.871035 0.384756 0.0390861 
0.211338 0.0696871 0.174581 0.592219 0.817689 
0.34956 0.188347 0.893887 0.731862 0.777771 
0.0699199 0.994149 0.713524 0.34658 0.819124 
0.652439 0.0184377 0.628094 0.35183 0.610754 
0.738616 0.278604 0.513088 0.921614 0.625018 
0.847346 0.207704 0.0102462 0.968987 0.476252 
0.840431 0.968592 0.148406 0.414661 0.331244 
0.084123 0.494136 0.58148 0.64491 0.453798 
0.12057 0.05225 0.0906638 0.162102 0.90976 
0.920268 0.995428 0.878071 0.801771 0.260497 
0.237136 0.965687 0.0885608 0.313245 0.639503 
0.478466 0.30834 0.312222 0.334845 0.398599 
0.150004 0.417818 0.315079 0.952519 0.138694 
0.757538 0.587635 0.199912 0.137796 0.342793 
0.989924 0.861072 0.524626 0.0666383 0.600905 
0.475066 0.785015 0.590242 0.466708 0.123822 
0.426324 0.70644 0.510303 0.599508 0.265694 
0.585214 0.674099 0.684192 0.952412 0.114655 
0.416131 0.0909575 0.696047 0.682732 0.235152 
0.097193 0.0192883 0.602873 0.41666 0.133599 
0.925851 0.321411 0.10696 0.874683 0.759956 
0.318821 0.549785 0.00433763 0.985373 0.904748 
0.927859 0.0409509 0.221875 0.0363124 0.0547256 
0.990414 0.187052 0.464423 0.427668 0.617562 
0.881998 0.346557 0.600299 0.39209 0.57519 
0.123226 0.948794 0.396461 0.596584 0.0384396 
0.194222 0.990792 0.472465 0.452057 0.583433 
0.21461 0.292587 0.559552 0.367991 0.327717 
0.992736 0.969002 0.908449 0.906096 0.360125 
0.96146 0.361092 0.0510785 0.486078 0.0930468 
0.143414 0.291331 0.08467 0.920696 0.373708 
0.855484 0.584423 0.733029 0.303991 0.7211 
0.272188 0.688687 0.885421 0.72726 0.949308 
0.754228 0.4905 0.168306 0.147289 0.495709 
0.502415 0.540659 0.836277 0.0543992 0.495496 
0.416289 0.542655 0.157506 0.849584 0.186102 
0.209606 0.00366014 0.762726 0.525194 0.0470273 
0.707625 0.0627616 0.448667 0.72056 0.810993 
0.69249 0.0764624 0.532252 0.758979 0.157756 
0.873697 0.134973 0.191904 0.892627 0.214718 
0.312491 0.503473 0.667876 0.358597 0.292174 
0.37797 0.377728 0.996641 0.0264748 0.555401 
0.843407 0.437931 0.675598 0.339398 0.277663 
0.461483 0.843383 0.776804 0.4323 0.537658 
0.134771 0.786968 0.73293 0.547965 0.749535 
0.739466 0.0311615 0.453755 0.03611 0.505219 
0.877334 0.88713 0.99236 0.536085 0.727276 
0.117017 0.785631 0.967443 0.363796 0.734088 
0.538232 0.990609 0.93799 0.0991927 0.43846 
0.63473 0.60789 0.488892 0.75169 0.342087 
0.791404 0.241981 0.12972 0.124101 0.729716 
0.0496014 0.274303 0.375672 0.921133 0.997653 
0.138605 0.810018 0.246542 0.0594718 0.941028 
0.571612 0.203254 0.195069 0.789267 0.489093 
0.761522 0.668947 0.532407 0.311551 0.23706 
0.581657 0.44679 0.520914 0.691925 0.565724 
0.808683 0.464435 0.107652 0.784907 0.654337 
0.856255 0.649561 0.721816 0.605953 0.18821 
0.105519 0.192156 0.34453 0.69699 0.419954 
0.910639 0.21734 0.507321 0.218711 0.107653 
0.290435 0.700955 0.0102867 0.654311 0.00355816 
0.514917 0.435144 0.331781 0.947442 0.199609 
0.807476 0.768675 0.712236 0.788186 0.933399 
0.766298 0.694618 0.645291 0.892503 0.233112 
0.391488 0.331751 0.221965 0.693955 0.854411 
0.65838 0.00995501 0.895969 0.355011 0.0151563 
0.595607 0.564819 0.0879915 0.364373 0.440683 
0.191436 0.639331 0.690886 0.463908 0.850787 
0.953815 0.459288 0.318473 0.605625 0.107566 
0.600862 0.378901 0.807993 0.616796 0.95289 
0.0418567 0.136405 0.208341 0.404152 0.351842 
0.281899 0.0789479 0.0598257 0.262557 0.955217 
0.327259 0.531751 0.381266 0.468553 0.205108 
0.699669 0.34472 0.300802 0.461072 0.895555 
0.497992 0.339613 0.931599 0.297682 0.832035 
0.61234 0.860076 0.879769 0.434879 0.053648 
0.28595 0.264602 0.338042 0.0686914 0.859679 
0.414928 0.675653 0.998676 0.603888 0.147105 
0.540664 0.496485 0.822488 0.985226 0.185438 
0.394879 0.78167 0.433145 0.347566 0.781068 
0.377713 0.86945 0.573796 0.87261 0.66459 
0.939906 0.727818 0.114008 0.358163 0.857367 
0.753118 0.133777 0.804521 0.734699 0.336511 
0.627766 0.397088 0.137493 0.491739 0.475729 
0.49691 0.894794 0.851551 0.868567 0.527442 
0.764529 0.096574 0.496594 0.281795 0.490928 
0.671617 0.683706 0.959006 0.192096 0.833973 
0.101361 0.107141 0.276453 0.76209 0.968385 
0.833866 0.770796 0.632128 0.405738 0.717443 
0.915206 0.429241 0.260819 0.155652 0.666948 
0.314901 0.347883 0.639946 0.580721 0.126019 
0.918726 0.954252 0.308622 0.849069 0.579063 
0.759337 0.902058 0.372034 0.740594 0.487838 
0.45338 0.902497 0.969293 0.327463 0.0156172 
0.89728 0.052692 0.147029 0.457927 0.529571 
0.805079 0.318439 0.61608 0.646365 0.909351 
0.711927 0.955244 0.967354 0.54481 0.918709 
0.181699 0.843181 0.693895 0.3912 0.671688 
0.294851 0.0683579 0.0917438 0.48395 0.460869 
0.156038 0.413635 0.846348 0.539104 0.164222 
0.178023 0.541557 0.127642 0.264664 0.927974 
0.261696 0.269858 0.481785 0.0114468 0.612285 
0.56612 0.743294 0.0851745 0.472593 0.946432 
0.947375 0.534388 0.310192 0.189273 0.614925 
0.980954 0.0510223 0.400022 0.552981 0.815853 
0.964983 0.344033 0.579037 0.670704 0.321408 
0.0966036 0.00815321 0.730855 0.889204 0.619514 
0.700488 0.752215 0.458553 0.68351 0.441423 
0.786793 0.541681 0.265039 0.587345 0.462438 
0.353137 0.0802134 0.0892524 0.644458 0.492321 
0.471692 0.0376074 0.804514 0.579424 0.585469 
0.515014 0.733074 0.922739 0.904891 0.529796 
0.778701 0.837394 0.587057 0.283278 0.634143 
0.403974 0.447144 0.54596 0.583117 0.362401 
0.525399 0.119481 0.605751 0.548538 0.543978 
0.0522976 0.694313 0.65277 0.532748 0.0641884 
0.332456 0.252139 0.461352 0.00535891 0.664962 
0.378246 0.239713 0.593063 0.700824 0.77906 
0.543047 0.762222 0.455077 0.386084 0.681797 
0.384412 0.236875 0.265612 0.95044 0.27121 
0.13423 0.997688 0.824982 0.809048 0.824144 
0.125168 0.451033 0.290918 0.224946 0.362613 
0.698039 0.310829 0.0392297 0.757009 0.00329733 
0.224396 0.175455 0.964451 0.554721 0.614519 
0.348063 0.818343 0.976132 0.29565 0.540752 
0.777687 0.205964 0.652308 0.0458909 0.421028 
0.390757 0.92513 0.0459252 0.92708 0.771066 
0.0381721 0.685016 0.779016 0.509419 0.854364 
0.43474 0.553014 0.684678 0.716603 0.623579 
0.256339 0.894754 0.365444 0.657719 0.921009 
0.477902 0.936708 0.832208 0.784644 0.257552 
0.669276 0.485628 0.0662027 0.575977 0.635709 
0.822365 0.11753 0.556804 0.847741 0.571021 
0.278092 0.990935 0.00836153 0.627606 0.963049 
0.708687 0.126103 0.526124 0.42959 0.998108 
0.0101393 0.663498 0.274163 0.273154 0.365934 
0.122331 0.432446 0.184291 0.871103 0.023037 
0.56888 0.17024 0.826103 0.975939 0.67603 
0.545541 0.823852 0.574613 0.478219 0.288706 
0.253315 0.893534 0.0834075 0.669651 0.908535 
0.663793 0.428593 0.480265 0.238003 0.381147 
0.81121 0.0804463 0.473032 0.991974 0.970275 
0.48506 0.182282 0.495358 0.2489 0.17428 
0.00673627 0.855074 0.270265 0.244782 0.726608 
0.0319583 0.839376 0.913427 0.323416 0.67938 
0.768902 0.631772 0.645678 0.526766 0.755442 
0.194449 0.363171 0.809423 0.626035 0.306959 
0.967562 0.772015 0.151509 0.95623 0.172501 
0.360063 0.156766 0.942131 0.650991 0.235103 
0.513472 0.849939 0.954615 0.700604 0.581915 
0.968543 0.289581 0.924687 0.977072 0.0487835 
0.076606 0.428729 0.594998 0.188128 0.429468 
0.0679998 0.0608582 0.492772 0.2396 0.0532253 
0.841672 0.804757 0.153608 0.86474 0.28329 
0.531017 0.0597684 0.479134 0.452117 0.752216 
0.276812 0.431513 0.751842 0.00230055 0.754624 
0.075222 0.506967 0.805455 0.203933 0.196278 
0.200026 0.907856 0.803487 0.862914 0.524296 
0.00250872 0.349085 0.620656 0.389588 0.688876 
0.8371 0.3512 0.427811 0.741811 0.47789 
0.452836 0.926432 0.89217 0.337035 0.0135983 
0.562058 0.986811 0.933186 0.639918 0.313843 
0.2846 0.423861 0.781064 0.361027 0.447208 
0.820802 0.109589 0.860762 0.393089 0.362756 
0.552054 0.69498 0.444235 0.754291 0.441764 
0.0979464 0.75508 0.690218 0.279308 0.7623 
0.435555 0.158241 0.157554 0.435079 0.673367 
0.382731 0.201219 0.735437 0.232988 0.855147 
0.251564 0.963465 0.730896 0.795697 0.497353 
0.724867 0.691484 0.727118 0.66491 0.687138 
0.376475 0.426322 0.927974 0.397575 0.285427 
0.187238 0.552847 0.268449 0.743147 0.108629 
0.0751292 0.166359 0.783619 0.970685 0.553783 
0.409789 0.762744 0.0840432 0.721854 0.401262 
0.786618 0.966237 0.811095 0.0688781 0.703659 
0.885949 0.428228 0.684273 0.637004 0.806143 
0.243223 0.438235 0.482653 0.925467 0.725754 
0.374015 0.8464 0.792495 0.0284345 0.789382 
0.0970639 0.319974 0.745009 0.885035 0.365745 
0.229818 0.563524 0.917154 0.796691 0.448927 
0.721181 0.52839 0.0120688 0.791818 0.411177 
0.198958 0.386115 0.0410637 0.0261098 0.734642 
0.326387 0.189509 0.900239 0.907607 0.392332 
0.741566 0.247258 0.520024 0.687109 0.651484 
0.453536 0.0370173 0.672585 0.738295 0.123402 
0.749118 0.449207 0.78293 0.936349 0.843154 
0.485976 0.546293 0.87401 0.661849 0.743911 
0.199145 0.784757 0.474504 0.600321 0.593275 
0.600718 0.479513 0.949795 0.177006 0.984024 
0.113535 0.744422 0.778796 0.45942 0.982748 
0.535743 0.680302 0.0543391 0.416505 0.00687699 
0.693186 0.129017 0.65877 0.884682 0.697052 
0.928451 0.627246 0.0891652 0.52828 0.242766 
0.585189 0.72333 0.174367 0.815254 0.594256 
0.988566 0.524713 0.0914385 0.582635 0.167993 
0.185898 0.0113938 0.307263 0.885547 0.337892 
0.879198 0.54575 0.721052 0.763474 0.050096 
0.767917 0.391976 0.715274 0.80736 0.325169 
0.287943 0.531572 0.561471 0.295753 0.963207 
0.259178 0.997782 0.680866 0.25175 0.721403 
0.601561 0.105852 0.598231 0.21002 0.181186 
0.737463 0.962623 0.803222 0.821613 0.335893 
0.705212 0.0702834 0.0646939 0.309261 0.0130278 
0.772793 0.821032 0.991812 0.575564 0.368322 
0.087993 0.473786 0.138341 0.139232 0.918982 
0.690209 0.336464 0.958287 0.336917 0.468688 
0.274656 0.0571488 0.684656 0.835484 0.175098 
0.00774429 0.433493 0.12617 0.667459 0.43916 
0.841489 0.751646 0.174407 0.66677 0.131322 
0.955651 0.912063 0.626612 0.666308 0.810758 
0.874836 0.832381 0.717067 0.309141 0.44442 
0.114325 0.836786 0.0292818 0.483625 0.0821049 
0.0445584 0.851222 0.927675 0.145029 0.191281 
0.925665 0.688075 0.197061 0.56289 0.00437711 
0.781637 0.569226 0.215185 0.403899 0.422374 
0.130138 0.120624 0.0712246 0.515304 0.458117 
0.292961 0.64991 0.789211 0.242211 0.10824 
0.436359 0.52639 0.105896 0.251731 0.318694 
0.292585 0.815885 0.363853 0.223813 0.00504794 
0.775136 0.0733627 0.115712 0.515952 0.586692 
0.953797 0.618809 0.730138 0.755059 0.988699 
0.575375 0.484751 0.00169133 0.193104 0.339203 
0.81885 0.902545 0.314758 0.791518 0.040554 
0.476514 0.682154 0.349341 0.159401 0.973165 
0.881831 0.267983 0.249245 0.72581 0.715314 
0.669554 0.0060797 0.300011 0.543436 0.604016 
0.126742 0.109101 0.168401 0.520008 0.36414 
0.177591 0.114334 0.119736 0.717657 0.291597 
0.643102 0.267018 0.07488 0.33164 0.231396 
0.0585648 0.221967 0.196706 0.547944 0.0314457 
0.83788 0.0967637 0.989315 0.547059 0.155596 
0.368254 0.480445 0.832326 0.0862914 0.0908276 
0.0556206 0.0281741 0.66007 0.897236 0.536419 
0.942208 0.592405 0.158667 0.961828 0.894686 
0.265279 0.216414 0.73048 0.589128 0.308203 
0.617837 0.946798 0.781386 0.934161 0.0879105 
0.533639 0.716749 0.363292 0.0595376 0.812117 
0.986535 0.796 0.535576 0.956135 0.322798 
0.454852 0.254863 0.870467 0.722227 0.391496 
0.973387 0.97228 0.603495 0.0852071 0.0581132 
0.087227 0.0248538 0.527486 0.88689 0.856104 
0.506893 0.147602 0.837114 0.0159203 0.0878196 
0.711679 0.589785 0.532924 0.839668 0.469813 
0.988541 0.0763357 0.987423 0.677315 0.523336 
0.422714 0.528045 0.944616 0.704128 0.292909 
0.990317 0.297063 0.451279 0.199651 0.805947 
0.876582 0.510317 0.0891247 0.944661 0.204145 
0.357962 0.922953 0.196371 0.680175 0.352199 
0.04144 0.592558 0.0673467 0.639386 0.119163 
0.265358 0.132629 0.768698 0.609068 0.655716 
0.223321 0.738905 0.425648 0.934724 0.033991 
0.608199 0.171759 0.196844 0.608529 0.782063 
0.118141 0.595173 0.321239 0.013496 0.621862 
0.499584 0.189344 0.23037 0.938656 0.121836 
0.555029 0.114255 0.870203 0.966587 0.671969 
0.254611 0.574472 0.381447 0.270599 0.331277 
0.682675 0.338872 0.0344777 0.889523 0.633117 
0.129325 0.554143 0.0876793 0.096826 0.477086 
0.409659 0.303118 0.52919 0.396281 0.658118 
0.72178 0.0719936 0.962802 0.634633 0.646162 
0.440119 0.735863 0.0387543 0.255804 0.288466 
0.341747 0.62947 0.259776 0.845496 0.364181 
0.754326 0.410397 0.763493 0.00832032 0.250514 
0.511093 0.896488 0.911626 0.66179 0.929157 
0.21666 0.677352 0.381303 0.5887 0.239278 
0.795866 0.0946272 0.770824 0.650846 0.387012 
0.0533227 0.471402 0.761478 0.956862 0.217241 
0.502366 0.439096 0.539091 0.0889375 0.513103 
0.17735 0.948441 0.0697209 0.685253 0.771935 
0.671794 0.512479 0.458132 0.44361 0.241627 
0.596649 0.57056 0.618214 0.408385 0.941278 
0.808948 0.343324 0.212777 0.118143 0.254925 
0.94341 0.0715499 0.527236 0.935066 0.938096 
0.486695 0.948759 0.517878 0.142894 0.150954 
0.817767 0.169456 0.947502 0.817345 0.423946 
0.180163 0.988546 0.0136129 0.380292 0.0370902 
0.542671 0.562001 0.380579 0.364997 0.214703 
0.88384 0.103164 0.5429 0.476151 0.970194 
0.567054 0.247827 0.453491 0.992533 0.127581 
0.877474 0.335886 0.376592 0.324905 0.427516 
0.251283 0.626406 0.829881 0.752121 0.357615 
0.680183 0.333416 0.0844642 0.254074 0.41455 
0.872543 0.80089 0.563957 0.431332 0.682542 
0.893579 0.349346 0.441112 0.137106 0.0491415 
0.296638 0.467805 0.550707 0.247839 0.279636 
0.724046 0.42842 0.518912 0.886134 0.756286 
0.461378 0.402586 0.443511 0.54831 0.804902 
0.887112 0.377744 0.829244 0.318169 0.644382 
0.593721 0.0201782 0.995913 0.445529 0.0112718 
0.829186 0.536807 0.447741 0.989738 0.71565 
0.412199 0.994584 0.561687 0.104742 0.751922 
0.399559 0.0313704 0.631177 0.900673 0.00209309 
0.0167058 0.32008 0.23309 0.630672 0.603603 
0.776268 0.435083 0.133093 0.958578 0.98274 
0.19477 0.0564973 0.662323 0.442957 0.117817 
0.450789 0.859364 0.350672 0.539467 0.936977 
0.280665 0.256666 0.890204 0.415975 0.294991 
0.467196 0.464722 0.763414 0.893543 0.481642 
0.851703 0.743195 0.567422 0.946278 0.0958791 
0.694558 0.244075 0.870251 0.607488 0.946485 
0.764281 0.407973 0.0275406 0.761736 0.161248 
0.67096 0.513076 0.595659 0.35144 0.664875 
0.309731 0.949123 0.581859 0.589379 0.463643 
0.681031 0.793877 0.682068 0.543993 0.712397 
0.0493127 0.902353 0.987215 0.857583 0.37924 
0.800304 0.0274629 0.0652769 0.486756 0.413487 
0.991769 0.62397 0.77393 0.50458 0.425398 
0.826945 0.92404 0.0574026 0.11459 0.574751 
0.658678 0.21329 0.207148 0.686613 0.411172 
0.760872 0.0881529 0.554218 0.340478 0.246983 
0.164622 0.558048 0.795318 0.13941 0.651143 
0.71806 0.946329 0.930054 0.965948 0.538636 
0.451756 0.831468 0.0952155 0.983751 0.796274 
0.715249 0.590934 0.524123 0.960166 0.736223 
0.287179 0.744003 0.691759 0.396265 0.0352816 
0.962799 0.597767 0.00852931 0.229447 0.612569 
0.698841 0.511322 0.562076 0.298973 0.259007 
0.421738 0.972578 0.82712 0.787712 0.231416 
0.771145 0.0486016 0.33545 0.755674 0.239269 
0.354028 0.513766 0.314559 0.365493 0.306923 
0.278716 0.825226 0.978432 0.351758 0.73211 
0.175613 0.316455 0.278657 0.357356 0.259211 
0.0469503 0.720779 0.52612 0.99367 0.304111 
0.108153 0.060006 0.667107 0.0883912 0.710472 
0.239308 0.71735 0.0741995 0.200662 0.0399295 
0.547706 0.150277 0.033094 0.733767 0.480315 
0.53214 0.90973 0.711372 0.0472617 0.754868 
0.864192 0.733363 0.0689535 0.886008 0.548439 
0.115613 0.193106 0.857236 0.796907 0.718648 
0.121565 0.442343 0.844315 0.347743 0.995481 
0.25629 0.0770453 0.614844 0.376787 0.986869 
0.031523 0.786224 0.973484 0.0781405 0.86789 
0.416127 0.654879 0.583141 0.790089 0.995987 
0.310009 0.137411 0.943925 0.803787 0.492836 
0.696545 0.354025 0.645084 0.840194 0.0296039 
0.717072 0.243168 0.591979 0.534459 0.0415149 
0.0646437 0.181078 0.947446 0.77582 0.599833 
0.470072 0.920153 0.559087 0.57669 0.100887 
0.984237 0.378227 0.549496 0.545494 0.818739 
0.3353 0.773307 0.478395 0.38219 0.187952 
0.526021 0.0931167 0.560697 0.162589 0.71405 
0.912029 0.867394 0.575996 0.372818 0.742963 
0.0947237 0.957957 0.946247 0.17581 0.0539754 
0.930717 0.197907 0.384697 0.805699 0.293438 
0.389461 0.67303 0.806919 0.553915 0.668962 
0.834032 0.899138 0.551025 0.951832 0.607043 
0.24118 0.510879 0.636138 0.691268 0.863866 
0.850513 0.805628 0.755654 0.862248 0.323314 
0.449389 0.600087 0.0110242 0.0707977 0.194422 
0.200718 0.650144 0.74339 0.626826 0.99892 
0.854007 0.029161 0.891938 0.288777 0.226595 
0.557212 0.504622 0.0683174 0.909721 0.724489 
0.877074 0.477818 0.727626 0.633982 0.429481 
0.452207 0.341873 0.899384 0.341166 0.0233155 
0.377536 0.84387 0.249481 0.944108 0.711907 
0.511617 0.251219 0.218436 0.12486 0.895824 
0.10513 0.567823 0.31916 0.996062 0.129421 
0.164639 0.686418 0.961934 0.658569 0.0312408 
0.558324 0.508187 0.223143 0.611693 0.87676 
0.258197 0.807016 0.714804 0.359835 0.129139 
0.17399 0.533181 0.0834182 0.501891 0.886538 
0.348541 0.0860529 0.741958 0.440249 0.954908 
0.623139 0.263094 0.176053 0.302821 0.480994 
0.371723 0.73312 0.254161 0.909243 0.315355 
0.558619 0.653177 0.414111 0.285631 0.956646 
0.928177 0.460341 0.821171 0.469629 0.412692 
0.715647 0.643419 0.740625 0.441755 0.319703 
0.272187 0.617853 0.908526 0.429079 0.895121 
0.786096 0.246323 0.864911 0.213779 0.63327 
0.370224 0.185288 0.480176 0.281335 0.989804 
0.0408339 0.324116 0.562348 0.052234 0.643568 
0.379073 0.0180655 0.991927 0.474701 0.933442 
0.579017 0.686519 0.662419 0.328768 0.755527 
0.54593 0.878058 0.19632 0.641149 0.921122 
0.660832 0.705 0.332491 0.663935 0.568881 
0.40718 0.217562 0.998668 0.836269 0.184957 
0.885803 0.0427152 0.989717 0.431267 0.420346 
0.877117 0.562024 0.998077 0.486553 0.228117 
0.196871 0.396891 0.355753 0.437436 0.185884 
0.547098 0.431563 0.080293 0.557264 0.0688661 
0.768606 0.130367 0.3905 0.703747 0.24593 
0.642821 0.337933 0.23993 0.153796 0.707151 
0.0168897 0.548921 0.0949559 0.55257 0.268809 
0.752641 0.709765 0.780143 0.432076 0.578397 
0.858348 0.438545 0.20514 0.857217 0.439289 
0.860586 0.110966 0.646609 0.134664 0.494919 
0.958628 0.0280746 0.414995 0.150756 0.0168412 
0.478876 0.789823 0.711111 0.376403 0.784449 
0.0109547 0.0286068 0.777438 0.724849 0.592315 
0.448355 0.925174 0.228294 0.620721 0.855282 
0.651328 0.673144 0.306773 0.0737374 0.0830784 
0.623836 0.251059 0.549004 0.261372 0.0521303 
0.476112 0.155038 0.728936 0.628385 0.541958 
0.0594893 0.50777 0.223896 0.578062 0.623092 
0.48821 0.000457827 0.0858016 0.648582 0.585886 
0.824577 0.480513 0.826272 0.644957 0.515382 
0.311866 0.578471 0.954858 0.0440409 0.556368 
0.369258 0.811547 0.464307 0.237051 0.232673 
0.0530156 0.50859 0.375885 0.229446 0.658975 
0.704595 0.112889 0.315705 0.805546 0.265082 
0.111865 0.00803487 0.84379 0.363569 0.230903 
0.248255 0.574618 0.389308 0.852998 0.546034 
0.785036 0.19805 0.28742 0.622003 0.697262 
0.455045 0.968268 0.964508 0.493163 0.0840119 
0.588153 0.130288 0.0424706 0.282507 0.62501 
0.431888 0.494598 0.589731 0.966241 0.588271 
0.854727 0.245173 0.0652698 0.588106 0.314202 
0.274854 0.498025 0.749765 0.278552 0.682454 
0.290491 0.333015 0.472355 0.251258 0.443987 
0.498754 0.267724 0.329481 0.249798 0.467812 
0.781613 0.580976 0.051134 0.421334 0.591993 
0.498718 0.101668 0.299069 0.609244 0.937029 
0.361043 0.0596867 0.673469 0.30323 0.551158 
0.0252066 0.836825 0.72933 0.868799 0.12728 
0.217407 0.900577 0.197402 0.363544 0.512428 
0.768324 0.987817 0.137735 0.39894 0.449921 
0.658294 0.297493 0.311312 0.132603 0.0847541 
0.165322 0.280656 0.363479 0.525595 0.141043 
0.540754 0.995211 0.532194 0.433174 0.403826 
0.456358 0.49884 0.343761 0.489615 0.0233771 
0.723526 0.86222 0.114377 0.650669 0.222335 
0.997965 0.614897 0.874386 0.227382 0.980062 
0.140623 0.0972641 0.351095 0.742272 0.480233 
0.126779 0.894117 0.572775 0.874289 0.491348 
0.0660198 0.589553 0.734263 0.0168081 0.608057 
0.418203 0.0158494 0.965583 0.523599 0.0529477 
0.895997 0.00637141 0.443135 0.717462 0.442096 
0.522425 0.458176 0.714909 0.294879 0.731557 
0.611541 0.534403 0.904761 0.772717 0.384387 
0.906467 0.980192 0.697165 0.421767 0.749509 
0.14161 0.494029 0.0378588 0.866611 0.0285641 
0.184632 0.874885 0.798508 0.497834 0.736363 
0.983588 0.430592 0.701802 0.181803 0.401706 
0.0801789 0.629242 0.0415969 0.712721 0.452242 
0.770846 0.667382 0.24974 0.82163 0.467296 
0.387674 0.555364 0.819411 0.213702 0.565532 
0.270392 0.75325 0.744597 0.066699 0.519853 
0.195039 0.312842 0.620765 0.799168 0.43645 
0.750297 0.398902 0.771463 0.801446 0.922494 
0.423742 0.0975951 0.192932 0.760828 0.987952 
0.85679 0.59034 0.322511 0.878957 0.372895 
0.459374 0.369315 0.525982 0.406684 0.21145 
0.0571561 0.490388 0.668416 0.748134 0.430395 
0.595324 0.975882 0.0977676 0.623571 0.541558 
0.164942 0.515353 0.885427 0.624703 0.916653 
0.36343 0.552916 0.928501 0.447677 0.0726405 
0.639815 0.189203 0.685253 0.134738 0.669019 
0.805961 0.374021 0.16453 0.766955 0.668861 
0.452904 0.788668 0.507874 0.507582 0.84829 
0.583045 0.181811 0.327002 0.81211 0.544568 
0.977901 0.675319 0.755314 0.820825 0.2115 
0.743622 0.561201 0.00285877 0.710338 0.693425 
0.723011 0.176961 0.251278 0.66192 0.381278 
0.459683 0.21955 0.366368 0.354848 0.621969 
0.504736 0.466901 0.741568 0.822005 0.79653 
0.810976 0.287187 0.0558494 0.278248 0.510415 
0.276211 0.757368 0.645848 0.346991 0.454678 
0.0846976 0.731132 0.0623458 0.0557906 0.315084 
0.181995 0.411536 0.687597 0.231739 0.0335705 
0.605905 0.531069 0.863573 0.0925298 0.858052 
0.407963 0.110135 0.396417 0.815419 0.286242 
0.346795 0.54339 0.0672403 0.126636 0.119377 
0.797935 0.428789 0.857286 0.569521 0.96785 
0.0167347 0.328995 0.939728 0.396744 0.787974 
0.95967 0.185663 0.248825 0.557458 0.928295 
0.149084 0.448826 0.957276 0.607652 0.763623 
0.705867 0.138468 0.190756 0.928918 0.42725 
0.715687 0.970702 0.941186 0.15815 0.617466 
0.131007 0.146562 0.723214 0.381181 0.689704 
0.902553 0.119155 0.439792 0.63631 0.0702079 
0.987619 0.11661 0.374201 0.247746 0.280143 
0.00924338 0.125127 0.20853 0.153383 0.909883 
0.0613955 0.665486 0.275173 0.790211 0.721517 
0.410518 0.241257 0.0680183 0.306087 0.226001 
0.893755 0.218667 0.547619 0.192758 0.263171 
0.936558 0.308593 0.685118 0.91251 0.544748 
0.72496 0.871258 0.317922 0.090331 0.296154 
0.31058 0.879127 0.69198 0.591146 0.798324 
0.422756 0.275781 0.44828 0.901463 0.538724 
0.463947 0.306291 0.532708 0.714071 0.955429 
0.632432 0.122358 0.777979 0.823707 0.680093 
0.380165 0.313777 0.214474 0.146131 0.414661 
0.604382 0.433584 0.875122 0.225311 0.742375 
0.250939 0.886906 0.788516 0.419979 0.955878 
0.339485 0.517014 0.0451031 0.470776 0.0928791 
0.602913 0.460341 0.371337 0.466996 0.241905 
0.37916 0.101109 0.817407 0.0809928 0.0506392 
0.330865 0.22438 0.239739 0.338315 0.906357 
0.542684 0.400948 0.902782 0.133849 0.188208 
0.636854 0.255695 0.659692 0.412304 0.5396 
0.178408 0.537919 0.704609 0.501663 0.962658 
0.532008 0.711979 0.451817 0.701362 0.660313 
0.370948 0.818911 0.950539 0.12448 0.545586 
0.826013 0.190278 0.886448 0.0606223 0.532415 
0.0457036 0.220284 0.680364 0.760639 0.48212 
0.134245 0.0949352 0.545034 0.714475 0.24827 
0.262663 0.292028 0.428828 0.470296 0.0325338 
0.941123 0.265734 0.348096 0.589671 0.769685 
0.970395 0.208525 0.686264 0.461836 0.589036 
0.952751 0.652197 0.512635 0.341102 0.0302654 
0.729023 0.632573 0.231494 0.0846468 0.547586 
0.661998 0.522287 0.0239905 0.688949 0.863997 
0.51705 0.469248 0.613898 0.188557 0.245206 
0.336218 0.790174 0.216177 0.205114 0.848253 
0.645638 0.671305 0.211551 0.626444 0.110879 
0.611298 0.483204 0.456532 0.246269 0.805342 
0.0880076 0.942964 0.741113 0.867132 0.866941 
0.657105 0.463636 0.669934 0.54299 0.0101767 
0.608159 0.414285 0.0651365 0.604234 0.853314 
0.433386 0.434397 0.771929 0.913117 0.899467 
0.269969 0.122973 0.784842 0.173449 0.745295 
0.612644 0.473435 0.42161 0.604453 0.316208 
0.0443916 0.861634 0.0810371 0.465827 0.717727 
0.817572 0.532227 0.448355 0.887495 0.390376 
0.715525 0.359558 0.340408 0.509457 0.609314 
0.341941 0.130698 0.0599794 0.0414712 0.208924 
0.437926 0.932271 0.246316 0.0863309 0.11192 
0.461756 0.320385 0.823411 0.947894 0.747567 
0.321358 0.783198 0.0898485 0.25454 0.00941051 
0.0694146 0.96073 0.563092 0.276356 0.309119 
0.127819 0.135808 0.0760228 0.0753694 0.17255 
0.475259 0.206718 0.5056 0.463182 0.323394 
0.881992 0.0780858 0.287951 0.595049 0.393241 
0.918327 0.905722 0.787151 0.424286 0.188519 
0.662377 0.277122 0.634446 0.829948 0.86502 
0.00746643 0.639157 0.436152 0.357516 0.390723 
0.779344 0.905442 0.615352 0.734989 0.206507 
0.0835465 0.969815 0.916541 0.421096 0.899707 
0.622388 0.267293 0.734025 0.136884 0.483128 
0.0513185 0.822693 0.412235 0.852326 0.46739 
0.908314 0.0587813 0.712409 0.956036 0.0622805 
0.34093 0.282305 0.06158 0.772824 0.688273 
0.817607 0.907507 0.263704 0.846546 0.377068 
0.44307 0.948691 0.255572 0.257729 0.494811 
0.206571 0.339607 0.82748 0.432827 0.598731 
0.710704 0.350502 0.886149 0.155115 0.325811 
0.578754 0.442247 0.185548 0.662008 0.95818 
0.384721 0.591602 0.477918 0.000222875 0.944187 
0.0548321 0.120176 0.157649 0.427115 0.606123 
0.25002 0.660314 0.787877 0.531457 0.213541 
0.848087 0.171754 0.642809 0.42957 0.0964213 
0.9004 0.142211 0.681262 0.731256 0.170624 
0.556874 0.29383 0.000340868 0.702831 0.516905 
0.587288 0.0480505 0.0580433 0.76797 0.353424 
0.763641 0.0179099 0.547614 0.113626 0.374542 
0.74044 0.683895 0.0102632 0.598906 0.958949 
0.690043 0.142632 0.96281 0.916984 0.0250912 
0.207963 0.539803 0.00950192 0.358381 0.486774 
0.34805 0.477559 0.0641378 0.749266 0.754677 
0.584317 0.331466 0.626017 0.407432 0.272107 
0.852004 0.183603 0.859844 0.852138 0.656191 
0.650925 0.513422 0.428252 0.521693 0.02975 
0.635157 0.795122 0.705938 0.252724 0.260015 
0.694937 0.492735 0.668985 0.93745 0.100612 
0.896641 0.100235 0.453033 0.216141 0.296175 
0.956387 0.720599 0.148293 0.667699 0.880812 
0.426997 0.399071 0.0731335 0.938299 0.576768 
0.0828557 0.650998 0.718072 0.451368 0.506885 
0.875573 0.989239 0.206964 0.353057 0.812856 
0.525136 0.523019 0.72514 0.383041 0.855779 
0.549579 0.846234 0.19048 0.180407 0.282216 
0.974827 0.515987 0.987828 0.301624 0.900249 
0.845234 0.112428 0.643682 0.980884 0.232117 
0.840952 0.784858 0.174549 0.555746 0.483249 
0.477166 0.954718 0.367401 0.858909 0.0776574 
0.345903 0.338115 0.587326 0.793058 0.703106 
0.656985 0.986607 0.494529 0.0303841 0.778796 
0.96112 0.327524 0.641875 0.57308 0.611936 
0.113735 0.0679737 0.796814 0.221937 0.290578 
0.321191 0.730878 0.34063 0.304895 0.976501 
0.855456 0.521894 0.636835 0.590369 0.449884 
0.0102882 0.428897 0.0544033 0.263774 0.464741 
0.921237 0.251454 0.464208 0.422654 0.493284 
0.521802 0.463225 0.865119 0.289365 0.508486 
0.682478 0.45111 0.857573 0.528473 0.174163 
0.628945 0.0767294 0.927547 0.149095 0.945946 
0.277601 0.208896 0.131601 0.98911 0.274656 
0.552356 0.539503 0.747225 0.0961923 0.84825 
0.172318 0.832045 0.243035 0.212284 0.675459 
0.0471881 0.736381 0.535152 0.872718 0.00129849 
0.0693258 0.178945 0.78064 0.75838 0.842114 
0.542925 0.199929 0.166152 0.272262 0.702269 
0.822794 0.322799 0.450132 0.0279794 0.182847 
0.884063 0.367449 0.287275 0.0179672 0.274165 
0.965493 0.182823 0.216389 0.0856891 0.95336 
0.233686 0.642637 0.80857 0.834176 0.323928 
0.792462 0.674151 0.155941 0.0914263 0.654536 
0.937269 0.341625 0.0830678 0.459484 0.783904 
0.304713 0.91051 0.379751 0.201874 0.917525 
0.389848 0.961981 0.517172 0.0989871 0.32023 
0.245217 0.931858 0.437172 0.563441 0.251735 
0.43478 0.89819 0.410683 0.886058 0.417266 
0.817232 0.485047 0.688403 0.873556 0.961789 
0.526708 0.948082 0.558265 0.659593 0.180445 
0.134945 0.628582 0.804814 0.0608645 0.30169 
0.627817 0.135042 0.949736 0.485384 0.0543877 
0.21444 0.100971 0.998743 0.417318 0.451347 
0.530504 0.238474 0.0525344 0.282152 0.0162731 
0.54846 0.932145 0.58916 0.977953 0.569937 
0.567449 0.0129254 0.170786 0.466976 0.982592 
0.863233 0.0581919 0.582301 0.669114 0.679803 
0.203064 0.209445 0.180375 0.438657 0.436794 
0.744985 0.949449 0.050849 0.063234 0.255811 
0.803255 0.294033 0.505575 0.899282 0.156766 
0.047071 0.62336 0.375898 0.745358 0.336377 
0.758051 0.673151 0.61826 0.671822 0.237139 
0.890223 0.116366 0.387301 0.791704 0.748342 
0.259049 0.675263 0.476525 0.768037 0.719785 
0.921851 0.289507 0.737546 0.698123 0.447172 
0.719967 0.174924 0.210711 0.454241 0.577841 
0.428875 0.974635 0.432064 0.364927 0.504659 
0.37317 0.726181 0.306444 0.477041 0.605151 
0.0872955 0.602133 0.556196 0.844393 0.179611 
0.186314 0.362298 0.935298 0.46484 0.131045 
0.813877 0.346042 0.9971 0.196105 0.718105 
0.50853 0.275103 0.908823 0.408382 0.480002 
0.423074 0.578872 0.537761 0.879357 0.375951 
0.0194977 0.135072 0.133007 0.855992 0.488611 
0.0902522 0.600587 0.947068 0.69965 0.172941 
0.990368 0.873032 0.570739 0.712546 0.560746 
0.744054 0.23016 0.775294 0.981305 0.438088 
0.287302 0.926358 0.136081 0.861227 0.374176 
0.211956 0.124832 0.485093 0.288667 0.629959 
0.717917 0.349905 0.251973 0.443356 0.758776 
0.411661 0.956344 0.682441 0.956657 0.370621 
0.821479 0.0105827 0.188755 0.848547 0.298535 
0.105779 0.709639 0.310477 0.823803 0.770244 
0.308662 0.363519 0.583299 0.333194 0.272396 
0.16222 0.818377 0.382645 0.00433506 0.0279017 
0.280509 0.328103 0.289491 0.290672 0.79071 
0.199152 0.171434 0.548825 0.0609768 0.913641 
0.0258715 0.169712 0.129994 0.680789 0.751873 
0.802942 0.519272 0.959647 0.95923 0.0504765 
0.838998 0.667059 0.247259 0.634586 0.611782 
0.119612 0.936511 0.607631 0.739219 0.304581 
0.535031 0.150484 0.202762 0.00240957 0.853811 
0.487304 0.295589 0.792181 0.652574 0.582453 
0.638077 0.883172 0.900042 0.786792 0.632754 
0.809982 0.730349 0.208238 0.254529 0.0372113 
0.955787 0.286435 0.488119 0.902578 0.828305 
0.253027 0.201892 0.4339 0.0598942 0.806705 
0.92368 0.800443 0.508854 0.685726 0.426919 
0.233166 0.929733 0.997699 0.106069 0.339882 
0.690509 0.455152 0.385538 0.333918 0.527416 
0.24993 0.252508 0.977373 0.028773 0.48841 
0.234667 0.736021 0.531156 0.354795 0.872436 
0.371263 0.390345 0.171095 0.902421 0.732505 
0.853282 0.615007 0.72273 0.156253 0.287494 
0.752901 0.500155 0.553211 0.631379 0.0526557 
0.172312 0.525801 0.936528 0.102344 0.81315 
0.0541269 0.771377 0.865831 0.430488 0.690092 
0.0254532 0.436748 0.642826 0.861985 0.862484 
0.324459 0.440305 0.735797 0.764327 0.876006 
0.884896 0.413438 0.204057 0.742571 0.628714 
0.622047 0.152313 0.0104539 0.722599 0.928833 
0.41318 0.534258 0.475773 0.0431494 0.960456 
0.22029 0.457447 0.569456 0.960271 0.332816 
0.444925 0.363897 0.998417 0.0186415 0.0698387 
0.119859 0.621384 0.783222 0.82076 0.344797 
0.283934 0.300916 0.764905 0.104585 0.550414 
0.871375 0.868997 0.749294 0.72879 0.0221239 
0.00205331 0.957054 0.229402 0.064161 0.92731 
0.448907 0.769314 0.0994393 0.423429 0.824897 
0.576357 0.104153 0.8033 0.877743 0.351028 
0.886189 0.740295 0.331775 0.920812 0.734726 
0.873779 0.662464 0.335669 0.0811496 0.992603 
0.493313 0.889909 0.691012 0.173896 0.254879 
0.429561 0.437455 0.921681 0.492638 0.488308 
0.274837 0.293817 0.440068 0.389879 0.319446 
0.42154 0.377845 0.32516 0.573794 0.966295 
0.119467 0.740842 0.670423 0.53309 0.587955 
0.799053 0.698279 0.746497 0.527763 0.988529 
0.85431 0.363654 0.592832 0.361426 0.26231 
0.111243 0.301203 0.174536 0.485205 0.476237 
0.347545 0.0839132 0.620403 0.283446 0.814814 
0.489865 0.600763 0.353781 0.341943 0.609736 
0.0843784 0.00759506 0.621804 0.7107 0.0847108 
0.527007 0.185286 0.267899 0.475651 0.725803 
0.0393909 0.966496 0.682906 0.200844 0.0417447 
0.719168 0.0921248 0.592305 0.77815 0.211481 
0.635736 0.782415 0.947258 0.26261 0.523878 
0.395344 0.442733 0.604787 0.341205 0.454325 
0.127302 0.715539 0.27246 0.206169 0.963155 
0.483322 0.238792 0.0635035 0.204282 0.0541947 
0.838307 0.967332 0.54489 0.0506401 0.980813 
0.403634 0.391901 0.412009 0.27531 0.598573 
0.269927 0.428425 0.0363428 0.42242 0.197866 
0.77354 0.901514 0.675814 0.0972688 0.229597 
0.174761 0.338583 0.160801 0.392043 0.530429 
0.657905 0.200242 0.441124 0.411927 0.883303 
0.219302 0.091081 0.664625 0.2066 0.403021 
0.757788 0.869487 0.0052195 0.540615 0.748567 
0.0818878 0.905257 0.0871344 0.775421 0.172455 
0.792229 0.186631 0.742356 0.44741 0.882585 
0.782653 0.192089 0.700672 0.107964 0.456507 
0.417176 0.640626 0.656347 0.115271 0.199733 
0.569416 0.0985008 0.279115 0.507901 0.268973 
0.808449 0.74316 0.0145731 0.3148 0.332873 
0.401914 0.0630513 0.160896 0.0396193 0.105845 
0.165325 0.344365 0.5436 0.714389 0.438502 
0.64972 0.626149 0.453703 0.0642899 0.569477 
0.528474 0.601774 0.494351 0.268959 0.366029 
0.0442344 0.67843 0.424078 0.687338 0.365622 
0.86093 0.0957446 0.730322 0.0859665 0.0669052 
0.874187 0.055899 0.715191 0.296929 0.30265 
0.312196 0.646483 0.406657 0.817059 0.297507 
0.709253 0.860675 0.160315 0.698329 0.319475 
0.254187 0.287833 0.814448 0.849974 0.863184 
0.727651 0.259507 0.0822105 0.188648 0.00358861 
0.754429 0.960577 0.649072 0.717385 0.0657088 
0.709059 0.992593 0.587694 0.473131 0.0180648 
0.776336 0.316972 0.380567 0.31606 0.859266 
0.800826 0.601009 0.824302 0.146014 0.426857 
0.517865 0.895748 0.350545 0.99433 0.082353 
0.678673 0.734318 0.138926 0.792263 0.0168186 
0.648784 0.537703 0.25881 0.948924 0.434479 
0.943252 0.756825 0.990007 0.965068 0.625338 
0.964858 0.168362 0.18887 0.820516 0.327627 
0.271816 0.451103 0.516586 0.990853 0.966055 
0.0826109 0.105085 0.840835 0.688054 0.512064 
0.877174 0.212435 0.869857 0.807616 0.775556 
0.487838 0.442658 0.911922 0.242896 0.6189 
0.201431 0.951697 0.680163 0.991423 0.947391 
0.262112 0.19791 0.840488 0.819997 0.82046 
0.0642198 0.974 0.876888 0.534808 0.532188 
0.913187 0.565688 0.966319 0.580672 0.630535 
0.837483 0.668867 0.013828 0.103846 0.951031 
0.00190345 0.859734 0.0184933 0.174244 0.464258 
0.556949 0.643129 0.516078 0.949665 0.36753 
0.345237 0.741732 0.12127 0.460058 0.61234 
0.803614 0.188921 0.489564 0.514316 0.282073 
0.586084 0.674238 0.813081 0.516944 0.751095 
0.921694 0.785557 0.581808 0.469766 0.722395 
0.698849 0.21642 0.652588 0.425936 0.257387 
0.662918 0.631792 0.470842 0.727555 0.813896 
0.218073 0.654404 0.766363 0.581935 0.673763 
0.374455 0.900232 0.870699 0.771587 0.931205 
0.20158 0.969967 0.891218 0.476975 0.621546 
0.835382 0.934423 0.141662 0.593749 0.321093 
0.197259 0.328354 0.863388 0.99494 0.387463 
0.39949 0.207637 0.749766 0.143456 0.729521 
0.561666 0.91759 0.456995 0.0400309 0.75835 
0.45892 0.917642 0.0401167 0.333084 0.64532 
0.55938 0.437262 0.873167 0.972228 0.887272 
0.281954 0.447749 0.535067 0.0788468 0.732181 
0.452815 0.454407 0.320458 0.693061 0.35913 
0.45284 0.551208 0.34337 0.14313 0.775808 
0.1751 0.578651 0.894494 0.497458 0.720662 
0.80117 0.610895 0.480958 0.0158656 0.576941 
0.951531 0.607171 0.662116 0.144946 0.736552 
0.83996 0.43405 0.248675 0.562958 0.343221 
0.814655 0.843584 0.413171 0.0241603 0.327988 
0.44243 0.271072 0.958801 0.546239 0.162195 
0.296547 0.983665 0.668113 0.297678 0.6926 
0.739129 0.775434 0.172773 0.199131 0.931877 
0.513866 0.734408 0.465323 0.600398 0.422741 
0.788703 0.00112788 0.319709 0.704664 3.47953e-06 
0.828373 0.866289 0.925834 0.553533 0.242719 
0.40322 0.322326 0.575544 0.0330125 0.893505 
0.184764 0.138258 0.752057 0.796848 0.944959 
0.868167 0.507411 0.132578 0.924114 0.314086 
0.345178 0.131155 0.518856 0.401568 0.620257 
0.328542 0.186045 0.628218 0.266756 0.716514 
0.370333 0.0459426 0.118325 0.736776 0.80676 
0.159457 0.551765 0.132558 0.808688 0.268375 
0.709374 0.177418 0.644679 0.215693 0.515607 
0.65945 0.011125 0.732834 0.578695 0.971293 
0.24634 0.778041 0.226721 0.882175 0.859094 
0.261955 0.501961 0.0871995 0.422866 0.404299 
0.591104 0.628048 0.997018 0.758728 0.209164 
0.476783 0.74444 0.830883 0.671027 0.213195 
0.691673 0.78712 0.161711 0.320932 0.202259 
0.63214 0.659666 0.0700899 0.908513 0.474638 
0.0983987 0.333066 0.853318 0.929808 0.776738 
0.836975 0.518602 0.924403 0.879294 0.0333734 
0.953684 0.573815 0.0120009 0.468687 0.040083 
0.0386589 0.29536 0.000222788 0.704787 0.921462 
0.737228 0.160041 0.975762 0.716651 0.401526 
0.158178 0.94247 0.684274 0.240113 0.144158 
0.235865 0.707502 0.041698 0.440621 0.765945 
0.234168 0.0789899 0.747346 0.205933 0.959019 
0.055183 0.770843 0.631016 0.174211 0.268872 
0.736031 0.299431 0.50527 0.95015 0.365713 
0.224885 0.511398 0.180344 0.918273 0.34844 
0.932268 0.16809 0.387659 0.147966 0.8072 
0.528784 0.648079 0.281544 0.774581 0.201114 
0.221552 0.431784 0.0466647 0.788041 0.44521 
0.94886 0.783925 0.267461 0.122699 0.218596 
