2000 5
0.0326632 0.605109 0.954165 0.359408 0.200088 
0.886372 0.268451 0.97831 0.219149 0.390372 
0.262691 0.199023 0.238985 0.241086 0.832904 
0.236231 0.862668 0.60174 0.680729 0.935071 
0.57497 0.820643 0.560955 0.338113 0.0815052 
0.958731 0.553054 0.388522 0.451434 0.81123 
0.18053 0.343787 0.578296 0.538158 0.832318 
0.156943 0.888798 0.82536 0.650207 0.318572 
0.132503 0.719681 0.0830908 0.663059 0.639971 
0.91697 0.838352 0.312493 0.383926 0.130854 
0.367252 0.395144 0.851896 0.884622 0.83898 
0.546326 0.157381 0.552778 0.918907 0.423844 
0.0943471 0.850676 0.674058 0.437732 0.689416 
0.0664794 0.0663678 0.520597 0.923453 0.0732554 
0.57337 0.0766956 0.682769 0.356489 0.960427 
0.920109 0.396993 0.557782 0.457103 0.872708 
0.167584 0.904724 0.483596 0.0396756 0.134693 
0.590325 0.118157 0.746635 0.459121 0.0156027 
0.190821 0.936105 0.702127 0.444748 0.132882 
0.249511 0.797977 0.331353 0.624929 0.946304 
0.059001 0.432053 0.851792 0.916408 0.181138 
0.671718 0.815227 0.521341 0.322613 0.0859943 
0.271135 0.344055 0.339183 0.176073 0.76029 
0.119443 0.114925 0.644866 0.758623 0.976494 
0.177376 0.17066 0.0691858 0.0296581 0.350183 
0.563683 0.320895 0.346366 0.165597 0.710796 
0.480391 0.314015 0.557067 0.711909 0.0260958 
0.682549 0.670892 0.427257 0.637034 0.62382 
0.845318 0.853026 0.595906 0.214592 0.440401 
0.0744433 0.0772283 0.357382 0.246736 0.5683 
0.862078 0.269531 0.22553 0.582888 0.904876 
0.0138776 0.222277 0.550973 0.724451 0.65639 
0.615676 0.528598 0.835189 0.562973 0.913704 
0.591695 0.751132 0.970458 0.678268 0.343499 
0.843328 0.275071 0.347448 0.116654 0.962098 
0.976414 0.620495 0.972753 0.707574 0.136572 
0.934907 0.925866 0.627302 0.218226 0.977959 
0.224034 0.00202936 0.491623 0.150505 0.949777 
0.530852 0.61029 0.783297 0.189494 0.409201 
0.824642 0.415602 0.851669 0.23916 0.735572 
0.645289 0.18371 0.123746 0.55035 0.461346 
0.106131 0.0812014 0.134324 0.797613 0.287747 
0.24673 0.672505 0.799747 0.797524 0.638063 
0.963499 0.713215 0.250177 0.374681 0.763379 
0.372243 0.285453 0.982626 0.405241 0.735904 
0.299454 0.0814549 0.125047 0.240608 0.303872 
0.514317 0.296629 0.310719 0.346912 0.679563 
0.767325 0.842555 0.368186 0.540162 0.511684 
0.899173 0.650671 0.781901 0.544648 0.790956 
0.493167 0.365212 0.451209 0.657772 0.507338 
0.963057 0.465532 0.606009 0.0977577 0.61304 
0.484887 0.671938 0.158395 0.831462 0.360896 
0.319582 0.976199 0.0747574 0.997541 0.170973 
0.241356 0.596535 0.0522954 0.328722 0.796706 
0.876896 0.168064 0.88743 0.509087 0.357921 
0.34794 0.860047 0.286375 0.480049 0.476403 
0.502324 0.439072 0.402961 0.979924 0.0987128 
0.0516364 0.647562 0.106419 0.327778 0.382696 
0.954649 0.839116 0.660439 0.638904 0.0260602 
0.944245 0.712705 0.914614 0.935337 0.2418 
0.167768 0.155879 0.729613 0.151189 0.581614 
0.345952 0.264621 0.309939 0.0613203 0.130693 
0.557435 0.919842 0.745415 0.809027 0.63922 
0.686744 0.949347 0.751593 0.543514 0.70983 
0.0191338 0.37356 0.635498 0.141066 0.554215 
0.30855 0.0962914 0.14094 0.378608 0.264681 
0.131061 0.644057 0.00473671 0.994031 0.213301 
0.912092 0.00215653 0.61294 0.113891 0.313852 
0.844831 0.10446 0.540572 0.490496 0.616016 
0.494539 0.661046 0.964693 0.444584 0.259667 
0.555521 0.657969 0.747165 0.31489 0.939475 
0.225329 0.665413 0.530396 0.8965 0.216102 
0.685348 0.606737 0.263092 0.673429 0.860705 
0.59767 0.709452 0.497833 0.271239 0.873367 
0.315223 0.928902 0.0473945 0.261438 0.863222 
0.103835 0.823421 0.235237 0.724712 0.917893 
0.309312 0.665249 0.603773 0.660087 0.23593 
0.375266 0.758983 0.337245 0.726706 0.401702 
0.275405 0.158915 0.384973 0.222106 0.319446 
0.262696 0.00606335 0.00118123 0.188908 0.569086 
0.966873 0.837334 0.225516 0.203245 0.41094 
0.158038 0.355092 0.670707 0.679035 0.959364 
0.765903 0.566399 0.484765 0.240577 0.218237 
0.165516 0.633453 0.694052 0.34339 0.997139 
0.305902 0.64575 0.208792 0.809765 0.558656 
0.59583 0.177999 0.842283 0.626451 0.613009 
0.657004 0.25135 0.913369 0.106545 0.111195 
0.868563 0.806347 0.340465 0.393642 0.130607 
0.228231 0.692221 0.0673538 0.721896 0.336517 
0.640044 0.798145 0.399199 0.867567 0.585251 
0.200207 0.550728 0.348015 0.629032 0.555789 
0.200947 0.0313225 0.712914 0.672719 0.880984 
0.0814407 0.630348 0.717629 0.410934 0.723781 
0.774006 0.739453 0.355996 0.18174 0.768093 
0.551397 0.689436 0.789578 0.996098 0.884944 
0.478993 0.101951 0.373213 0.156841 0.282866 
0.461911 0.771945 0.621046 0.64311 0.152413 
0.974847 0.44237 0.256896 0.483787 0.118605 
0.899536 0.0540006 0.926055 0.579592 0.263242 
0.294933 0.382991 0.930773 0.956359 0.181183 
0.579942 0.814194 0.186244 0.529787 0.581088 
0.933421 0.838132 0.423337 0.690581 0.467594 
0.771415 0.7214 0.996674 0.244562 0.423279 
0.524206 0.835259 0.603618 0.490859 0.807412 
0.269502 0.328686 0.915382 0.976792 0.950932 
0.566534 0.168585 0.795628 0.801269 0.224419 
0.908875 0.4182 0.0183371 0.692129 0.592381 
0.0376927 0.490842 0.556895 0.912787 0.959605 
0.94855 0.549184 0.694104 0.0944526 0.788557 
0.322456 0.224318 0.583902 0.515269 0.627037 
0.701879 0.971621 0.792564 0.0290839 0.113836 
0.881684 0.109175 0.691767 0.698627 0.526907 
0.10575 0.606381 0.703181 0.74126 0.406561 
0.751045 0.105566 0.058534 0.760369 0.102517 
0.843204 0.668589 0.357336 0.885778 0.0477488 
0.103092 0.533848 0.0978118 0.253211 0.0541489 
0.942259 0.76894 0.537258 0.649099 0.666278 
0.295076 0.206942 0.110075 0.430902 0.790925 
0.800456 0.166685 0.592508 0.0516275 0.330011 
0.236023 0.693695 0.169342 0.907125 0.0025208 
0.336682 0.105701 0.875287 0.477187 0.834315 
0.432873 0.534149 0.342654 0.558905 0.0733363 
0.214553 0.239998 0.725403 0.226792 0.511837 
0.129991 0.00712129 0.301383 0.897568 0.0251379 
0.1989 0.454636 0.390738 0.749502 0.689514 
0.74016 0.706231 0.343128 0.746087 0.785473 
0.814705 0.575609 0.19869 0.808652 0.506294 
0.93564 0.541436 0.886113 0.271207 0.130978 
0.889315 0.991161 0.857979 0.394581 0.778974 
0.796219 0.298914 0.921968 0.494651 0.0343133 
0.414953 0.313712 0.316231 0.913265 0.670594 
0.622186 0.597386 0.778493 0.0531216 0.701936 
0.751935 0.138992 0.66259 0.489543 0.192157 
0.518632 0.043192 0.0171642 0.0635638 0.552745 
0.0291012 0.305833 0.508797 0.678606 0.308875 
0.661031 0.726395 0.804948 0.568524 0.82252 
0.289055 0.412423 0.725853 0.441204 0.736727 
0.363337 0.231954 0.955784 0.74275 0.217105 
0.916778 0.964523 0.318581 0.348646 0.372707 
0.61218 0.230714 0.974514 0.584003 0.873784 
0.683607 0.279559 0.369907 0.309155 0.021683 
0.174188 0.507662 0.949389 0.615254 0.388737 
0.918169 0.0352168 0.225259 0.0304044 0.0878798 
0.237049 0.0339144 0.993756 0.19853 0.489157 
0.636277 0.838978 0.902938 0.664007 0.0246334 
0.978733 0.719548 0.836629 0.566234 0.441194 
0.115548 0.685398 0.674203 0.924646 0.715401 
0.174692 0.329284 0.905032 0.657232 0.711294 
0.324205 0.556915 0.110267 0.443002 0.373906 
0.659672 0.84704 0.482959 0.93064 0.48727 
0.661161 0.299188 0.900751 0.803538 0.0194268 
0.314032 0.712868 0.00438509 0.656597 0.648616 
0.895389 0.8203 0.426022 0.893407 0.271518 
0.136655 0.770966 0.516321 0.289052 0.370227 
0.69041 0.57513 0.615114 0.759613 0.783446 
0.648798 0.913457 0.559214 0.196511 0.229294 
0.332969 0.77171 0.538469 0.487694 0.655264 
0.509058 0.388275 0.0902742 0.136436 0.14861 
0.836919 0.388597 0.19551 0.471273 0.387914 
0.821294 0.229295 0.628081 0.071878 0.867523 
0.196754 0.373694 0.156584 0.317875 0.917288 
0.866065 0.785862 0.394197 0.146552 0.89443 
0.74423 0.569663 0.80159 0.750403 0.184594 
0.761512 0.164761 0.581195 0.767994 0.102286 
0.359739 0.760441 0.298226 0.883443 0.20878 
0.802139 0.958015 0.0631713 0.7277 0.176809 
0.0675465 0.557315 0.784519 0.433314 0.774969 
0.881026 0.983855 0.768335 0.206999 0.593893 
0.0169745 0.634929 0.13636 0.51804 0.963186 
0.135659 0.129155 0.660883 0.707542 0.428126 
0.921891 0.275206 0.486168 0.362601 0.211801 
0.246356 0.130123 0.549735 0.606952 0.154706 
0.755266 0.685783 0.0102226 0.91525 0.763845 
0.0158373 0.183486 0.797255 0.424333 0.0808802 
0.833838 0.766562 0.154888 0.386924 0.0284717 
0.726583 0.131701 0.438482 0.975207 0.731887 
0.00995547 0.77093 0.85906 0.660241 0.276646 
0.246432 0.261757 0.878642 0.564081 0.0787198 
0.0807519 0.971256 0.412415 0.813985 0.598692 
0.543067 0.890427 0.686095 0.634244 0.630577 
0.546849 0.789087 0.988327 0.000506024 0.319809 
0.605986 0.55952 0.965823 0.930613 0.410387 
0.535729 0.383847 0.473541 0.188117 0.470207 
0.560919 0.73623 0.859731 0.936271 0.331797 
0.292429 0.875143 0.754744 0.365398 0.761106 
0.867878 0.7208 0.737451 0.489321 0.0980819 
0.506241 0.0679542 0.502395 0.292186 0.843832 
0.124006 0.758836 0.959076 0.437743 0.171251 
0.641743 0.906419 0.642595 0.586888 0.178868 
0.628514 0.53423 0.0404722 0.986774 0.38156 
0.0798938 0.995307 0.180684 0.336341 0.190225 
0.608406 0.684961 0.728167 0.699604 0.312343 
0.436844 0.721056 0.173307 0.228356 0.811158 
0.906317 0.492506 0.244797 0.931268 0.748155 
0.599201 0.420952 0.584952 0.697289 0.563574 
0.447141 0.0404057 0.228851 0.15735 0.730232 
0.771721 0.912026 0.675869 0.789988 0.971432 
0.315103 0.36919 0.501418 0.67106 0.15539 
0.607668 0.415814 0.94182 0.0256491 0.0920434 
0.97829 0.102617 0.454068 0.973657 0.53464 
0.740481 0.386814 0.885979 0.951742 0.418399 
0.885393 0.8217 0.391336 0.592644 0.728313 
0.78222 0.299563 0.998534 0.126084 0.533527 
0.982635 0.357459 0.106421 0.619175 0.010955 
0.573057 0.931254 0.960161 0.00824956 0.612272 
0.384201 0.497305 0.570316 0.684037 0.0093557 
0.806343 0.634628 0.652222 0.816302 0.905339 
0.237481 0.713945 0.439993 0.785518 0.602294 
0.443598 0.985423 0.703797 0.817768 0.900831 
0.034952 0.956839 0.472158 0.778966 0.71612 
0.896514 0.337081 0.129632 0.830008 0.761761 
0.289879 0.327418 0.026598 0.347264 0.310913 
0.303437 0.51892 0.464833 0.183836 0.660897 
0.656434 0.293263 0.844948 0.180405 0.0694235 
0.323846 0.962886 0.40115 0.639784 0.570301 
0.497359 0.823521 0.176884 0.163516 0.675551 
0.209333 0.66833 0.682668 0.470131 0.35124 
0.58508 0.700249 0.530436 0.952988 0.808524 
0.277716 0.580814 0.940436 0.292476 0.789655 
0.7132 0.419427 0.820378 0.0240562 0.60486 
0.486688 0.439745 0.974627 0.989521 0.47355 
0.577051 0.530186 0.211789 0.342009 0.374756 
0.909861 0.11278 0.23755 0.960218 0.265345 
0.978239 0.496985 0.721572 0.331964 0.745244 
0.680264 0.557981 0.30903 0.530679 0.360913 
0.25016 0.860612 0.479774 0.72797 0.29454 
0.8281 0.510877 0.692575 0.558524 0.678728 
0.855483 0.354348 0.869044 0.66394 0.122888 
0.669704 0.29793 0.708116 0.713876 0.994886 
0.977041 0.907025 0.819134 0.898078 0.632525 
0.743844 0.730063 0.470121 0.707624 0.851327 
0.927955 0.275215 0.824614 0.0550724 0.453746 
0.873572 0.830784 0.35216 0.607038 0.172763 
0.741306 0.944938 0.313053 0.868363 0.465728 
0.085287 0.920495 0.842715 0.930092 0.401138 
0.505946 0.841934 0.803346 0.182004 0.101279 
0.00902706 0.826381 0.12224 0.980752 0.901267 
0.778938 0.422976 0.524799 0.828346 0.770175 
0.216802 0.819258 0.706521 0.614651 0.0685869 
0.194232 0.351505 0.659792 0.0943959 0.769507 
0.703278 0.183457 0.230635 0.116926 0.462047 
0.916037 0.761034 0.631122 0.322504 0.557019 
0.770706 0.868429 0.649597 0.616866 0.111243 
0.69916 0.761353 0.748882 0.444112 0.245114 
0.091369 0.440508 0.431523 0.768059 0.703455 
0.171334 0.399787 0.442039 0.072698 0.467494 
0.719216 0.510431 0.461944 0.112552 0.0557427 
0.720466 0.919056 0.987143 0.916051 0.148036 
0.731718 0.211753 0.476158 0.207179 0.250301 
0.871467 0.160743 0.391148 0.527862 0.813318 
0.474738 0.485916 0.376391 0.311624 0.693525 
0.493751 0.071309 0.496178 0.511954 0.619686 
0.0181623 0.695425 0.807069 0.0532931 0.981082 
0.364176 0.586032 0.431129 0.692315 0.566153 
0.501203 0.155955 0.0176488 0.478959 0.976524 
0.453333 0.073847 0.409775 0.124356 0.82822 
0.601271 0.29822 0.284818 0.203023 0.704894 
0.022506 0.446214 0.935337 0.123101 0.352153 
0.0218577 0.817908 0.0676811 0.578334 0.186632 
0.292638 0.759057 0.217886 0.641178 0.932996 
0.524591 0.572552 0.439024 0.868282 0.645144 
0.595269 0.52723 0.613208 0.346029 0.7977 
0.245131 0.79963 0.0829046 0.789772 0.104991 
0.330967 0.55594 0.0126528 0.343513 0.253386 
0.648402 0.123112 0.00486986 0.685762 0.261799 
0.261915 6.24056e-05 0.879626 0.982847 0.54595 
0.595303 0.962908 0.60003 0.242088 0.418207 
0.26357 0.986778 0.549006 0.254795 0.199336 
0.68598 0.315252 0.0940721 0.63461 0.207741 
0.0417554 0.274963 0.558632 0.632658 0.82851 
0.00466475 0.928398 0.919105 0.811832 0.323603 
0.799334 0.8744 0.190617 0.478223 0.63967 
0.203861 0.873033 0.032193 0.684921 0.0811961 
0.743053 0.719335 0.27846 0.878475 0.611719 
0.499584 0.363359 0.670984 0.0281271 0.406354 
0.653615 0.135405 0.550935 0.100614 0.905182 
0.295172 0.297563 0.274 0.637388 0.451918 
0.124092 0.436759 0.390397 0.992729 0.254801 
0.940287 0.063182 0.386689 0.113316 0.184045 
0.549988 0.416663 0.0305699 0.669341 0.197396 
0.604801 0.99002 0.638122 0.893616 0.336828 
0.977405 0.192014 0.414571 0.591413 0.664846 
0.444392 0.709075 0.546457 0.450171 0.396097 
0.583443 0.917975 0.320127 0.0444911 0.352457 
0.292621 0.671748 0.1657 0.813745 0.319764 
0.793378 0.10901 0.896462 0.65895 0.26213 
0.445063 0.169575 0.167727 0.394725 0.0576682 
0.0679807 0.973474 0.902758 0.674209 0.106028 
0.924831 0.28268 0.0972636 0.278459 0.913405 
0.705522 0.773893 0.44571 0.226362 0.715583 
0.930407 0.700887 0.192314 0.587889 0.018108 
0.832519 0.0843749 0.925111 0.314756 0.73638 
0.239167 0.394738 0.275475 0.572139 0.498733 
0.556558 0.616025 0.224209 0.975424 0.192533 
0.345914 0.196982 0.599687 0.501054 0.165908 
0.207799 0.920579 0.873846 0.865485 0.168362 
0.285866 0.470054 0.134778 0.200704 0.839006 
0.115695 0.588956 0.958652 0.263832 0.0677803 
0.794988 0.748301 0.732226 0.352361 0.650606 
0.168744 0.88328 0.0216603 0.741356 0.626287 
0.85942 0.0194147 0.932352 0.105929 0.495284 
0.739555 0.769841 0.627913 0.154135 0.381317 
0.935044 0.444686 0.828848 0.428808 0.0657807 
0.266339 0.783693 0.192717 0.32961 0.205664 
0.142504 0.927175 0.0965422 0.490806 0.878602 
0.335722 0.197318 0.369556 0.553321 0.652548 
0.74652 0.785297 0.759989 0.618285 0.87114 
0.22085 0.106165 0.932389 0.613561 0.0113221 
0.0967769 0.656004 0.279546 0.055616 0.749845 
0.622562 0.12117 0.211765 0.795606 0.508485 
0.0826927 0.0252024 0.170341 0.268629 0.936302 
0.433103 0.977551 0.738886 0.279311 0.985718 
0.352245 0.692457 0.0549813 0.704499 0.935863 
0.573278 0.519106 0.106127 0.398556 0.927649 
0.548573 0.253804 0.340741 0.320443 0.189483 
0.711598 0.155725 0.41248 0.642548 0.75745 
0.914676 0.917309 0.472387 0.424363 0.355132 
0.653908 0.34228 0.0406991 0.264559 0.0242796 
0.420038 0.652828 0.884205 0.500886 0.279647 
0.545207 0.885136 0.179221 0.295321 0.277264 
0.242434 0.0181596 0.960661 0.688482 0.392262 
0.652387 0.0707562 0.41662 0.596765 0.470125 
0.472157 0.640172 0.560018 0.290115 0.979971 
0.990008 0.569308 0.380757 0.868402 0.734096 
0.240208 0.382671 0.444616 0.693048 0.463522 
0.621604 0.189351 0.194611 0.0307206 0.6536 
0.872157 0.542 0.376898 0.518244 0.338303 
0.994365 0.562145 0.41738 0.349745 0.407721 
0.757276 0.301128 0.785286 0.951066 0.642259 
0.0468445 0.0889257 0.823489 0.713652 0.807585 
0.772389 0.450868 0.651963 0.525683 0.473448 
0.310262 0.959332 0.517532 0.805533 0.739389 
0.443255 0.143061 0.787048 0.528208 0.692593 
0.352132 0.683667 0.494556 0.743903 0.345209 
0.664245 0.177643 0.198385 0.0326609 0.706033 
0.938955 0.327989 0.58149 0.437441 0.335894 
0.632144 0.836515 0.818276 0.959392 0.79536 
0.921725 0.564957 0.291141 0.372589 0.650898 
0.091233 0.981377 0.700782 0.534129 0.463569 
0.0667991 0.370142 0.402219 0.257574 0.965271 
0.64689 0.59495 0.456721 0.713386 0.0586047 
0.742849 0.865451 0.617295 0.584129 0.289618 
0.0580435 0.469305 0.819016 0.542752 0.153523 
0.660366 0.108126 0.21224 0.564333 0.544985 
0.843441 0.987707 0.267628 0.946794 0.687034 
0.928207 0.313204 0.997067 0.279093 0.551964 
0.893874 0.957876 0.144158 0.530894 0.714838 
0.0551558 0.301649 0.344185 0.868605 0.58287 
0.168815 0.706338 0.425786 0.397087 0.719381 
0.692036 0.75411 0.686278 0.0994421 0.813589 
0.53368 0.502347 0.857588 0.924771 0.217321 
0.297714 0.523458 0.705844 0.568312 0.106332 
0.905591 0.812492 0.618379 0.975047 0.179565 
0.907868 0.278755 0.378482 0.395279 0.16542 
0.446811 0.233511 0.130055 0.738703 0.99267 
0.607741 0.868334 0.873494 0.520088 0.557568 
0.47109 0.298192 0.511605 0.591165 0.754226 
0.0625144 0.944862 0.138865 0.608599 0.344334 
0.24528 0.890196 0.859978 0.961568 0.288475 
0.321305 0.325453 0.55303 0.202933 0.940323 
0.956065 0.796137 0.498415 0.873692 0.152365 
0.753738 0.43993 0.54491 0.660587 0.518175 
0.062752 0.813424 0.0471974 0.545335 0.920509 
0.51813 0.0058419 0.869771 0.723057 0.874218 
0.422176 0.28776 0.371557 0.0298641 0.784502 
0.245736 0.288257 0.171624 0.567272 0.914419 
0.325455 0.31227 0.790881 0.830339 0.193605 
0.657558 0.782992 0.0269437 0.463141 0.436989 
0.06659 0.871289 0.565336 0.32468 0.354807 
0.000999294 0.0121098 0.132595 0.806026 0.0196599 
0.318179 0.808061 0.686983 0.529512 0.55969 
0.965069 0.118217 0.0627646 0.958993 0.546873 
0.235476 0.278494 0.144106 0.522597 0.982125 
0.434898 0.569377 0.499673 0.269734 0.244947 
0.849531 0.0805835 0.19434 0.408441 0.0478495 
0.871879 0.905838 0.934875 0.309174 0.672186 
0.603437 0.175703 0.694193 0.104164 0.630037 
0.692542 0.213158 0.982309 0.369825 0.757975 
0.303682 0.932262 0.84539 0.676849 0.401287 
0.831155 0.762095 0.461477 0.177775 0.372932 
0.951486 0.820616 0.680287 0.00418345 0.0163801 
0.28218 0.75404 0.91201 0.328698 0.337489 
0.503658 0.79197 0.847535 0.402446 0.568127 
0.203101 0.525113 0.551719 0.907076 0.878606 
0.676966 0.886136 0.654849 0.861388 0.196596 
0.798329 0.24025 0.500154 0.233488 0.891154 
0.0172438 0.161223 0.684753 0.84908 0.980204 
0.399042 0.864831 0.845668 0.499587 0.566502 
0.210972 0.254628 0.43417 0.802193 0.38897 
0.117753 0.261337 0.248787 0.970543 0.070886 
0.849682 0.427189 0.722119 0.0965243 0.150756 
0.9136 0.935483 0.13634 0.937929 0.93934 
0.492504 0.790695 0.0232705 0.607062 0.649967 
0.355405 0.922779 0.755259 0.163771 0.538811 
0.0849935 0.658557 0.557512 0.333643 0.320556 
0.674898 0.577774 0.382402 0.813851 0.715322 
0.69029 0.873758 0.586392 0.255325 0.229177 
0.440264 0.540234 0.486857 0.907449 0.516607 
0.146112 0.00824924 0.272909 0.745548 0.376564 
0.331213 0.701814 0.160684 0.0326645 0.596353 
0.435377 0.0505915 0.450627 0.157292 0.983663 
0.436025 0.270803 0.672077 0.800619 0.344069 
0.12339 0.587605 0.0762501 0.399879 0.433972 
0.78995 0.984915 0.583991 0.0215765 0.15804 
0.31411 0.655207 0.493762 0.744188 0.914566 
0.206292 0.494919 0.221495 0.865146 0.10803 
0.415793 0.352875 0.698388 0.637319 0.451971 
0.849423 0.924333 0.24658 0.144491 0.139155 
0.502649 0.654242 0.476944 0.939262 0.207661 
0.314444 0.916208 0.602327 0.289716 0.162899 
0.752436 0.889922 0.305334 0.40587 0.121964 
0.937652 0.151132 0.818184 0.175154 0.626332 
0.282002 0.254944 0.942945 0.557806 0.302009 
0.197119 0.79231 0.667111 0.179188 0.0633294 
0.893285 0.00290547 0.497772 0.940965 0.432026 
0.999723 0.762736 0.764621 0.134359 0.651539 
0.876314 0.050924 0.822514 0.72693 0.200373 
0.100031 0.710509 0.264286 0.0166123 0.130457 
0.96185 0.745957 0.538326 0.955697 0.918876 
0.244547 0.730804 0.885619 0.22962 0.493881 
0.0868346 0.0156713 0.595239 0.82535 0.90414 
0.697972 0.702461 0.116522 0.361238 0.369646 
0.862234 0.647141 0.246537 0.696707 0.553813 
0.574222 0.201811 0.756232 0.109812 0.502488 
0.224277 0.746438 0.739308 0.911637 0.519282 
0.391251 0.613118 0.0878921 0.619453 0.59873 
0.555922 0.0613668 0.974834 0.223693 0.665656 
0.130006 0.415542 0.792246 0.00754635 0.477492 
0.0707027 0.589157 0.390342 0.524209 0.375867 
0.273066 0.381743 0.39943 0.341565 0.613444 
0.245264 0.259052 0.55729 0.220556 0.276118 
0.836717 0.893594 0.75983 0.282975 0.644895 
0.611383 0.234055 0.259385 0.40525 0.591698 
0.934266 0.0703397 0.832294 0.0497911 0.532418 
0.119184 0.540274 0.942722 0.871469 0.243557 
0.725321 0.241168 0.851499 0.974639 0.38765 
0.0377791 0.519801 0.483827 0.702746 0.676406 
0.126366 0.796293 0.387181 0.446771 0.377893 
0.534362 0.722677 0.449567 0.37915 0.482049 
0.844276 0.859565 0.970417 0.774382 0.251287 
0.0523739 0.882309 0.417085 0.621618 0.726231 
0.373981 0.46923 0.0082031 0.687632 0.365402 
0.484985 0.624736 0.490259 0.163018 0.776085 
0.695938 0.724435 0.0961516 0.762136 0.505908 
0.867686 0.113078 0.640839 0.0209881 0.340792 
0.873629 0.164814 0.733957 0.44269 0.29807 
0.00295994 0.389886 0.565322 0.559829 0.509468 
0.872407 0.0933396 0.667641 0.149884 0.866104 
0.538029 0.0856839 0.604592 0.0040404 0.595242 
0.562091 0.907392 0.449198 0.0381412 0.619134 
0.073467 0.656748 0.610595 0.292389 0.163895 
0.891364 0.694806 0.352374 0.0301588 0.87915 
0.991899 0.988964 0.322532 0.943327 0.624903 
0.791541 0.863248 0.60942 0.130615 0.518629 
0.320737 0.342658 0.235584 0.904207 0.983938 
0.953789 0.0481952 0.785614 0.530185 0.203806 
0.934562 0.707225 0.365428 0.030274 0.672286 
0.891757 0.809116 0.569162 0.678053 0.371641 
0.619035 0.0745301 0.378182 0.888083 0.961499 
0.449531 0.568323 0.273697 0.26829 0.73649 
0.15596 0.33342 0.516896 0.199125 0.69278 
0.830648 0.708366 0.310124 0.283192 0.0824114 
0.32931 0.505101 0.706916 0.56197 0.795134 
0.775865 0.324295 0.197428 0.927607 0.0948032 
0.231194 0.760893 0.857088 0.625459 0.119709 
0.171729 0.659173 0.981076 0.926021 0.92939 
0.616522 0.733985 0.0886067 0.895445 0.737313 
0.827185 0.806191 0.534271 0.588195 0.158594 
0.69389 0.679736 0.760847 0.564949 0.717883 
0.997368 0.255858 0.796155 0.159812 0.533276 
0.94359 0.168822 0.828767 0.398724 0.254816 
0.908396 0.506827 0.456313 0.461133 0.162131 
0.957389 0.523294 0.786005 0.695855 0.56017 
0.675429 0.741264 0.965381 0.171687 0.701252 
0.00247369 0.560725 0.578221 0.38473 0.22745 
0.0261917 0.448451 0.34242 0.171876 0.579491 
0.340774 0.315946 0.961756 0.308308 0.132959 
0.173195 0.174793 0.178041 0.504576 0.135311 
0.789357 0.524931 0.40582 0.336221 0.264371 
0.583381 0.975418 0.812516 0.428803 0.445687 
0.702204 0.591036 0.713798 0.0120542 0.708065 
0.917053 0.435751 0.819179 0.762498 0.342606 
0.27867 0.331911 0.593519 0.796969 0.163047 
0.297879 0.806471 0.441735 0.0388175 0.190249 
0.113078 0.95861 0.758889 0.154429 0.819134 
0.0535209 0.750305 0.0747155 0.109047 0.350563 
0.176802 0.678963 0.997963 0.0584837 0.907735 
0.627997 0.0484164 0.288834 0.624053 0.943842 
0.22886 0.617838 0.735721 0.65615 0.932433 
0.252433 0.897137 0.41234 0.717043 0.883054 
0.380898 0.0233983 0.411034 0.901867 0.813359 
0.322093 0.393541 0.526165 0.143989 0.559675 
0.365599 0.523877 0.397727 0.87807 0.409867 
0.292026 0.0350841 0.479424 0.696835 0.147245 
0.658777 0.0184373 0.719482 0.148925 0.0992657 
0.381085 0.759435 0.661887 0.659968 0.679248 
0.835172 0.984023 0.206363 0.213 0.930566 
0.502087 0.299079 0.596507 0.104861 0.0552753 
0.0945466 0.551063 0.693521 0.186994 0.0730035 
0.0704429 0.0576896 0.847886 0.764955 0.779414 
0.638782 0.416595 0.651335 0.506399 0.910254 
0.902532 0.0153059 0.386175 0.545977 0.523462 
0.551297 0.8214 0.522184 0.785316 0.629005 
0.695524 0.460079 0.158429 0.710716 0.854028 
0.283967 0.00270506 0.0170133 0.0249091 0.837697 
0.31296 0.717061 0.196954 0.284752 0.904612 
0.51526 0.553748 0.753429 0.655597 0.832401 
0.904329 0.134278 0.1078 0.716733 0.256663 
0.0239455 0.780917 0.150625 0.801471 0.439721 
0.524764 0.214209 0.474091 0.386785 0.0434381 
0.904103 0.973434 0.58873 0.0945279 0.912589 
0.302513 0.332504 0.439811 0.826825 0.724994 
0.742754 0.559524 0.653067 0.899442 0.660767 
0.589417 0.603339 0.707364 0.369332 0.333606 
0.49806 0.233015 0.864162 0.427472 0.719243 
0.344689 0.375348 0.678716 0.0864196 0.647895 
0.665472 0.554546 0.293268 0.277968 0.536856 
0.912559 0.806817 0.666945 0.099267 0.522908 
0.626094 0.100038 0.445262 0.00535291 0.101689 
0.728781 0.825737 0.474487 0.464414 0.301726 
0.0772584 0.354832 0.219722 0.131668 0.851819 
0.0967627 0.861483 0.689076 0.878227 0.428866 
0.949788 0.470715 0.378983 0.065383 0.65096 
0.511383 0.357568 0.723274 0.375684 0.214342 
0.278923 0.0600154 0.723196 0.72717 0.0255522 
0.524051 0.418306 0.547953 0.659793 0.129652 
0.244509 0.508808 0.482011 0.954415 0.723266 
0.0300849 0.630458 0.583647 0.437894 0.665809 
0.230653 0.523591 0.447489 0.578735 0.0909377 
0.597554 0.530512 0.319106 0.761224 0.352145 
0.12787 0.469241 0.702344 0.127039 0.883495 
0.964423 0.639987 0.0107749 0.338967 0.600115 
0.599255 0.275431 0.596792 0.606145 0.379712 
0.819341 0.330708 0.531188 0.918036 0.331955 
0.911726 0.657041 0.303109 0.325278 0.1477 
0.938945 0.435691 0.487786 0.0555732 0.234408 
0.552171 0.662448 0.881044 0.922472 0.659324 
0.190656 0.612037 0.817971 0.465998 0.28008 
0.0178855 0.254998 0.238921 0.525389 0.56044 
0.40471 0.669413 0.669767 0.229396 0.408821 
0.76154 0.650895 0.630312 0.0514175 0.697834 
0.99359 0.294309 0.498081 0.0334378 0.712145 
0.352893 0.741121 0.335874 0.483975 0.0793496 
0.0383538 0.311922 0.427252 0.794115 0.597658 
0.792562 0.499929 0.739386 0.997794 0.0263662 
0.957331 0.336167 0.546396 0.412437 0.94692 
0.975365 0.450597 0.254477 0.171236 0.000557385 
0.992114 0.994739 0.593582 0.108313 0.728229 
0.698226 0.46493 0.154886 0.45737 0.0152455 
0.344509 0.542394 0.909168 0.0225616 0.20642 
0.0408701 0.551815 0.98163 0.432721 0.96634 
0.64808 0.973619 0.489414 0.264199 0.92 
0.919573 0.810191 0.775823 0.990491 0.614539 
0.41724 0.116769 0.217589 0.560933 0.588656 
0.4114 0.659838 0.502774 0.891791 0.460046 
0.064562 0.639434 0.308664 0.735247 0.487097 
0.292419 0.820506 0.134106 0.880308 0.401553 
0.352386 0.148384 0.286668 0.442231 0.120467 
0.0969873 0.481665 0.554969 0.600029 0.557755 
0.708098 0.901072 0.297243 0.365029 0.667498 
0.0287738 0.559851 0.531382 0.266853 0.558631 
0.751982 0.168862 0.741849 0.0562245 0.640333 
0.0736449 0.40768 0.333823 0.102173 0.848345 
0.772576 0.419739 0.847828 0.875498 0.355548 
0.539997 0.241419 0.245456 0.542316 0.0435896 
0.896316 0.429614 0.573087 0.791937 0.041095 
0.710744 0.858588 0.0131328 0.627057 0.128072 
0.0924416 0.535636 0.813061 0.806116 0.0878284 
0.7558 0.380965 0.57049 0.371269 0.539268 
0.859569 0.907912 0.937458 0.52887 0.804623 
0.884463 0.145947 0.0350266 0.118434 0.868605 
0.673547 0.550904 0.452741 0.131541 0.965796 
0.402435 0.0321103 0.60855 0.512828 0.79134 
0.370643 0.325743 0.0102343 0.857221 0.139641 
0.906437 0.798681 0.322897 0.321373 0.55009 
0.703601 0.306687 0.876131 0.584607 0.0139663 
0.838583 0.34412 0.229209 0.907622 0.304437 
0.853774 0.797675 0.628329 0.282568 0.171902 
0.610081 0.572425 0.272119 0.510934 0.822592 
0.997019 0.0516117 0.929637 0.804357 0.779892 
0.686827 0.331753 0.852349 0.309912 0.242881 
0.0139038 0.356456 0.550041 0.992202 0.19359 
0.83186 0.669816 0.865136 0.66553 0.344672 
0.40563 0.260274 0.172273 0.962801 0.400343 
0.763144 0.22216 0.649933 0.144325 0.309392 
0.652406 0.305424 0.641332 0.994092 0.823418 
0.282793 0.877948 0.284965 0.352886 0.856513 
0.181984 0.363058 0.200348 0.830321 0.967092 
0.758798 0.94941 0.508502 0.2791 0.20979 
0.112364 0.703796 0.77226 0.295518 0.809906 
0.327217 0.102429 0.701813 0.745933 0.686391 
0.126122 0.389615 0.203435 0.815813 0.605781 
0.177034 0.559384 0.70353 0.397117 0.562385 
0.247888 0.431326 0.270074 0.242265 0.0589845 
0.952632 0.359615 0.809366 0.167034 0.785395 
0.228986 0.330316 0.138742 0.969677 0.152649 
0.211593 0.308744 0.465591 0.424891 0.444299 
0.287516 0.172284 0.0503983 0.0777355 0.045279 
0.463774 0.101619 0.611417 0.805252 0.380365 
0.93113 0.902493 0.77832 0.325645 0.863677 
0.181913 0.354158 0.110688 0.594938 0.713175 
0.286777 0.656705 0.00871783 0.626234 0.901428 
0.678024 0.0207263 0.590144 0.72035 0.255314 
0.107669 0.333214 0.49455 0.271929 0.341143 
0.277961 0.169836 0.44189 0.906902 0.35525 
0.12457 0.944246 0.262215 0.605117 0.845694 
0.385626 0.128835 0.837645 0.294879 0.447513 
0.429891 0.164011 0.203811 0.149487 0.806212 
0.247435 0.167136 0.82256 0.677621 0.0535529 
0.219237 0.0679554 0.10736 0.375393 0.926041 
0.207073 0.143481 0.778714 0.440243 0.290415 
0.222873 0.496187 0.935379 0.938549 0.870698 
0.410542 0.387259 0.326512 0.683663 0.235635 
0.568704 0.591985 0.275436 0.520734 0.683736 
0.367179 0.411912 0.369029 0.205108 0.408501 
0.285292 0.0296715 0.164998 0.0246989 0.406258 
0.254029 0.461408 0.136537 0.334466 0.215023 
0.386032 0.739994 0.0770391 0.987564 0.934795 
0.655592 0.513105 0.52064 0.977217 0.479705 
0.10067 0.584659 0.74915 0.145778 0.457241 
0.186048 0.160163 0.421281 0.0755635 0.637606 
0.109474 0.217935 0.0198812 0.0320502 0.360374 
0.489558 0.877281 0.397465 0.345482 0.275811 
0.843753 0.411559 0.620845 0.416297 0.505002 
0.642106 0.532889 0.0011317 0.605991 0.693783 
0.719982 0.850838 0.511498 0.375426 0.66837 
0.278761 0.543202 0.498357 0.469762 0.0170593 
0.857083 0.0550497 0.525125 0.387677 0.235566 
0.0535998 0.523802 0.711247 0.968334 0.180029 
0.288276 0.308736 0.886119 0.353897 0.894346 
0.80663 0.488695 0.000862539 0.52119 0.226835 
0.423284 0.659333 0.115337 0.505656 0.293986 
0.0669758 0.191131 0.194982 0.267277 0.157179 
0.246267 0.439712 0.584719 0.366456 0.887943 
0.724003 0.681522 0.468747 0.00332722 0.77806 
0.237991 0.436919 0.491217 0.292462 0.54039 
0.512519 0.562732 0.203108 0.203259 0.572668 
0.602912 0.941739 0.0450453 0.962526 0.139641 
0.0459486 0.0162353 0.55155 0.839023 0.44227 
0.308154 0.755274 0.210599 0.180273 0.221417 
0.905892 0.701443 0.872196 0.890028 0.555498 
0.218494 0.379742 0.69534 0.429051 0.224218 
0.0298582 0.578107 0.449816 0.0116225 0.473636 
0.0353099 0.519668 0.395866 0.759312 0.663232 
0.425606 0.434989 0.27255 0.650578 0.62115 
0.576721 0.789752 0.280338 0.252401 0.83157 
0.802194 0.0423538 0.265207 0.598736 0.0627361 
0.0339804 0.123885 0.836307 0.450725 0.360992 
0.00787336 0.0797899 0.358032 0.341409 0.170858 
0.025451 0.348458 0.0618973 0.341007 0.993112 
0.601637 0.237804 0.293368 0.575276 0.290974 
0.64123 0.965615 0.864517 0.43127 0.82608 
0.19597 0.477846 0.721038 0.12881 0.767678 
0.190818 0.642506 0.551688 0.912328 0.748061 
0.480873 0.762718 0.741509 0.767473 0.96087 
0.747961 0.7458 0.833885 0.91145 0.0684452 
0.326047 0.306593 0.1399 0.928944 0.23271 
0.694061 0.568605 0.614378 0.227381 0.263013 
0.602233 0.711699 0.373132 0.471834 0.640608 
0.0777858 0.201991 0.123762 0.825192 0.962399 
0.990946 0.734181 0.36128 0.923545 0.924999 
0.4951 0.418893 0.905542 0.39619 0.137589 
0.171896 0.204426 0.603147 0.190594 0.121665 
0.579917 0.598874 0.575457 0.115104 0.950109 
0.451373 0.309011 0.459526 0.699328 0.810425 
0.785997 0.867573 0.118917 0.665351 0.248371 
0.680002 0.611453 0.593355 0.216459 0.271117 
0.0835081 0.943385 0.719694 0.980203 0.489696 
0.47044 0.270327 0.798506 0.522179 0.890704 
0.510164 0.109001 0.386854 0.973126 0.953748 
0.396874 0.166973 0.937214 0.31733 0.130084 
0.689436 0.601133 0.649223 0.653917 0.244764 
0.47764 0.705344 0.810044 0.164079 0.49384 
0.804078 0.664005 0.897682 0.535271 0.502867 
0.469777 0.356905 0.485235 0.136483 0.668141 
0.272265 0.553202 0.80724 0.988475 0.63637 
0.691329 0.813044 0.608643 0.962441 0.82751 
0.400651 0.451241 0.00602352 0.794179 0.731835 
0.955959 0.452274 0.68119 0.940974 0.839897 
0.217871 0.0934187 0.110038 0.98519 0.641709 
0.895017 0.773234 0.767624 0.277893 0.301008 
0.264945 0.986524 0.403868 0.540002 0.539505 
0.245477 0.0457067 0.63038 0.934594 0.591936 
0.85426 0.0547908 0.668509 0.163647 0.574159 
0.345059 0.866713 0.824346 0.457769 0.783992 
0.360412 0.469472 0.758923 0.777754 0.191509 
0.39571 0.426519 0.948608 0.446103 0.599242 
0.996539 0.99676 0.358182 0.63232 0.820158 
0.74339 0.442506 0.630169 0.588615 0.541965 
0.249656 0.106971 0.130433 0.373243 0.58687 
0.0156299 0.538814 0.182511 0.625072 0.0114333 
0.831308 0.763143 0.232123 0.747899 0.740511 
0.242913 0.778399 0.474424 0.401496 0.757348 
0.874832 0.948594 0.0085014 0.584199 0.0467454 
0.0037357 0.614666 0.0734032 0.287347 0.215182 
0.674777 0.733214 0.862511 0.0148444 0.462443 
0.0277613 0.959406 0.847759 0.214923 0.363586 
0.730158 0.983081 0.964938 0.241975 0.184508 
0.867312 0.7915 0.720006 0.771146 0.95808 
0.76302 0.955877 0.931444 0.690844 0.630918 
0.726915 0.440827 0.98776 0.514932 0.827403 
0.934103 0.776172 0.874245 0.861705 0.519963 
0.618143 0.430909 0.0411665 0.619264 0.688778 
0.374291 0.769002 0.123647 0.352455 0.556224 
0.553106 0.0367808 0.540946 0.902946 0.278618 
0.499226 0.136202 0.811339 0.322498 0.753563 
0.291054 0.187316 0.169035 0.88294 0.503525 
0.510276 0.215897 0.213683 0.171288 0.598635 
0.781405 0.917328 0.474059 0.998074 0.521579 
0.140971 0.370397 0.560491 0.98899 0.391324 
0.460725 0.377702 0.222455 0.438057 0.533805 
0.489122 0.271134 0.0594274 0.740076 0.559354 
0.297582 0.864173 0.246132 0.41402 0.0459645 
0.595853 0.863694 0.249289 0.915673 0.419883 
0.64505 0.47307 0.0495455 0.49242 0.862218 
0.156119 0.901685 0.792896 0.54367 0.693558 
0.37393 0.1436 0.553445 0.347445 0.130233 
0.959255 0.0471313 0.989971 0.213076 0.922051 
0.424957 0.0708926 0.876522 0.485431 0.991503 
0.854715 0.0920075 0.346328 0.248243 0.92077 
0.934 0.512889 0.840053 0.578397 0.274897 
0.822912 0.20209 0.508962 0.186519 0.892273 
0.330632 0.771419 0.988288 0.797872 0.0064006 
0.419446 0.514793 0.936977 0.170916 0.570805 
0.150477 0.145032 0.78699 0.0948472 0.0338284 
0.229939 0.223011 0.641616 0.734518 0.406267 
0.643752 0.920343 0.0708859 0.169374 0.0245062 
0.940501 0.244321 0.591383 0.0990741 0.643107 
0.660614 0.975505 0.728935 0.918597 0.545696 
0.347105 0.773627 0.146021 0.773404 0.581487 
0.835867 0.746033 0.342265 0.0196043 0.280117 
0.781468 0.813535 0.519807 0.980164 0.34956 
0.549241 0.577368 0.683045 0.366965 0.629801 
0.0300648 0.572467 0.815807 0.698048 0.430784 
0.457709 0.882272 0.544261 0.944461 0.706801 
0.0169059 0.887884 0.87761 0.953829 0.979026 
0.512112 0.859944 0.732003 0.988583 0.597031 
0.555941 0.0405922 0.388374 0.249957 0.762382 
0.743082 0.613119 0.355611 0.638073 0.609437 
0.750144 0.274902 0.362061 0.0975798 0.32867 
0.962524 0.00664217 0.930874 0.342984 0.775473 
0.287174 0.326401 0.649599 0.372391 0.578742 
0.195023 0.725274 0.434546 0.229949 0.0303188 
0.769147 0.650188 0.714436 0.436878 0.587903 
0.00285716 0.144859 0.556422 0.513297 0.283744 
0.153463 0.820394 0.752421 0.102273 0.383561 
0.639995 0.186173 0.92627 0.587945 0.300735 
0.297441 0.807185 0.992149 0.505966 0.264752 
0.120199 0.685447 0.732213 0.473971 0.63863 
0.770043 0.698653 0.861824 0.757434 0.849474 
0.148616 0.753435 0.082746 0.973227 0.279339 
0.594876 0.526262 0.937756 0.000997339 0.865967 
0.900489 0.957399 0.699057 0.521196 0.521441 
0.630279 0.991694 0.546221 0.486671 0.585949 
0.645575 0.0866375 0.679621 0.195946 0.0401296 
0.155635 0.485702 0.344695 0.40532 0.274231 
0.457128 0.892575 0.777521 0.595013 0.576041 
0.310715 0.671158 0.238144 0.162221 0.74503 
0.998342 0.412165 0.642769 0.99236 0.284407 
0.959545 0.504068 0.996457 0.446143 0.280975 
0.685888 0.655383 0.0667629 0.346774 0.614062 
0.215961 0.246683 0.366207 0.185881 0.894607 
0.818601 0.904011 0.402348 0.24545 0.498593 
0.453326 0.343169 0.160447 0.927139 0.48046 
0.154458 0.540134 0.508858 0.0343353 0.113237 
0.640007 0.716072 0.756077 0.708781 0.881231 
0.716997 0.260774 0.157417 0.657909 0.857334 
0.913117 0.206067 0.689268 0.434232 0.697046 
0.52797 0.762444 0.465075 0.435558 0.801924 
0.694254 0.86643 0.380877 0.480785 0.74197 
0.852777 0.0107256 0.513867 0.164801 0.714856 
0.473169 0.0429791 0.983801 0.71633 0.00892205 
0.921291 0.0154072 0.422283 0.59165 0.575908 
0.0742272 0.540806 0.231567 0.828805 0.552649 
0.561605 0.628166 0.0082368 0.74048 0.886595 
0.866734 0.279131 0.315348 0.627261 0.0462501 
0.825691 0.720691 0.533326 0.281344 0.348887 
0.916814 0.0681502 0.00218377 0.503851 0.558705 
0.961511 0.805656 0.234358 0.840736 0.98783 
0.824259 0.067713 0.0165564 0.15749 0.964813 
0.201814 0.25342 0.752406 0.309045 0.834005 
0.125814 0.397569 0.687466 0.849491 0.139564 
0.80558 0.443842 0.200273 0.925962 0.774856 
0.607737 0.49221 0.273344 0.245517 0.157043 
0.835303 0.484867 0.437057 0.130483 0.43269 
0.0650682 0.990296 0.057292 0.0265259 0.397111 
0.0981544 0.899198 0.883933 0.200188 0.763936 
0.7353 0.721345 0.757452 0.787145 0.522123 
0.676237 0.0299935 0.220848 0.140839 0.611702 
0.634246 0.670957 0.181304 0.667096 0.228933 
0.77946 0.879415 0.362886 0.984602 0.347409 
0.800358 0.103309 0.188914 0.262019 0.313493 
0.740302 0.569617 0.409129 0.848579 0.759013 
0.0984104 0.919678 0.493009 0.407162 0.0619534 
0.615425 0.14617 0.57999 0.404422 0.39415 
0.109037 0.572334 0.717134 0.986944 0.779835 
0.728469 0.16472 0.485283 0.194406 0.568472 
0.582542 0.453131 0.626921 0.19232 0.384514 
0.321549 0.802264 0.0871694 0.684658 0.347097 
0.511038 0.252724 0.277711 0.161911 0.725897 
0.386795 0.684466 0.327223 0.101778 0.847556 
0.165427 0.186995 0.723131 0.482779 0.30866 
0.878499 0.781436 0.261763 0.0572826 0.670563 
0.721538 0.897274 0.887731 0.0507472 0.00294021 
0.483497 0.165775 0.0677194 0.506788 0.242944 
0.0538556 0.3017 0.537546 0.803607 0.330668 
0.989547 0.229303 0.286003 0.125647 0.18956 
0.752792 0.741811 0.761926 0.025476 0.330101 
0.0184908 0.33895 0.268202 0.00869936 0.100513 
0.899023 0.773893 0.138369 0.203516 0.849125 
0.187845 0.947821 0.03361 0.992633 0.878743 
0.727873 0.352994 0.516355 0.519034 0.375028 
0.956804 0.929302 0.202553 0.624581 0.0865993 
0.705294 0.576497 0.918339 0.237549 0.144623 
0.835543 0.29515 0.74618 0.321277 0.983784 
0.207405 0.328375 0.649881 0.585747 0.0187526 
0.357535 0.769834 0.813562 0.437325 0.964381 
0.188292 0.583267 0.790914 0.912727 0.297442 
0.134253 0.770175 0.232311 0.462125 0.0779866 
0.280453 0.927114 0.374884 0.56568 0.336002 
0.721976 0.565882 0.822467 0.82401 0.25894 
0.865877 0.107533 0.471573 0.147902 0.58896 
0.716951 0.388609 0.1237 0.591602 0.253158 
0.186453 0.343553 0.980011 0.288469 0.485545 
0.358164 0.0876171 0.762666 0.502615 0.467347 
0.726078 0.798399 0.959638 0.504373 0.987864 
0.813066 0.578325 0.808699 0.983373 0.802823 
0.351868 0.92241 0.191402 0.186138 0.360116 
0.43233 0.437097 0.495029 0.0764964 0.345902 
0.243995 0.297972 0.00584462 0.99501 0.411937 
0.653932 0.937801 0.69447 0.583422 0.109688 
0.766391 0.250416 0.0932596 0.683228 0.0518091 
0.955747 0.00656532 0.639164 0.480175 0.163685 
0.391325 0.0543124 0.52116 0.286743 0.305698 
0.375054 0.634529 0.678052 0.831257 0.287044 
0.272046 0.857055 0.82815 0.905556 0.483552 
0.560154 0.258864 0.266888 0.247028 0.0533092 
0.479288 0.508707 0.273737 0.799925 0.0626752 
0.959733 0.809709 0.763623 0.582503 0.981963 
0.198353 0.537641 0.10997 0.448608 0.577367 
0.197955 0.950274 0.616637 0.850994 0.584965 
0.384079 0.164375 0.611534 0.303141 0.503949 
0.494704 0.530521 0.382804 0.0568615 0.479524 
0.265302 0.502887 0.719009 0.76748 0.876433 
0.545117 0.541565 0.382844 0.525601 0.970891 
0.71355 0.89801 0.529351 0.626579 0.393836 
0.0927315 0.616753 0.726769 0.993569 0.571295 
0.648839 0.866847 0.315535 0.813626 0.301616 
0.574792 0.562586 0.909553 0.260399 0.862505 
0.560961 0.491505 0.602767 0.89055 0.260309 
0.924676 0.00869774 0.745484 0.277677 0.724701 
0.449874 0.928814 0.92755 0.573722 0.822231 
0.145574 0.69645 0.180137 0.895569 0.326603 
0.856152 0.418559 0.110472 0.54296 0.5168 
0.626958 0.633524 0.0835091 0.0658214 0.789089 
0.691832 0.0185126 0.433798 0.382015 0.528486 
0.493108 0.68008 0.902857 0.626605 0.679684 
0.756499 0.183533 0.0914702 0.755807 0.884531 
0.553352 0.951918 0.0435804 0.483302 0.997572 
0.78517 0.0261798 0.0126785 0.696277 0.956579 
0.740178 0.38763 0.157222 0.519965 0.873716 
0.908628 0.377285 0.824952 0.932721 0.213882 
0.785738 0.12546 0.381228 0.101991 0.474963 
0.400288 0.345666 0.0198195 0.0172702 0.170312 
0.480325 0.109567 0.782098 0.832396 0.779935 
0.959614 0.636734 0.769202 0.954031 0.642616 
0.226393 0.761248 0.0381622 0.926139 0.78432 
0.628914 0.409298 0.872856 0.570164 0.561482 
0.383896 0.566678 0.215501 0.940895 0.624999 
0.296295 0.365325 0.471976 0.685783 0.738416 
0.290429 0.0442123 0.916942 0.651921 0.642969 
0.421371 0.87468 0.888401 0.312621 0.411167 
0.557188 0.644797 0.525112 0.0528363 0.5565 
0.00788055 0.785803 0.247047 0.977215 0.400269 
0.717116 0.17009 0.987661 0.51678 0.372643 
0.585557 0.804925 0.694984 0.81223 0.185424 
0.949947 0.225956 0.49044 0.464021 0.366686 
0.824376 0.85456 0.281612 0.159297 0.664794 
0.395976 0.684378 0.732899 0.841053 0.448289 
0.551747 0.576354 0.52313 0.684466 0.250867 
0.31909 0.0611638 0.917244 0.471951 0.779072 
0.462865 0.491728 0.765934 0.935389 0.26432 
0.643554 0.819433 0.29316 0.232388 0.824304 
0.0374201 0.257667 0.444269 0.65256 0.206327 
0.446978 0.315667 0.879147 0.932535 0.803497 
0.927819 0.59958 0.269706 0.392335 0.919438 
0.493043 0.188327 0.736612 0.0215506 0.555448 
0.224182 0.28782 0.975994 0.258976 0.555286 
0.770054 0.194569 0.650344 0.224571 0.499017 
0.0741445 0.945636 0.515062 0.320487 0.847793 
0.81448 0.152891 0.441858 0.646891 0.567957 
0.832416 0.365048 0.521766 0.893098 0.0299648 
0.895466 0.235362 0.202717 0.278592 0.913917 
0.333334 0.77861 0.302667 0.840247 0.883429 
0.461284 0.756879 0.814927 0.340828 0.907895 
0.226564 0.373773 0.222395 0.117999 0.228803 
0.0230614 0.424697 0.0929302 0.149548 0.0674696 
0.876153 0.128255 0.891191 0.44162 0.111164 
0.920454 0.814892 0.595884 0.362837 0.188178 
0.348612 0.66718 0.927887 0.648509 0.554686 
0.509612 0.713487 0.809699 0.370635 0.630586 
0.363071 0.722561 0.551133 0.309274 0.243561 
0.202675 0.0428158 0.458547 0.726713 0.759444 
0.338877 0.142924 0.627101 0.262626 0.611824 
0.480929 0.0122996 0.852535 0.858339 0.805715 
0.0292278 0.815655 0.904442 0.981343 0.787266 
0.910424 0.8009 0.577572 0.809737 0.726508 
0.160094 0.0962796 0.958272 0.158768 0.799631 
0.866669 0.213695 0.613138 0.89707 0.160968 
0.686697 0.91849 0.419563 0.514042 0.0358869 
0.383254 0.785939 0.232051 0.239108 0.320232 
0.148176 0.776719 0.105365 0.106155 0.41247 
0.410912 0.587828 0.682125 0.261286 0.211478 
0.519641 0.935251 0.851541 0.548598 0.303764 
0.154322 0.499243 0.898285 0.862346 0.683136 
0.484547 0.056431 0.602892 0.479316 0.918807 
0.716685 0.746207 0.623476 0.308569 0.424276 
0.279649 0.00385775 0.601115 0.774177 0.757228 
0.481789 0.488843 0.627533 0.222379 0.659848 
0.174854 0.925739 0.204817 0.484953 0.435813 
0.39245 0.239152 0.901072 0.41438 0.776828 
0.368054 0.972315 0.839565 0.379136 0.352335 
0.487326 0.94914 0.700485 0.929266 0.440952 
0.109002 0.254626 0.934319 0.796271 0.328812 
0.17578 0.895367 0.129257 0.260225 0.657411 
0.0728098 0.273892 0.876162 0.170885 0.055754 
0.574142 0.757345 0.880656 0.181602 0.873096 
0.257867 0.818411 0.420182 0.323217 0.486697 
0.0420229 0.729973 0.734196 0.413036 0.98854 
0.852303 0.844381 0.434647 0.934535 0.377112 
0.1358 0.610313 0.166687 0.524227 0.0672772 
0.713832 0.643113 0.705959 0.940786 0.361903 
0.256434 0.202383 0.339618 0.837784 0.629046 
0.267314 0.835402 0.661961 0.619695 0.0888509 
0.868333 0.0209563 0.958338 0.589584 0.333023 
0.878135 0.0502834 0.622284 0.337729 0.780141 
0.405032 0.191074 0.576868 0.584747 0.263836 
0.907364 0.521036 0.293149 0.649587 0.301747 
0.703205 0.779691 0.844089 0.333459 0.517732 
0.883843 0.549731 0.866658 0.113773 0.648747 
0.22128 0.807157 0.650742 0.383753 0.0077497 
0.274472 0.0901221 0.25674 0.794101 0.154309 
0.59194 0.297018 0.244891 0.383959 0.824422 
0.212244 0.435067 0.605512 0.317834 0.238281 
0.268015 0.37495 0.551034 0.975979 0.692357 
0.21454 0.216378 0.802354 0.0226812 0.00334993 
0.97116 0.696636 0.0181689 0.0391439 0.893981 
0.201594 0.390825 0.988687 0.347841 0.575439 
0.176614 0.914474 0.103061 0.31765 0.0161875 
0.734434 0.230959 0.0241948 0.606173 0.822419 
0.175392 0.426892 0.28085 0.48189 0.208522 
0.411531 0.193431 0.447952 0.682841 0.558579 
0.0757636 0.442195 0.706069 0.798705 0.811499 
0.670674 0.476537 0.81593 0.208988 0.815108 
0.436985 0.73461 0.0142061 0.0490886 0.746345 
0.40531 0.834787 0.576491 0.654789 0.399772 
0.667792 0.356357 0.702657 0.854369 0.713998 
0.528332 0.454481 0.0671467 0.89515 0.956203 
0.0690155 0.367937 0.979811 0.716971 0.343548 
0.888104 0.675867 0.289494 0.118172 0.93313 
0.0996458 0.722979 0.390839 0.675597 0.936386 
0.0623983 0.233144 0.983635 0.470558 0.503078 
0.903349 0.929646 0.32417 0.400522 0.99145 
0.442813 0.00861991 0.531751 0.357794 0.275536 
0.531336 0.542906 0.768823 0.781977 0.618326 
0.0839814 0.130379 0.169168 0.652774 0.194702 
0.196441 0.609032 0.790448 0.313631 0.87798 
0.444173 0.625699 0.522485 0.935249 0.891951 
0.179665 0.403982 0.0197484 0.462052 0.905557 
0.328537 0.236668 0.156874 0.597122 0.174123 
0.532956 0.140365 0.240307 0.0357563 0.575315 
0.631778 0.173707 0.268383 0.707506 0.840752 
0.1334 0.625762 0.312468 0.93912 0.569993 
0.726321 0.965932 0.531443 0.706229 0.244223 
0.131028 0.954036 0.97939 0.034089 0.238503 
0.0213443 0.42426 0.616904 0.844895 0.0340568 
0.00265116 0.973357 0.563272 0.277793 0.555039 
0.420674 0.165345 0.565968 0.819851 0.312668 
0.991855 0.279828 0.496548 0.792789 0.991278 
0.774753 0.23451 0.618819 0.631469 0.181209 
0.417514 0.724154 0.717019 0.0155412 0.185033 
0.177113 0.637273 0.466851 0.712405 0.0207971 
0.649316 0.304471 0.2211 0.0200681 0.133792 
0.798165 0.715275 0.232169 0.337224 0.3451 
0.76257 0.682778 0.40884 0.0523574 0.248234 
0.333989 0.447077 0.848261 0.798106 0.35048 
0.573145 0.731311 0.731594 0.943222 0.146614 
0.530794 0.394533 0.296967 0.74542 0.952316 
0.513837 0.954119 0.886958 0.453764 0.948046 
0.499731 0.975947 0.413113 0.563295 0.0292867 
0.118431 0.65403 0.825962 0.314899 0.0805035 
0.000547302 0.924131 0.196472 0.331249 0.520408 
0.761085 0.00909845 0.986539 0.719287 0.178556 
0.114131 0.605632 0.551103 0.752651 0.539686 
0.0817508 0.0121925 0.697943 0.263487 0.377421 
0.632889 0.144522 0.82036 0.671751 0.552237 
0.229506 0.193544 0.830383 0.1097 0.771799 
0.519429 0.876143 0.953162 0.125391 0.609701 
0.855204 0.286341 0.193744 0.110431 0.868851 
0.586907 0.860613 0.790017 0.107423 0.318591 
0.0420919 0.298177 0.580947 0.375032 0.876502 
0.697618 0.159064 0.999827 0.149527 0.550633 
0.306926 0.522235 0.421128 0.814519 0.806582 
0.817216 0.679676 0.163094 0.438491 0.0303834 
0.501672 0.0205962 0.316172 0.00533479 0.720583 
0.679111 0.155971 0.0959045 0.312158 0.582968 
0.263677 0.929799 0.695803 0.771703 0.0992264 
0.20022 0.35747 0.217838 0.628912 0.424416 
0.585335 0.455804 0.0991189 0.588867 0.248751 
0.617887 0.870743 0.329405 0.698713 0.551972 
0.575655 0.828664 0.721564 0.648372 0.205277 
0.479358 0.892956 0.402348 0.964851 0.702881 
0.105695 0.0584055 0.95647 0.215992 0.817346 
0.44776 0.189542 0.952629 0.264237 0.50076 
0.335492 0.605218 0.430236 0.220669 0.501556 
0.0203832 0.807157 0.923996 0.0778344 0.203919 
0.501372 0.529276 0.198696 0.174053 0.953294 
0.986223 0.999046 0.892535 0.72758 0.853008 
0.331282 0.416817 0.659794 0.36836 0.596239 
0.880539 0.298972 0.489978 0.107304 0.468488 
0.355655 0.623739 0.0492118 0.246542 0.776945 
0.311122 0.457421 0.119535 0.47391 0.88773 
0.286021 0.130782 0.915001 0.384035 0.73464 
0.352882 0.911035 0.174146 0.986101 0.713749 
0.184111 0.248492 0.533399 0.236533 0.583728 
0.822848 0.112546 0.794228 0.91846 0.799353 
0.820673 0.795743 0.870697 0.891391 0.181961 
0.860046 0.645713 0.798492 0.0546264 0.841677 
0.34372 0.634008 0.341015 0.28659 0.290614 
0.568685 0.505381 0.818254 0.915247 0.870784 
0.836542 0.900493 0.153962 0.193867 0.524207 
0.168945 0.359362 0.446942 0.209299 0.818282 
0.707044 0.455442 0.52052 0.711077 0.644059 
0.0961573 0.760111 0.426448 0.326982 0.0247692 
0.986341 0.98848 0.742689 0.717154 0.251222 
0.654384 0.464445 0.159542 0.771807 0.343987 
0.736939 0.345326 0.470424 0.132121 0.417281 
0.289701 0.371687 0.461439 0.0997434 0.738086 
0.31877 0.941433 0.152498 0.522523 0.712189 
0.999037 0.638638 0.090791 0.222531 0.124505 
0.221397 0.592363 0.333433 0.267633 0.780667 
0.751614 0.158067 0.0294863 0.700397 0.369369 
0.258438 0.775767 0.615794 0.230655 0.830445 
0.207549 0.0712308 0.734162 0.130531 0.0119573 
