400 5
0.280502 0.358499 0.21199 0.975933 0.0235498 
0.645162 0.986768 0.112584 0.907985 0.983798 
0.963384 0.832083 0.558426 0.551374 0.210823 
0.0383263 0.783097 0.213613 0.408751 0.486182 
0.00401864 0.895485 0.505945 0.435902 0.852141 
0.453333 0.339672 0.54793 0.171423 0.0400728 
0.970255 0.710003 0.887852 0.756017 0.795862 
0.00303052 0.764593 0.731885 0.847887 0.0131181 
0.917645 0.00585554 0.0523717 0.327132 0.893793 
0.665368 0.99314 0.969885 0.949655 0.114875 
0.47378 0.699465 0.36865 0.380089 0.260932 
0.251357 0.0783552 0.0482895 0.264702 0.431138 
0.476548 0.548327 0.0806292 0.0918765 0.69216 
0.0341264 0.387777 0.85196 0.766341 0.895243 
0.614828 0.159493 0.647248 0.592237 0.35974 
0.657816 0.189036 0.47543 0.748564 0.93611 
0.604914 0.282142 0.0180447 0.36652 0.648225 
0.300724 0.148586 0.896265 0.0817092 0.360718 
0.715217 0.451338 0.670674 0.0611006 0.745815 
0.627137 0.59622 0.00934465 0.521615 0.0228152 
0.0488274 0.568533 0.380413 0.241792 0.615195 
0.480908 0.586282 0.32357 0.81237 0.794439 
0.633035 0.798073 0.80886 0.402731 0.304855 
0.240573 0.257636 0.819089 0.495209 0.0590969 
0.742593 0.701968 0.0859534 0.6059 0.916848 
0.769214 0.659715 0.134985 0.0152363 0.108249 
0.586454 0.274699 0.705713 0.931971 0.92632 
0.533947 0.376218 0.890705 0.842533 0.533268 
0.93278 0.259778 0.703762 0.0717871 0.147318 
0.565934 0.599245 0.0410833 0.846385 0.162017 
0.0141784 0.358817 0.778111 0.294889 0.498892 
0.2411 0.00430439 0.966302 0.36481 0.352703 
0.879186 0.779531 0.821906 0.884312 0.945004 
0.0189653 0.261618 0.249197 0.241459 0.69564 
0.154003 0.772213 0.312632 0.0389077 0.621068 
0.27983 0.495199 0.455753 0.502089 0.596866 
0.520747 0.912059 0.52555 0.173286 0.413067 
0.635903 0.619837 0.759171 0.959419 0.4645 
0.738878 0.421932 0.00825211 0.00655752 0.0209891 
0.0649957 0.295525 0.690533 0.00325687 0.537282 
0.548038 0.365965 0.853089 0.0306006 0.842443 
0.931085 0.442971 0.434323 0.896063 0.208052 
0.873795 0.661186 0.519926 0.173725 0.833498 
0.407951 0.0713217 0.546827 0.139505 0.385222 
0.454148 0.803556 0.0777505 0.681725 0.926163 
0.0268103 0.754243 0.96006 0.154391 0.164742 
0.874431 0.367497 0.947803 0.663527 0.47184 
0.0487223 0.786805 0.0222918 0.926592 0.929188 
0.467406 0.253823 0.0990772 0.278815 0.861621 
0.263089 0.478931 0.367692 0.070015 0.830557 
0.382657 0.209615 0.223225 0.192868 0.986677 
0.817203 0.566056 0.209176 0.0297796 0.703145 
0.384544 0.854131 0.557895 0.962305 0.293054 
0.409467 0.271286 0.600796 0.387996 0.414532 
0.3252 0.312067 0.0693432 0.951366 0.220538 
0.997799 0.767612 0.216954 0.950768 0.322523 
0.0686084 0.864388 0.921317 0.273028 0.156179 
0.0480748 0.27838 0.185179 0.177916 0.396704 
0.747294 0.636983 0.588405 0.313211 0.145313 
0.545012 0.988656 0.968654 0.200333 0.361133 
0.99595 0.06772 0.205918 0.583944 0.618915 
0.898276 0.647505 0.0822421 0.0168837 0.287137 
0.34901 0.721338 0.541551 0.108179 0.437188 
0.181899 0.127351 0.341086 0.0348058 0.424937 
0.201534 0.730263 0.857365 0.234258 0.984771 
0.293788 0.317728 0.699742 0.868151 0.0535221 
0.166101 0.0674105 0.618067 0.869018 0.229914 
0.146202 0.428018 0.15296 0.471721 0.859615 
0.728489 0.697072 0.0900218 0.0439179 0.102089 
0.564647 0.504221 0.323645 0.501476 0.361364 
0.878944 0.757554 0.864651 0.149626 0.64032 
0.237453 0.422265 0.212912 0.647784 0.0665126 
0.535191 0.175587 0.574261 0.916567 0.922585 
0.537099 0.206477 0.299335 0.677482 0.107627 
0.126124 0.973851 0.821773 0.610835 0.922502 
0.548846 0.433308 0.299963 0.783982 0.786049 
0.083576 0.93518 0.127308 0.257398 0.771348 
0.961604 0.363778 0.407476 0.801204 0.763164 
0.756953 0.939999 0.440255 0.181034 0.775599 
0.109442 0.73906 0.863321 0.467832 0.815006 
0.3317 0.752583 0.255569 0.586323 0.101741 
0.707135 0.263084 0.168638 0.775271 0.43555 
0.0620235 0.460513 0.73586 0.000209698 0.514397 
0.311647 0.645078 0.843227 0.492117 0.202813 
0.483328 0.146742 0.434929 0.924833 0.240437 
0.579687 0.936956 0.440096 0.214484 0.863448 
0.0911476 0.454337 0.151935 0.0284429 0.0809035 
0.946975 0.081976 0.419918 0.83333 0.387976 
0.281874 0.376938 0.937966 0.592278 0.370288 
0.174913 0.895527 0.397249 0.462652 0.61119 
0.970685 0.449045 0.334538 0.824037 0.362371 
0.729431 0.736873 0.332259 0.435649 0.647048 
0.837305 0.521373 0.691735 0.776052 0.455794 
0.128399 0.280941 0.128721 0.0335183 0.541869 
0.192305 0.6261 0.0298092 0.586028 0.313089 
0.803018 0.701718 0.408434 0.45349 0.124711 
0.89086 0.131873 0.370165 0.553237 0.974075 
0.267691 0.422587 0.488815 0.560278 0.372097 
0.825277 0.0243733 0.383177 0.52061 0.698782 
0.560789 0.799432 0.466176 0.902514 0.140762 
0.320053 0.741984 0.482872 0.708969 0.729043 
0.771353 0.744563 0.627717 0.262879 0.414356 
0.751193 0.552893 0.918219 0.981571 0.808 
0.125128 0.872833 0.144335 0.137374 0.419197 
0.642166 0.404215 0.688245 0.179296 0.614026 
0.535627 0.24907 0.755033 0.248312 0.111383 
0.287658 0.129138 0.513421 0.299294 0.607479 
0.803408 0.103383 0.888023 0.98574 0.942659 
0.0450055 0.248905 0.869238 0.761192 0.0356425 
0.507939 0.901412 0.0584029 0.14342 0.175365 
0.371644 0.413613 0.0829564 0.207472 0.304408 
0.568925 0.155447 0.914886 0.404854 0.172557 
0.884937 0.303856 0.242905 0.403885 0.458339 
0.213919 0.37922 0.200748 0.571863 0.0935814 
0.909759 0.291914 0.698757 0.42326 0.531608 
0.362678 0.834776 0.0549009 0.33188 0.295367 
0.974141 0.428813 0.859117 0.426276 0.657218 
0.768908 0.769133 0.966875 0.772601 0.125185 
0.319749 0.831412 0.205904 0.666107 0.491101 
0.33168 0.549676 0.0471707 0.501304 0.982999 
0.693561 0.696428 0.352456 0.956013 0.0940454 
0.148237 0.0789381 0.773765 0.467661 0.65196 
0.954886 0.0207678 0.837475 0.00780116 0.496106 
0.642446 0.761772 0.557352 0.904541 0.163927 
0.810331 0.980912 0.455741 0.377515 0.413774 
0.00523753 0.0698161 0.158024 0.676294 0.719412 
0.216639 0.704222 0.324595 0.983735 0.10661 
0.987438 0.486417 0.576253 0.588989 0.595338 
0.103149 0.350288 0.1009 0.151495 0.111815 
0.812672 0.151693 0.271599 0.247842 0.647499 
0.841169 0.933036 0.65498 0.0954477 0.980704 
0.806706 0.143808 0.0251888 0.645233 0.085951 
0.918065 0.253277 0.0308671 0.651087 0.716521 
0.481115 0.646765 0.591396 0.761907 0.0560895 
0.0432774 0.96736 0.341718 0.930209 0.878152 
0.430307 0.754866 0.134509 0.287814 0.88885 
0.879703 0.965252 0.0962235 0.48562 0.440494 
0.688748 0.0360113 0.606902 0.471813 0.845967 
0.0605311 0.726917 0.917448 0.160568 0.635927 
0.927835 0.07535 0.191797 0.410294 0.283847 
0.82079 0.628815 0.491734 0.691531 0.672967 
0.288694 0.725142 0.178815 0.256843 0.243024 
0.806421 0.255477 0.71301 0.132942 0.526092 
0.753632 0.407318 0.833945 0.272167 0.475336 
0.0840162 0.538363 0.748285 0.956367 0.242875 
0.311573 0.638466 0.371967 0.662168 0.479315 
0.0750166 0.564301 0.841644 0.292193 0.353748 
0.24637 0.290694 0.881517 0.0104119 0.385408 
0.505737 0.880819 0.701382 0.215155 0.590907 
0.222162 0.0777324 0.551386 0.95842 0.353832 
0.0463535 0.179653 0.740608 0.411769 0.76665 
0.614432 0.31898 0.595616 0.844165 0.758216 
0.0343057 0.64892 0.25527 0.713181 0.391422 
0.0948827 0.498694 0.972033 0.816509 0.88797 
0.123629 0.742444 0.743186 0.64081 0.207274 
0.818697 0.368676 0.403948 0.289817 0.808812 
0.984738 0.832459 0.782599 0.101647 0.773184 
0.28397 0.0998947 0.355003 0.612959 0.281449 
0.370683 0.886243 0.141505 0.563486 0.3985 
0.646526 0.368333 0.316342 0.0035282 0.902766 
0.444276 0.156574 0.00638483 0.0908195 0.355374 
0.266957 0.699514 0.756488 0.0851725 0.285824 
0.312159 0.26351 0.883487 0.296495 0.217618 
0.68211 0.282103 0.638623 0.457366 0.949042 
0.294211 0.910406 0.805925 0.907003 0.629612 
0.171605 0.309791 0.885424 0.245349 0.260673 
0.898086 0.609923 0.268619 0.237447 0.825879 
0.661712 0.091259 0.427877 0.383004 0.709604 
0.966203 0.0788454 0.288014 0.386609 0.368371 
0.405789 0.0285697 0.84319 0.485667 0.733346 
0.765018 0.43435 0.12338 0.181725 0.195362 
0.259368 0.88921 0.141268 0.125508 0.40224 
0.811385 0.00100426 0.573743 0.621912 0.845102 
0.748886 0.973267 0.933689 0.158793 0.766979 
0.0152999 0.24449 0.524003 0.674702 0.757284 
0.531383 0.942779 0.285428 0.0462968 0.499361 
0.242965 0.997155 0.608388 0.256386 0.311094 
0.022138 0.630775 0.873084 0.315535 0.3321 
0.555943 0.537244 0.494619 0.768955 0.627194 
0.950399 0.536757 0.662198 0.219413 0.639953 
0.085458 0.348168 0.178325 0.429278 0.444989 
0.465534 0.224476 0.114662 0.73837 0.953942 
0.177951 0.498567 0.741623 0.149889 0.95449 
0.19085 0.301712 0.313789 0.107391 0.385663 
0.941185 0.781918 0.423996 0.512958 0.593185 
0.602454 0.19231 0.233127 0.0890502 0.760762 
0.528345 0.556778 0.734914 0.740876 0.453642 
0.121978 0.773092 0.0392767 0.46941 0.667076 
0.623936 0.918266 0.456887 0.366473 0.073786 
0.700244 0.606798 0.317652 0.337511 0.332413 
0.284448 0.0112272 0.510535 0.133917 0.181504 
0.507571 0.753608 0.340507 0.722028 0.904904 
0.573799 0.059524 0.543896 0.665967 0.546915 
0.410941 0.485833 0.0755041 0.0494509 0.85089 
0.121241 0.183527 0.175619 0.220925 0.895838 
0.792685 0.72624 0.665214 0.313938 0.0362196 
0.598588 0.664675 0.115909 0.561498 0.495616 
0.721189 0.397671 0.373377 0.374202 0.91597 
0.131827 0.729832 0.909181 0.167371 0.0324555 
0.103951 0.889545 0.21 0.51518 0.158535 
0.93587 0.356899 0.0657655 0.638927 0.625935 
0.788784 0.306173 0.710603 0.346028 0.701864 
0.284619 0.775922 0.0914676 0.379002 0.719089 
0.397982 0.371008 0.410739 0.620381 0.72109 
0.87863 0.800848 0.579608 0.409357 0.937961 
0.993457 0.855159 0.349695 0.0756151 0.719498 
0.777538 0.271627 0.674193 0.900344 0.330484 
0.986556 0.38473 0.314881 0.844276 0.283729 
0.00675165 0.818877 0.485443 0.661633 0.894172 
0.520057 0.462568 0.00811299 0.618144 0.860383 
0.387556 0.971767 0.805772 0.63368 0.436546 
0.938175 0.270481 0.163018 0.687447 0.975484 
0.0143111 0.582132 0.542453 0.776629 0.195954 
0.855474 0.403031 0.619706 0.294929 0.331487 
0.902469 0.575766 0.641819 0.282711 0.210164 
0.254531 0.0837007 0.0268245 0.550938 0.14585 
0.690286 0.900819 0.918147 0.780014 0.0909031 
0.398219 0.221315 0.0892355 0.733468 0.877143 
0.0682225 0.0114314 0.157637 0.382566 0.713609 
0.203893 0.710783 0.492451 0.397575 0.332341 
0.696169 0.00195396 0.419644 0.500204 0.200531 
0.857684 0.460965 0.211381 0.382713 0.910876 
0.0189588 0.41134 0.291431 0.601607 0.175453 
0.415616 0.351928 0.947042 0.0745248 0.833169 
0.0654647 0.0329092 0.0405923 0.944657 0.0729308 
0.0143018 0.084147 0.216761 0.470263 0.908007 
0.0945345 0.516128 0.372604 0.154317 0.732245 
0.162509 0.606221 0.678749 0.464922 0.904414 
0.235709 0.506879 0.249908 0.694621 0.485115 
0.954981 0.543365 0.100784 0.0498316 0.761457 
0.700649 0.933021 0.754471 0.35521 0.0914638 
0.68549 0.364045 0.92704 0.492865 0.424415 
0.904523 0.193167 0.15275 0.514844 0.896056 
0.890395 0.854225 0.0565646 0.690063 0.150574 
0.356792 0.710396 0.348682 0.89427 0.711497 
0.239667 0.602033 0.0580363 0.917519 0.88534 
0.740254 0.21572 0.622438 0.86383 0.0811674 
0.673451 0.803773 0.581534 0.0789551 0.567869 
0.764908 0.478658 0.591387 0.123125 0.184124 
0.701372 0.239929 0.934773 0.543767 0.860289 
0.0683127 0.73305 0.737902 0.695433 0.883466 
0.138503 0.396042 0.828496 0.076535 0.927291 
0.125907 0.721257 0.51886 0.901389 0.831696 
0.311998 0.433765 0.164861 0.278874 0.690708 
0.162484 0.559093 0.130625 0.397502 0.159283 
0.42608 0.0518932 0.467999 0.270878 0.0410245 
0.865367 0.0571115 0.0491532 0.689586 0.97506 
0.0113246 0.416449 0.311247 0.634104 0.985627 
0.279971 0.00122706 0.565869 0.103393 0.803155 
0.996243 0.135674 0.895828 0.446628 0.767275 
0.366196 0.0753504 0.243833 0.691013 0.472538 
0.859461 0.389044 0.663042 0.886055 0.280242 
0.830894 0.279246 0.656791 0.122625 0.713711 
0.93527 0.413574 0.107965 0.99739 0.21534 
0.466227 0.28321 0.305694 0.461446 0.721162 
0.802296 0.526643 0.619621 0.205453 0.60873 
0.104192 0.10826 0.0680483 0.463481 0.470088 
0.249925 0.357633 0.444611 0.429878 0.351296 
0.578564 0.354756 0.560119 0.850887 0.495457 
0.778574 0.659969 0.183601 0.801809 0.354825 
0.426844 0.0413255 0.0232215 0.497599 0.712616 
0.51935 0.171791 0.0231399 0.139386 0.845375 
0.541872 0.425804 0.717247 0.706337 0.383467 
0.484291 0.0495409 0.898624 0.351724 0.0122254 
0.204864 0.610475 0.426019 0.114916 0.479032 
0.659199 0.90433 0.94141 0.29875 0.0947096 
0.74279 0.770984 0.358505 0.141303 0.0405636 
0.392683 0.846995 0.926284 0.464738 0.86485 
0.984123 0.00193009 0.976857 0.119387 0.709832 
0.469112 0.170597 0.481495 0.995347 0.575825 
0.912344 0.232604 0.0602349 0.0970949 0.336894 
0.56538 0.728016 0.147169 0.72372 0.49027 
0.580542 0.219979 0.792206 0.162857 0.339935 
0.824685 0.185727 0.166421 0.594757 0.721182 
0.380721 0.575572 0.908311 0.241194 0.864191 
0.0644766 0.965212 0.810148 0.491494 0.940634 
0.777724 0.139834 0.775398 0.141755 0.198084 
0.756208 0.41745 0.446231 0.33575 0.35279 
0.0744962 0.936483 0.858357 0.835781 0.739851 
0.669635 0.478545 0.748686 0.224329 0.847842 
0.616257 0.426713 0.417954 0.721274 0.285419 
0.930389 0.197775 0.933641 0.424959 0.573756 
0.896732 0.843313 0.587712 0.360007 0.736707 
0.801646 0.339282 0.634804 0.737699 0.306481 
0.836318 0.890524 0.647276 0.0374779 0.729424 
0.525075 0.927662 0.612884 0.743308 0.900019 
0.829227 0.707591 0.557751 0.956676 0.493705 
0.184819 0.64625 0.596443 0.92074 0.0343628 
0.70096 0.890013 0.55819 0.822211 0.682323 
0.733272 0.566523 0.00768674 0.794849 0.605153 
0.958951 0.425068 0.735267 0.126682 0.419405 
0.712859 0.157685 0.769326 0.800874 0.911405 
0.224203 0.145334 0.2651 0.323559 0.0853985 
0.675485 0.011541 0.603274 0.867659 0.954027 
0.76286 0.921141 0.211489 0.380643 0.625561 
0.411245 0.572022 0.0158708 0.814051 0.825216 
0.565828 0.459954 0.729875 0.20144 0.634792 
0.251225 0.377697 0.638153 0.964527 0.0325861 
0.368005 0.566573 0.559142 0.0704232 0.346483 
0.823379 0.185125 0.499221 0.881331 0.997359 
0.540455 0.275084 0.18497 0.850978 0.125825 
0.907423 0.185367 0.857548 0.506934 0.763019 
0.915925 0.0354511 0.426233 0.181367 0.0815347 
0.671857 0.452633 0.853298 0.0508856 0.472731 
0.205042 0.831916 0.87859 0.71346 0.550841 
0.322423 0.0672542 0.152573 0.568202 0.644096 
0.606997 0.905542 0.490545 0.111569 0.48344 
0.636717 0.897532 0.588728 0.414423 0.125362 
0.961711 0.118584 0.0581279 0.666821 0.169406 
0.519216 0.525503 0.953971 0.756162 0.433405 
0.285476 0.403784 0.214339 0.813652 0.0373613 
0.206038 0.505739 0.588039 0.984976 0.186754 
0.623448 0.264781 0.559217 0.0236411 0.399556 
0.247874 0.682824 0.684799 0.964463 0.232692 
0.494618 0.669106 0.0182332 0.650206 0.583925 
0.724321 0.29359 0.672334 0.00133716 0.323636 
0.265266 0.796744 0.639191 0.55156 0.183862 
0.548958 0.386835 0.227266 0.450155 0.857706 
0.573267 0.95579 0.464795 0.660707 0.0224023 
0.223439 0.232034 0.873035 0.269513 0.384774 
0.764447 0.170663 0.115195 0.39402 0.700872 
0.175547 0.589515 0.979805 0.899676 0.544603 
0.793408 0.234991 0.990719 0.100249 0.567984 
0.625725 0.635115 0.373057 0.23925 0.236385 
0.824423 0.156232 0.108798 0.45764 0.900788 
0.792568 0.562321 0.577351 0.296714 0.378495 
0.639677 0.868066 0.232385 0.936022 0.723731 
0.85072 0.735901 0.780277 0.20741 0.331447 
0.290331 0.694414 0.836734 0.47493 0.629048 
0.715451 0.642824 0.406702 0.990031 0.691732 
0.842857 0.82389 0.633725 0.17381 0.437191 
0.316051 0.850132 0.384452 0.116714 0.848455 
0.936298 0.177249 0.733703 0.818237 0.00200982 
0.0873228 0.736719 0.39945 0.59257 0.212563 
0.36246 0.95786 0.830276 0.655663 0.455718 
0.886847 0.309469 0.836578 0.403572 0.976881 
0.85665 0.0766042 0.463934 0.935475 0.666553 
0.388537 0.74754 0.944876 0.367681 0.180081 
0.107985 0.80674 0.18415 0.622511 0.933024 
0.932711 0.477074 0.43574 0.921555 0.0191006 
0.748128 0.396683 0.714473 0.75986 0.809028 
0.698975 0.837014 0.322085 0.415405 0.942227 
0.982147 0.986005 0.55844 0.568351 0.0291314 
0.878182 0.629834 0.917487 0.89207 0.639367 
0.518555 0.928792 0.0649502 0.890334 0.943754 
0.0766637 0.144676 0.109991 0.335693 0.0637286 
0.0459992 0.228783 0.105333 0.577313 0.479807 
0.548163 0.293554 0.311067 0.327529 0.494969 
0.982222 0.249522 0.478398 0.822544 0.108801 
0.495346 0.0210147 0.586772 0.712394 0.682078 
0.00225568 0.898951 0.580928 0.947035 0.534519 
0.782281 0.493318 0.254606 0.369053 0.560844 
0.222476 0.277369 0.645703 0.285875 0.316873 
0.535197 0.749831 0.433444 0.754186 0.775207 
0.613696 0.0476807 0.899454 0.909401 0.0393764 
0.493675 0.712115 0.334495 0.299284 0.38275 
0.242911 0.728652 0.660599 0.0477299 0.998244 
0.746067 0.917236 0.0371454 0.111462 0.575542 
0.349938 0.558336 0.113797 0.870243 0.690501 
0.518659 0.649317 0.872205 0.571856 0.692936 
0.343685 0.82782 0.893699 0.755609 0.691651 
0.0765724 0.303325 0.473922 0.215668 0.419744 
0.131088 0.207257 0.279065 0.384821 0.742948 
0.143524 0.598407 0.560257 0.0547601 0.14756 
0.0837093 0.727674 0.540425 0.0769727 0.200638 
0.0585557 0.37678 0.552016 0.89737 0.63766 
0.234494 0.634422 0.980512 0.946261 0.427828 
0.732561 0.458156 0.497546 0.289582 0.438426 
0.913865 0.745977 0.993867 0.515726 0.503231 
0.329928 0.213467 0.298399 0.366958 0.647975 
0.200086 0.179752 0.18068 0.599871 0.560802 
0.714036 0.0090581 0.102062 0.925562 0.38085 
0.79728 0.272112 0.910092 0.523304 0.983882 
0.0328937 0.410356 0.92871 0.718948 0.811307 
0.701993 0.142504 0.39962 0.123737 0.365513 
0.855172 0.0335726 0.627262 0.409579 0.684835 
0.745173 0.645561 0.695998 0.701985 0.387741 
0.884332 0.97112 0.00875397 0.265374 0.918698 
0.358477 0.763525 0.457034 0.30539 0.471947 
0.0504222 0.0993093 0.267249 0.629716 0.132397 
0.0983661 0.408804 0.734239 0.178208 0.760483 
0.971192 0.199175 0.693406 0.93243 0.905794 
0.586893 0.975528 0.817687 0.177179 0.30998 
0.0460928 0.521692 0.964437 0.521838 0.144631 
0.858519 0.53315 0.574521 0.82919 0.796433 
0.542696 0.0282847 0.803156 0.899617 0.15324 
0.606708 0.623087 0.320133 0.12701 0.974952 
0.433163 0.340388 0.438078 0.804583 0.234668 
0.279034 0.661639 0.706956 0.908152 0.517494 
0.280025 0.883524 0.796194 0.635355 0.39599 
0.723285 0.21484 0.890788 0.148726 0.221361 
0.41533 0.13089 0.413662 0.952913 0.465422 
0.647921 0.727667 0.304493 0.887422 0.00962912 
0.334181 0.375981 0.707849 0.845066 0.434213 
0.108762 0.233469 0.350651 0.0688425 0.485205 
0.497791 0.851862 0.245654 0.944872 0.00252673 
0.268089 0.228158 0.0579751 0.107946 0.0356551 
0.928005 0.489939 0.681434 0.0800942 0.0922632 
0.565596 0.292026 0.599898 0.888058 0.250046 
0.187618 0.816052 0.169918 0.839895 0.558596 
