1200 5
0.394511 0.904283 0.203708 0.0132698 0.852724 
0.265171 0.12331 0.006701 0.985792 0.359305 
0.391092 0.633563 0.0367357 0.991047 0.271422 
0.697937 0.784851 0.428298 0.903105 0.919268 
0.0507365 0.945175 0.344192 0.580981 0.0180544 
0.11466 0.764239 0.432586 0.261164 0.360502 
0.793136 0.556329 0.748238 0.386034 0.271239 
0.311514 0.282341 0.151353 0.0168559 0.112857 
0.131905 0.63566 0.880424 0.688538 0.332608 
0.120824 0.582501 0.0918107 0.222325 0.405991 
0.494275 0.249778 0.291789 0.0877359 0.757514 
0.67054 0.325272 0.0181954 0.411236 0.830264 
0.205865 0.81765 0.87505 0.452238 0.76603 
0.909039 0.267114 0.526283 0.625026 0.410088 
0.214753 0.670427 0.203303 0.488442 0.62237 
0.599228 0.407169 0.0412438 0.143339 0.338296 
0.878385 0.21835 0.234079 0.512081 0.608725 
0.882681 0.616874 0.58273 0.658412 0.771079 
0.0296724 0.56512 0.385885 0.490144 0.718074 
0.860796 0.364308 0.49 0.811241 0.510864 
0.317076 0.365554 0.752978 0.904321 0.247998 
0.347611 0.786178 0.123394 0.916691 0.0564887 
0.815749 0.432116 0.997727 0.141747 0.972627 
0.200366 0.98588 0.571942 0.685587 0.344021 
0.406515 0.532455 0.635333 0.904602 0.520139 
0.698299 0.36505 0.513647 0.952709 0.895933 
0.456946 0.456718 0.133913 0.371745 0.378987 
0.983548 0.0853257 0.793022 0.19456 0.956932 
0.646822 0.505669 0.409678 0.0220729 0.508803 
0.57881 0.832691 0.688607 0.940733 0.45953 
0.888186 0.484137 0.603962 0.128572 0.690662 
0.890805 0.504258 0.414743 0.490325 0.936623 
0.606224 0.41724 0.845133 0.110329 0.611283 
0.871248 0.590095 0.445239 0.22806 0.536304 
0.0668491 0.584014 0.0772035 0.387873 0.273738 
0.471056 0.572368 0.413335 0.365637 0.775266 
0.336417 0.346456 0.514958 0.478784 0.567478 
0.994468 0.210074 0.707758 0.00479256 0.729167 
0.325403 0.379256 0.226201 0.999953 0.207272 
0.680107 0.392976 0.387315 0.307858 0.429501 
0.255923 0.137286 0.0672833 0.36709 0.72037 
0.270718 0.0721388 0.780266 0.182729 0.772885 
0.485629 0.48685 0.633918 0.502806 0.265617 
0.362003 0.153469 0.730562 0.791515 0.0985816 
0.0647458 0.747157 0.802512 0.160422 0.931914 
0.761907 0.598334 0.31227 0.110281 0.389431 
0.748646 0.819872 0.839272 0.91028 0.882617 
0.274878 0.406914 0.872442 0.712956 0.48582 
0.0482066 0.910207 0.374468 0.216738 0.616716 
0.023571 0.188461 0.43909 0.902997 0.249891 
0.0509603 0.663266 0.970575 0.937687 0.0529264 
0.475987 0.782135 0.408563 0.176343 0.63231 
0.414626 0.491803 0.825788 0.867089 0.660027 
0.125925 0.324553 0.193307 0.513905 0.458592 
0.456551 0.647657 0.476908 0.366801 0.657642 
0.583942 0.392014 0.86762 0.529205 0.679832 
0.228373 0.726691 0.986405 0.881234 0.733607 
0.574891 0.169677 0.921267 0.835128 0.556813 
0.561146 0.653574 0.282963 0.468717 0.786381 
0.242533 0.0464069 0.201481 0.570623 0.823882 
0.670683 0.249725 0.00496947 0.735488 0.950007 
0.618978 0.429914 0.220433 0.423424 0.104228 
0.762122 0.472289 0.236041 0.593312 0.209106 
0.723464 0.0812391 0.825108 0.312405 0.0372827 
0.884676 0.743641 0.686483 0.564382 0.560339 
0.134973 0.0785279 0.67548 0.84777 0.631092 
0.597259 0.801023 0.301289 0.805302 0.241338 
0.876029 0.496665 0.4475 0.514987 0.511966 
0.0284096 0.307973 0.221962 0.0741427 0.0810071 
0.527835 0.0374155 0.987278 0.101724 0.0945502 
0.58459 0.837892 0.113832 0.0397033 0.724971 
0.932301 0.023804 0.916324 0.877173 0.412888 
0.389011 0.352564 0.972842 0.258992 0.340157 
0.272079 0.260046 0.132728 0.807403 0.10041 
0.855468 0.615142 0.958604 0.085389 0.218243 
0.0640721 0.514881 0.374243 0.129473 0.102187 
0.19396 0.657194 0.0353167 0.939702 0.632135 
0.018776 0.37162 0.911067 0.988617 0.0509405 
0.906401 0.653546 0.0259506 0.833744 0.566053 
0.752613 0.667151 0.389488 0.674587 0.709766 
0.905726 0.0915079 0.561075 0.629189 0.383854 
0.951848 0.034806 0.212335 0.310786 0.936738 
0.0889958 0.554139 0.292818 0.885263 0.861057 
0.475554 0.211148 0.602386 0.909664 0.745178 
0.219195 0.592803 0.27141 0.472643 0.925001 
0.684418 0.995931 0.834632 0.938799 0.901952 
0.264334 0.260802 0.0284473 0.729663 0.11409 
0.186541 0.248526 0.766372 0.919064 0.85197 
0.860874 0.721236 0.524587 0.742992 0.499091 
0.311818 0.739032 0.581364 0.522437 0.936679 
0.448249 0.135393 0.693651 0.041993 0.705227 
0.848584 0.658896 0.296161 0.353077 0.783409 
0.893707 0.493643 0.926805 0.700136 0.22672 
0.521887 0.0603805 0.20317 0.999941 0.828755 
0.493359 0.836558 0.925584 0.293069 0.921617 
0.703335 0.5381 0.194386 0.519474 0.435425 
0.273073 0.419731 0.143224 0.398905 0.167159 
0.81905 0.129989 0.651393 0.333115 0.164694 
0.232972 0.373702 0.0760724 0.21525 0.243815 
0.593677 0.0221913 0.680649 0.131303 0.167012 
0.913003 0.179604 0.281901 0.709706 0.657815 
0.968773 0.572501 0.0986771 0.539845 0.546628 
0.557945 0.520649 0.569933 0.222866 0.844854 
0.119746 0.218176 0.802344 0.96067 0.541808 
0.913022 0.153358 0.777471 0.776287 0.955999 
0.532346 0.449087 0.45378 0.981676 0.774028 
0.820019 0.083067 0.515794 0.0955845 0.0911099 
0.0581969 0.753193 0.867443 0.28624 0.306966 
0.833351 0.538304 0.00586868 0.797334 0.00205841 
0.0643242 0.225681 0.271172 0.510474 0.848237 
0.87293 0.668524 0.845161 0.595495 0.0150377 
0.321495 0.0775065 0.266764 0.220844 0.540244 
0.310272 0.624523 0.652515 0.310053 0.610364 
0.827975 0.350918 0.191183 0.853141 0.138392 
0.723335 0.60701 0.260743 0.713338 0.441947 
0.37838 0.993528 0.625484 0.900113 0.445173 
0.583429 0.410708 0.93023 0.193598 0.306525 
0.304731 0.951686 0.610539 0.328327 0.415573 
0.162053 0.624403 0.242396 0.178296 0.921435 
0.0341658 0.389926 0.994638 0.768328 0.359851 
0.832944 0.611142 0.0712754 0.819744 0.646709 
0.262262 0.397951 0.236035 0.771583 0.0311057 
0.725167 0.824223 0.698184 0.841525 0.331657 
0.495479 0.424832 0.574809 0.696706 0.27524 
0.544359 0.347939 0.200998 0.395121 0.370924 
0.962199 0.468261 0.111939 0.562498 0.16702 
0.656442 0.564836 0.28506 0.665437 0.884357 
0.972857 0.138888 0.878047 0.596371 0.681104 
0.306157 0.693479 0.443293 0.597014 0.860899 
0.305587 0.809756 0.983175 0.52021 0.101666 
0.213827 0.367235 0.910616 0.739623 0.0447641 
0.119586 0.587182 0.134481 0.081634 0.552614 
0.635894 0.886328 0.517029 0.682761 0.152953 
0.131846 0.727663 0.108904 0.519798 0.888849 
0.987237 0.99101 0.166519 0.802792 0.10136 
0.330996 0.28014 0.719972 0.480611 0.699556 
0.537327 0.266429 0.115191 0.388872 0.75887 
0.306431 0.01174 0.701406 0.913772 0.734054 
0.214648 0.897137 0.865066 0.575542 0.78375 
0.157436 0.616878 0.480662 0.362648 0.876938 
0.677312 0.675682 0.790989 0.275932 0.736544 
0.269541 0.249759 0.258942 0.0789768 0.143148 
0.420111 0.427075 0.559918 0.564593 0.269184 
0.527717 0.422827 0.517094 0.36639 0.432716 
0.823878 0.629257 0.85695 0.00602204 0.51036 
0.0353128 0.0148464 0.0842327 0.439494 0.996204 
0.508507 0.538895 0.839318 0.209171 0.327731 
0.601262 0.512828 0.156245 0.495699 0.527284 
0.87313 0.481808 0.500434 0.373947 0.843125 
0.621309 0.293995 0.495535 0.803813 0.375523 
0.0712357 0.764182 0.405824 0.0747686 0.796506 
0.586175 0.0429443 0.630329 0.428841 0.983649 
0.562605 0.483376 0.220952 0.792397 0.776026 
0.493537 0.499457 0.399882 0.909336 0.864203 
0.973723 0.0667928 0.397697 0.288955 0.591201 
0.778971 0.867032 0.266502 0.358298 0.654022 
0.688731 0.227301 0.618675 0.582818 0.134677 
0.997137 0.116878 0.652593 0.381299 0.316582 
0.162791 0.203852 0.0071641 0.977928 0.0202865 
0.0306227 0.891871 0.263965 0.789331 0.436804 
0.522962 0.858773 0.936607 0.405505 0.0420831 
0.044306 0.416835 0.215151 0.0141711 0.374813 
0.0591704 0.819577 0.34344 0.222019 0.467367 
0.579355 0.783137 0.281802 0.736979 0.310328 
0.653415 0.963674 0.885179 0.77235 0.19744 
0.652801 0.116623 0.196887 0.551617 0.363897 
0.554331 0.191358 0.213528 0.142876 0.235764 
0.925879 0.567215 0.133582 0.341528 0.605378 
0.200489 0.284154 0.583582 0.916662 0.298897 
0.774328 0.316571 0.236959 0.326287 0.683631 
0.13337 0.117084 0.620877 0.318011 0.424989 
0.153861 0.938126 0.22016 0.518369 0.384625 
0.630914 0.122194 0.493536 0.686826 0.845321 
0.309138 0.864853 0.681235 0.804038 0.716059 
0.966708 0.00360798 0.990794 0.68623 0.615263 
0.25095 0.176718 0.805256 0.995039 0.721123 
0.409357 0.206395 0.339733 0.420678 0.810182 
0.333635 0.623423 0.97617 0.168037 0.4292 
0.397143 0.68015 0.949662 0.48429 0.458222 
0.822385 0.357398 0.399237 0.817932 9.66412e-05 
0.775868 0.519567 0.723611 0.43009 0.257135 
0.742579 0.788947 0.838524 0.764555 0.729038 
0.302864 0.301267 0.457211 0.33464 0.597389 
0.99179 0.549573 0.566828 0.913138 0.0605063 
0.561438 0.257655 0.867431 0.86115 0.886375 
0.0134236 0.00169136 0.638816 0.381963 0.716793 
0.234485 0.816951 0.657215 0.515641 0.64447 
0.353818 0.552131 0.0418797 0.923437 0.14511 
0.906666 0.422624 0.531311 0.689351 0.760701 
0.408966 0.665249 0.300637 0.426707 0.0252061 
0.578035 0.917773 0.632967 0.869597 0.822564 
0.159006 0.429742 0.8787 0.770967 0.0742826 
0.635065 0.113726 0.537605 0.722951 0.384623 
0.675104 0.945775 0.585854 0.683938 0.0532501 
0.620667 0.401231 0.295106 0.0173554 0.117612 
0.17453 0.266216 0.120986 0.555682 0.337106 
0.18281 0.71797 0.0499912 0.209369 0.177361 
0.678149 0.000188301 0.288438 0.0859557 0.272016 
0.0982807 0.620474 0.14228 0.777491 0.360849 
0.672829 0.731429 0.648159 0.797956 0.435519 
0.144129 0.453206 0.397537 0.503846 0.509776 
0.926524 0.386125 0.787893 0.924086 0.751936 
0.404324 0.249846 0.601116 0.61069 0.580112 
0.0873401 0.380917 0.508685 0.637406 0.33304 
0.166119 0.690532 0.64554 0.500111 0.636567 
0.339979 0.617229 0.453406 0.307818 0.855614 
0.354516 0.485382 0.10647 0.0801006 0.132811 
0.0058972 0.847206 0.876883 0.327032 0.716167 
0.227514 0.527142 0.595171 0.106077 0.399789 
0.633185 0.225745 0.460819 0.241668 0.352332 
0.917196 0.343783 0.467007 0.218357 0.651874 
0.131535 0.559342 0.576045 0.582567 0.568768 
0.606465 0.288149 0.881196 0.136088 0.492181 
0.297259 0.761162 0.560396 0.87395 0.795908 
0.088834 0.27677 0.385485 0.356068 0.954203 
0.103741 0.848273 0.523786 0.115576 0.156302 
0.136871 0.735365 0.131515 0.308268 0.429205 
0.0201376 0.162054 0.0342353 0.796424 0.457179 
0.863459 0.356836 0.952428 0.767662 0.333876 
0.162762 0.00293636 0.937289 0.412301 0.310146 
0.791902 0.96825 0.641831 0.659102 0.780982 
0.26656 0.732049 0.211095 0.258249 0.969501 
0.481033 0.665189 0.898921 0.0567567 0.642969 
0.914067 0.585179 0.455517 0.391775 0.779752 
0.966099 0.729103 0.304401 0.921061 0.254957 
0.861174 0.106518 0.407047 0.67969 0.501527 
0.763841 0.224243 0.757974 0.846479 0.277931 
0.0136062 0.302161 0.302389 0.882334 0.511047 
0.646619 0.243096 0.0362502 0.756809 0.0250001 
0.648204 0.264689 0.132242 0.945743 0.113706 
0.727763 0.394346 0.135785 0.284965 0.536874 
0.209608 0.424068 0.300985 0.039351 0.23422 
0.369397 0.351615 0.651015 0.684916 0.641839 
0.82204 0.000559388 0.788415 0.383533 0.65961 
0.664286 0.805901 0.627068 0.150337 0.745792 
0.831544 0.0391606 0.596362 0.143659 0.728343 
0.159434 0.430919 0.247932 0.156894 0.765423 
0.346969 0.0689248 0.19774 0.086592 0.625419 
0.377852 0.663172 0.98686 0.810509 0.339161 
0.709169 0.133928 0.320396 0.842523 0.639813 
0.00112211 0.986898 0.720684 0.0899095 0.369696 
0.202265 0.39487 0.0803337 0.472512 0.784942 
0.64887 0.295976 0.325469 0.951575 0.659508 
0.394406 0.575508 0.0108022 0.459505 0.393478 
0.259612 0.034363 0.567486 0.169852 0.288982 
0.340138 0.94932 0.758125 0.785927 0.930254 
0.935865 0.700298 0.8466 0.74836 0.834177 
0.957015 0.915551 0.859153 0.514152 0.69452 
0.52102 0.833911 0.349319 0.377123 0.73292 
0.757255 0.343219 0.183215 0.465185 0.138135 
0.722139 0.522863 0.622677 0.828336 0.880616 
0.814372 0.17947 0.749827 0.544264 0.638336 
0.426815 0.844402 0.391884 0.974223 0.979332 
0.144263 0.748689 0.22456 0.0696731 0.911445 
0.999847 0.555666 0.163203 0.854893 0.720708 
0.630159 0.468584 0.660277 0.193201 0.464938 
0.633147 0.886261 0.39514 0.744177 0.228447 
0.948268 0.904366 0.822287 0.0703561 0.0263779 
0.407931 0.832602 0.540771 0.32868 0.199 
0.282449 0.0633998 0.521379 0.0740185 0.810056 
0.403496 0.5149 0.695049 0.696242 0.455347 
0.49881 0.000716596 0.227832 0.147901 0.179163 
0.723606 0.686966 0.509673 0.820602 0.202328 
0.633118 0.0283476 0.0115388 0.65313 0.50819 
0.0722218 0.610392 0.686324 0.130759 0.73194 
0.575607 0.0082612 0.078436 0.392555 0.374714 
0.249997 0.980436 0.980308 0.94434 0.0898313 
0.837334 0.612654 0.313933 0.479579 0.16539 
0.0652016 0.939332 0.946382 0.729873 0.702695 
0.453293 0.172993 0.843905 0.438291 0.989284 
0.562866 0.850616 0.702475 0.501818 0.833651 
0.821163 0.637627 0.534089 0.727181 0.0743567 
0.37475 0.492736 0.776299 0.43762 0.664486 
0.316119 0.137619 0.294703 0.0590144 0.131797 
0.513854 0.521598 0.183442 0.597519 0.815757 
0.769535 0.427163 0.063864 0.697103 0.823741 
0.936056 0.861441 0.601288 0.180733 0.585576 
0.735097 0.36616 0.420298 0.263674 0.0352912 
0.18019 0.765953 0.926325 0.662714 0.0545921 
0.86091 0.0471405 0.369732 0.765093 0.993594 
0.109115 0.320729 0.427923 0.962633 0.339917 
0.30789 0.0895179 0.220912 0.291632 0.331064 
0.272007 0.0404332 0.830657 0.371242 0.519047 
0.506443 0.372839 0.544079 0.579018 0.141733 
0.161991 0.195615 0.653306 0.600846 0.723576 
0.476208 0.554913 0.838505 0.857162 0.510604 
0.704413 0.186543 0.288872 0.817371 0.16806 
0.136271 0.602217 0.438133 0.26799 0.99274 
0.933726 0.788715 0.0926739 0.569051 0.349769 
0.106987 0.442765 0.866081 0.840378 0.900131 
0.0553091 0.343368 0.995647 0.0404854 0.898446 
0.283426 0.790871 0.391919 0.133718 0.0486788 
0.716717 0.0821103 0.0277798 0.00457323 0.0559699 
0.550484 0.302333 0.198257 0.212849 0.31812 
0.261639 0.676882 0.993987 0.123848 0.00329856 
0.265942 0.631808 0.683664 0.708724 0.609858 
0.0577068 0.97332 0.490524 0.441259 0.141724 
0.964354 0.600772 0.150249 0.0848496 0.455811 
0.13347 0.673616 0.325445 0.324434 0.655946 
0.582562 0.361419 0.216876 0.134621 0.120498 
0.748521 0.553104 0.349063 0.602434 0.743022 
0.368252 0.0158703 0.34672 0.206591 0.598009 
0.743494 0.424942 0.641401 0.884224 0.450666 
0.199143 0.603124 0.662934 0.122519 0.602156 
0.246146 0.800954 0.359396 0.778719 0.63313 
0.537939 0.588334 0.841546 0.206263 0.606361 
0.457279 0.131164 0.918498 0.0810928 0.144044 
0.124495 0.110116 0.362754 0.863477 0.996186 
0.243277 0.986433 0.877278 0.0220041 0.468602 
0.943163 0.98693 0.864591 0.0893043 0.672227 
0.620519 0.195374 0.895201 0.955171 0.147287 
0.812386 0.840116 0.778602 0.713123 0.914416 
0.626563 0.800279 0.903494 0.160295 0.469996 
0.884696 0.874262 0.935222 0.0274982 0.224354 
0.5327 0.964774 0.198289 0.932678 0.0879451 
0.534977 0.350616 0.129794 0.469489 0.558888 
0.2874 0.354402 0.125473 0.333165 0.213035 
0.294041 0.433107 0.0979186 0.396688 0.249339 
0.043904 0.58577 0.724017 0.867757 0.971841 
0.953299 0.588151 0.139686 0.132771 0.9833 
0.684004 0.156439 0.0369867 0.40034 0.365544 
0.903246 0.835853 0.0573774 0.106793 0.446165 
0.126783 0.68734 0.975821 0.335618 0.0791612 
0.0837918 0.276813 0.230547 0.197468 0.821874 
0.882409 0.461655 0.958588 0.144373 0.575303 
0.193603 0.719523 0.577556 0.392688 0.914049 
0.508894 0.47024 0.482184 0.148857 0.594999 
0.69472 0.201841 0.947401 0.965958 0.726311 
0.255789 0.978029 0.558025 0.256728 0.748027 
0.741008 0.279027 0.901177 0.587216 0.755824 
0.780717 0.534644 0.558697 0.371252 0.475303 
0.803804 0.330918 0.876542 0.571158 0.460026 
0.829155 0.897436 0.128328 0.353926 0.350831 
0.733941 0.847321 0.651376 0.387925 0.185394 
0.64731 0.117009 0.418096 0.418771 0.65532 
0.110421 0.0202837 0.375018 0.504812 0.287706 
0.865004 0.491118 0.253242 0.414517 0.374258 
0.924774 0.989345 0.836117 0.540017 0.493268 
0.649015 0.422254 0.468874 0.770415 0.36767 
0.267132 0.135576 0.888734 0.626718 0.648612 
0.821989 0.770898 0.0447698 0.622826 0.089384 
0.178885 0.27362 0.116554 0.542035 0.195158 
0.6765 0.458665 0.583582 0.108929 0.135069 
0.560479 0.610408 0.527345 0.0014499 0.0406851 
0.701439 0.0887115 0.437574 0.783838 0.0696013 
0.548775 0.44515 0.191901 0.152879 0.462811 
0.584801 0.270621 0.175725 0.0835057 0.45478 
0.938812 0.885803 0.251448 0.0269511 0.0518309 
0.112279 0.671672 0.240909 0.690054 0.115767 
0.199916 0.226359 0.801768 0.331541 0.770311 
0.470965 0.708134 0.380891 0.989942 0.863296 
0.124021 0.221659 0.880345 0.996786 0.446217 
0.910005 0.827977 0.95383 0.532757 0.17746 
0.270013 0.772938 0.684186 0.841546 0.305811 
0.251247 0.00442244 0.444743 0.351904 0.387013 
0.0599757 0.591054 0.770045 0.382258 0.760691 
0.943913 0.105685 0.623244 0.690811 0.536319 
0.517998 0.895314 0.598325 0.45264 0.498917 
0.537167 0.0445781 0.183415 0.887384 0.918962 
0.95355 0.55793 0.861485 0.418118 0.465531 
0.387974 0.769417 0.930253 0.337132 0.584662 
0.0378366 0.595933 0.0614737 0.908551 0.409362 
0.769935 0.313104 0.876503 0.819523 0.249105 
0.454023 0.523085 0.811413 0.663556 0.289616 
0.19369 0.750747 0.219462 0.301961 0.850274 
0.654835 0.789323 0.00557588 0.776592 0.11972 
0.815826 0.881777 0.384198 0.0669151 0.723613 
0.534035 0.45129 0.23082 0.421128 0.686146 
0.849554 0.288257 0.867136 0.567244 0.998623 
0.142194 0.780171 0.684029 0.847064 0.561141 
0.178894 0.48961 0.951622 0.672596 0.260375 
0.757446 0.877339 0.538011 0.612089 0.910716 
0.436734 0.712099 0.147961 0.631386 0.563656 
0.649589 0.772516 0.211094 0.705479 0.497369 
0.327354 0.23892 0.286686 0.713863 0.968935 
0.833437 0.452945 0.584169 0.263385 0.363207 
0.349012 0.755313 0.728379 0.0109587 0.302529 
0.28297 0.544125 0.546594 0.587976 0.878609 
0.947096 0.323926 0.453132 0.625141 0.561941 
0.139048 0.101993 0.744404 0.198048 0.559516 
0.652208 0.423013 0.458609 0.0923842 0.201553 
0.058899 0.131387 0.214331 0.641448 0.576278 
0.421239 0.519041 0.412517 0.347031 0.397 
0.00443454 0.532431 0.305707 0.417731 0.922856 
0.701999 0.708076 0.475464 0.678483 0.955229 
0.789997 0.384203 0.381627 0.634515 0.493163 
0.419647 0.136058 0.721149 0.24221 0.231557 
0.0779281 0.712733 0.789328 0.550472 0.0107846 
0.784712 0.530382 0.747851 0.552355 0.286417 
0.562338 0.798613 0.807488 0.970719 0.530875 
0.084415 0.0171764 0.615642 0.668861 0.144372 
0.25924 0.981788 0.605016 0.584707 0.597554 
0.964911 0.809759 0.231365 0.995917 0.255039 
0.274254 0.213408 0.940847 0.207304 0.841459 
0.874769 0.0334821 0.666653 0.283071 0.608998 
0.380955 0.353099 0.0234449 0.407999 0.451488 
0.0576808 0.910057 0.741118 0.0264071 0.131565 
0.987481 0.504934 0.340093 0.755688 0.0997955 
0.731594 0.910756 0.961611 0.263581 0.858624 
0.995648 0.587305 0.665672 0.469517 0.0112892 
0.818379 0.392099 0.707104 0.0145856 0.564204 
0.245713 0.306086 0.347065 0.491142 0.545095 
0.643248 0.219846 0.201509 0.730422 0.454873 
0.795497 0.0663569 0.122091 0.948219 0.877142 
0.652408 0.307636 0.329184 0.0674229 0.0862493 
0.204128 0.804309 0.656766 0.27474 0.419046 
0.335348 0.0505375 0.248601 0.230516 0.397978 
0.153816 0.395928 0.107088 0.500721 0.381951 
0.21972 0.0683489 0.359338 0.878711 0.258597 
0.852272 0.51892 0.166484 0.00160951 0.0532282 
0.948051 0.495172 0.791422 0.0311796 0.933609 
0.646205 0.0328504 0.644102 0.591057 0.0440286 
0.91944 0.0370441 0.70926 0.238017 0.0196252 
0.520449 0.101618 0.661913 0.10761 0.468767 
0.121245 0.950031 0.5896 0.0809835 0.338482 
0.613969 0.0878339 0.976918 0.344059 0.0663246 
0.035127 0.748704 0.705723 0.283155 0.362632 
0.407504 0.152663 0.841212 0.283565 0.583204 
0.553837 0.33052 0.827837 0.0975697 0.183224 
0.984305 0.235339 0.640866 0.659355 0.991583 
0.250724 0.0641643 0.555885 0.769354 0.13457 
0.999584 0.921928 0.949057 0.511235 0.535077 
0.0794275 0.943032 0.200987 0.856221 0.592844 
0.395706 0.0280398 0.890141 0.113624 0.994434 
0.337857 0.444718 0.214615 0.0160248 0.804974 
0.639915 0.0993972 0.469015 0.40119 0.370396 
0.0249641 0.400633 0.866107 0.183749 0.763406 
0.750645 0.193335 0.280166 0.669278 0.696797 
0.624072 0.106752 0.0220715 0.541935 0.472681 
0.0112899 0.456317 0.549092 0.482797 0.366969 
0.568938 0.556208 0.331693 0.121578 0.403339 
0.323647 0.768082 0.6936 0.840739 0.791379 
0.516107 0.573148 0.191408 0.576213 0.639474 
0.37898 0.1834 0.474055 0.15377 0.53675 
0.36085 0.149612 0.0493947 0.860656 0.209293 
0.814544 0.469796 0.496363 0.959011 0.465033 
0.487591 0.470963 0.531521 0.741405 0.933682 
0.888087 0.48408 0.191741 0.620078 0.0798029 
0.552487 0.831108 0.805582 0.840524 0.716852 
0.572907 0.952071 0.751651 0.890173 0.733907 
0.0429855 0.577851 0.0733299 0.428814 0.350893 
0.713135 0.326545 0.50206 0.152935 0.199209 
0.866648 0.437893 0.356867 0.477851 0.773363 
0.554493 0.249235 0.217022 0.436416 0.0768245 
0.219613 0.171844 0.120595 0.393208 0.590009 
0.237288 0.714143 0.00554259 0.659682 0.180441 
0.384589 0.0720043 0.0408782 0.68431 0.54306 
0.93614 0.921544 0.447424 0.0436643 0.256273 
0.793689 0.991543 0.988001 0.929002 0.637865 
0.541332 0.619309 0.615153 0.513889 0.478146 
0.214853 0.935913 0.319191 0.130774 0.297735 
0.639229 0.687307 0.539069 0.932284 0.261867 
0.350968 0.842765 0.238444 0.0382615 0.33321 
0.535554 0.558503 0.559709 0.348621 0.411072 
0.705175 0.91815 0.698134 0.373757 0.369899 
0.674621 0.837833 0.0437661 0.0406622 0.328697 
0.396026 0.215789 0.239746 0.763109 0.463237 
0.241384 0.848689 0.831038 0.655703 0.161826 
0.551627 0.0558419 0.696969 0.639367 0.79142 
0.604824 0.461093 0.815 0.631714 0.947735 
0.219117 0.679013 0.78227 0.994816 0.187779 
0.653364 0.154477 0.116071 0.555483 0.626305 
0.852028 0.924601 0.746139 0.118459 0.993584 
0.693623 0.601332 0.943162 0.0711101 0.456022 
0.495137 0.28409 0.873134 0.278539 0.787867 
0.782791 0.880584 0.679549 0.608932 0.204052 
0.7778 0.0139667 0.265361 0.0308535 0.566629 
0.897197 0.199762 0.369898 0.231263 0.845394 
0.283985 0.786507 0.614256 0.421058 0.00688317 
0.67892 0.443514 0.601764 0.394966 0.661074 
0.562483 0.954866 0.987211 0.286429 0.133812 
0.398627 0.0270832 0.459782 0.55677 0.26607 
0.000478021 0.30709 0.83844 0.373675 0.310391 
0.811204 0.722227 0.353709 0.95068 0.961216 
0.0772545 0.922013 0.0129086 0.00168193 0.230472 
0.642047 0.160803 0.519181 0.891054 0.679838 
0.20391 0.866239 0.0176594 0.32112 0.408659 
0.61019 0.0831492 0.696001 0.964251 0.948428 
0.627766 0.430707 0.31853 0.865173 0.0733729 
0.626003 0.905665 0.823945 0.41303 0.55179 
0.0812713 0.702671 0.308398 0.640254 0.411088 
0.730805 0.326489 0.466903 0.632954 0.31778 
0.433113 0.505575 0.667833 0.591106 0.218211 
0.673996 0.859115 0.948918 0.97924 0.112561 
0.479873 0.581904 0.380245 0.539913 0.349932 
0.370202 0.0397906 0.71078 0.807987 0.676658 
0.868819 0.848368 0.32787 0.13903 0.188504 
0.412772 0.139135 0.669593 0.798597 0.171637 
0.954749 0.407153 0.775597 0.636362 0.0327012 
0.0730909 0.665351 0.216938 0.525754 0.51586 
0.944938 0.319852 0.375581 0.988013 0.392524 
0.351844 0.246378 0.114613 0.0889861 0.546516 
0.089565 0.717361 0.6663 0.385093 0.314573 
0.61054 0.962683 0.491549 0.117308 0.522266 
0.0616979 0.681526 0.887311 0.0143916 0.0268024 
0.0902786 0.776404 0.206785 0.397698 0.574889 
0.505333 0.126476 0.932859 0.7984 0.0989267 
0.893701 0.141564 0.309517 0.0102583 0.676288 
0.552622 0.993842 0.290201 0.597616 0.614654 
0.194839 0.956018 0.434672 0.22416 0.989715 
0.460314 0.0399698 0.132828 0.751374 0.244386 
0.949241 0.766772 0.50201 0.297365 0.689877 
0.0483982 0.259233 0.251177 0.512436 0.283279 
0.0137719 0.644631 0.314512 0.0379762 0.361274 
0.979635 0.0120272 0.570965 0.00762905 0.28539 
0.733174 0.470343 0.980711 0.529434 0.72063 
0.315489 0.648152 0.0040639 0.156396 0.345153 
0.969452 0.459311 0.559702 0.826349 0.90834 
0.532144 0.0633831 0.542478 0.37587 0.685516 
0.0182833 0.247896 0.25798 0.912949 0.139886 
0.992827 0.598187 0.934465 0.166666 0.475341 
0.21016 0.87302 0.166345 0.376283 0.976604 
0.85689 0.493101 0.235812 0.108882 0.507813 
0.751921 0.900291 0.347504 0.0671344 0.711112 
0.700609 0.238393 0.211873 0.570494 0.715653 
0.7534 0.28023 0.0710572 0.343034 0.660343 
0.243446 0.879584 0.887826 0.0290853 0.00766772 
0.0326841 0.67862 0.512092 0.0580306 0.027274 
0.404826 0.71475 0.546532 0.616321 0.0224171 
0.856845 0.965304 0.110629 0.182391 0.524027 
0.345526 0.861769 0.433482 0.839305 0.372648 
0.315492 0.582876 0.306891 0.691001 0.477433 
0.35792 0.167962 0.392778 0.200107 0.494754 
0.974605 0.114137 0.776752 0.910954 0.886848 
0.330921 0.413087 0.133837 0.188355 0.808818 
0.60402 0.48892 0.171781 0.439229 0.747469 
0.188646 0.423974 0.092997 0.0501204 0.854175 
0.0337785 0.416827 0.00981266 0.187386 0.521141 
0.031824 0.246852 0.293415 0.0177045 0.822469 
0.117188 0.662034 0.797611 0.844075 0.482661 
0.578092 0.259863 0.314124 0.244853 0.181219 
0.623133 0.530643 0.465373 0.494965 0.529717 
0.486994 0.94207 0.33209 0.698881 0.302304 
0.314648 0.978566 0.40249 0.377602 0.583179 
0.0982923 0.708041 0.979053 0.656841 0.74575 
0.875324 0.967914 0.13376 0.159385 0.19351 
0.930532 0.778794 0.0157261 0.290729 0.168227 
0.707366 0.386847 0.804974 0.0502715 0.379974 
0.947323 0.240721 0.115684 0.131825 0.337688 
0.293586 0.360089 0.972244 0.0700319 0.424708 
0.156128 0.687174 0.295434 0.584067 0.762124 
0.275753 0.614606 0.428751 0.300875 0.042829 
0.063918 0.725548 0.181482 0.214838 0.752941 
0.219136 0.204434 0.185104 0.758414 0.904517 
0.863994 0.398428 0.94668 0.98996 0.834454 
0.0251567 0.478903 0.446916 0.334286 0.32898 
0.390723 0.419904 0.33657 0.40286 0.843171 
0.933031 0.937851 0.571576 0.873429 0.557003 
0.0891635 0.63374 0.912619 0.33598 0.526206 
0.252778 0.792927 0.448011 0.903378 0.864176 
0.342006 0.379884 0.0974947 0.645895 0.265629 
0.575304 0.630759 0.179093 0.481375 0.46288 
0.957974 0.721294 0.582673 0.107955 0.0896953 
0.167383 0.964167 0.350817 0.260545 0.227541 
0.670608 0.816271 0.511756 0.219496 0.134515 
0.426256 0.122825 0.43395 0.795588 0.0956158 
0.853915 0.669632 0.0241007 0.79086 0.0651037 
0.40254 0.439757 0.0193424 0.10131 0.386078 
0.901165 0.784398 0.38903 0.991216 0.969399 
0.584154 0.753465 0.134775 0.353228 0.792741 
0.616324 0.72832 0.130557 0.400564 0.322977 
0.695142 0.695387 0.502234 0.233154 0.082455 
0.310471 0.0666513 0.982909 0.515738 0.380194 
0.489245 0.634764 0.87976 0.10419 0.711072 
0.0376555 0.818024 0.901649 0.215642 0.363174 
0.0855296 0.233584 0.367168 0.0793698 0.881868 
0.710868 0.312351 0.202916 0.341154 0.343587 
0.160125 0.703581 0.894791 0.746897 0.370243 
0.613686 0.114575 0.511751 0.727289 0.0495892 
0.749958 0.121797 0.287333 0.056545 0.522383 
0.0932397 0.73616 0.637734 0.582598 0.877618 
0.462198 0.56979 0.000517364 0.153458 0.376303 
0.396404 0.998097 0.536821 0.647461 0.506134 
0.223647 0.179212 0.546302 0.958159 0.786017 
0.962506 0.889866 0.51907 0.729712 0.886162 
0.132078 0.152583 0.0592107 0.829 0.89932 
0.289679 0.568878 0.543957 0.682739 0.135269 
0.0528424 0.880203 0.95052 0.348459 0.364507 
0.667917 0.329038 0.890526 0.152517 0.141498 
0.358634 0.753559 0.699621 0.324153 0.358521 
0.758556 0.994325 0.822209 0.66711 0.458701 
0.520169 0.567041 0.652316 0.577256 0.471189 
0.53019 0.0160405 0.812343 0.288511 0.999374 
0.625477 0.655599 0.957201 0.670762 0.621594 
0.583493 0.615549 0.991526 0.414799 0.823788 
0.23612 0.63955 0.20092 0.386375 0.62304 
0.567521 0.349796 0.1674 0.177076 0.133917 
0.22167 0.363705 0.726451 0.638119 0.52832 
0.848113 0.1717 0.337763 0.263719 0.207961 
0.783639 0.105332 0.918485 0.689851 0.754142 
0.751629 0.359387 0.30652 0.307101 0.381029 
0.741235 0.841232 0.945884 0.111851 0.529288 
0.311488 0.4331 0.911425 0.0976934 0.0494428 
0.690973 0.317191 0.420535 0.806036 0.105866 
0.557455 0.730775 0.432119 0.0378854 0.962645 
0.713779 0.695358 0.359438 0.870818 0.841834 
0.787004 0.0414012 0.478378 0.605213 0.167249 
0.986709 0.769858 0.194775 0.106008 0.777216 
0.342118 0.724572 0.570702 0.12574 0.316641 
0.480651 0.427752 0.962547 0.125723 0.0735408 
0.945512 0.32898 0.889115 0.55578 0.014754 
0.785666 0.522065 0.965287 0.261132 0.238701 
0.755697 0.420515 0.986018 0.861588 0.751513 
0.129779 0.330077 0.0658827 0.161035 0.442974 
0.703042 0.94047 0.140263 0.917458 0.712386 
0.370121 0.681705 0.900001 0.0435532 0.698282 
0.264496 0.834266 0.645463 0.638118 0.915191 
0.167365 0.87922 0.583401 0.847615 0.184051 
0.163603 0.310016 0.00504469 0.778375 0.699974 
0.828303 0.248345 0.351725 0.510836 0.824049 
0.817044 0.346533 0.597197 0.470384 0.887221 
0.616749 0.622156 0.406001 0.35356 0.474393 
0.928648 0.642484 0.615822 0.496937 0.0214876 
0.797185 0.198887 0.999351 0.798316 0.44899 
0.121402 0.768073 0.323291 0.64912 0.186184 
0.0794741 0.712114 0.280324 0.865517 0.653705 
0.63047 0.862284 0.440711 0.703037 0.0671704 
0.674484 0.977537 0.0873452 0.825932 0.346668 
0.544526 0.397317 0.666181 0.527259 0.297861 
0.0760647 0.00939569 0.337071 0.24266 0.0934065 
0.586114 0.843376 0.331168 0.67655 0.58356 
0.121358 0.441305 0.727636 0.238845 0.989603 
0.970332 0.88049 0.657138 0.529669 0.683945 
0.0147273 0.64128 0.240528 0.010775 0.193435 
0.868357 0.535136 0.664833 0.779726 0.789293 
0.858773 0.256132 0.950401 0.568958 0.322257 
0.577956 0.289546 0.295479 0.407712 0.644507 
0.499504 0.734672 0.230585 0.266522 0.787782 
0.394174 0.924123 0.120231 0.0747289 0.0984386 
0.567508 0.932834 0.300383 0.722677 0.115247 
0.0838995 0.823854 0.343933 0.4981 0.831929 
0.684358 0.427953 0.0920265 0.0615154 0.820192 
0.228415 0.348971 0.459941 0.144759 0.45658 
0.903247 0.142051 0.140874 0.352884 0.914452 
0.224974 0.813034 0.73294 0.125838 0.633559 
0.595079 0.0317991 0.719891 0.526934 0.72602 
0.570654 0.233544 0.0700578 0.615405 0.122248 
0.82092 0.580334 0.72847 0.394056 0.450612 
0.540274 0.861398 0.336357 0.553136 0.829286 
0.959852 0.683465 0.825663 0.174138 0.350835 
0.40546 0.217485 0.772982 0.407926 0.852043 
0.230414 0.438695 0.0680886 0.13007 0.0523527 
0.612335 0.0845721 0.441576 0.494555 0.340968 
0.645384 0.0111178 0.688379 0.960633 0.807385 
0.512677 0.177259 0.258569 0.718618 0.0521347 
0.295044 0.948578 0.865027 0.972876 0.179919 
0.82451 0.970342 0.643717 0.857226 0.307423 
0.882403 0.367736 0.38982 0.942057 0.605163 
0.882374 0.478154 0.555557 0.0319061 0.338392 
0.310086 0.454455 0.378332 0.245909 0.956817 
0.783912 0.258477 0.25783 0.0229967 0.821062 
0.906865 0.904405 0.836294 0.270972 0.387897 
0.291185 0.078708 0.694009 0.05528 0.0255451 
0.0331572 0.962052 0.326597 0.134829 0.0324295 
0.568403 0.235427 0.985372 0.179607 0.133583 
0.626033 0.46116 0.71142 0.730369 0.382288 
0.136436 0.914285 0.243877 0.904307 0.752396 
0.762153 0.000369192 0.787429 0.487425 0.735338 
0.532831 0.00764143 0.270171 0.819944 0.883548 
0.770271 0.695322 0.0998153 0.467148 0.678864 
0.99919 0.362145 0.937609 0.0612591 0.339387 
0.705317 0.402109 0.946058 0.771874 0.79712 
0.0765339 0.69621 0.364243 0.0591102 0.950375 
0.0469011 0.384573 0.24671 0.216103 0.326466 
0.748841 0.507218 0.660976 0.983068 0.704877 
0.681536 0.118514 0.245095 0.561483 0.219636 
0.849828 0.237598 0.555563 0.523343 0.251526 
0.295792 0.89917 0.149757 0.161284 0.2344 
0.198866 0.059454 0.70879 0.658127 0.34972 
0.232156 0.0761412 0.347201 0.708725 0.00320556 
0.241069 0.337767 0.22021 0.153485 0.939877 
0.796189 0.521987 0.753746 0.348765 0.511363 
0.732824 0.97272 0.359741 0.132387 0.760414 
0.578792 0.779628 0.272599 0.521028 0.78331 
0.119714 0.994282 0.886757 0.896832 0.693979 
0.541574 0.820915 0.42256 0.860723 0.357203 
0.274942 0.1005 0.94904 0.969545 0.263556 
0.629457 0.621726 0.286547 0.191365 0.341416 
0.281997 0.13581 0.89516 0.958178 0.363931 
0.128549 0.366296 0.129357 0.0337171 0.18926 
0.989667 0.4309 0.187525 0.260088 0.192079 
0.692469 0.00263559 0.755158 0.568928 0.590695 
0.116809 0.136043 0.170441 0.680613 0.00395062 
0.531832 0.200212 0.968271 0.532452 0.720457 
0.76216 0.293913 0.493706 0.915966 0.154374 
0.981006 0.329098 0.980243 0.388488 0.761224 
0.656321 0.500302 0.171266 0.611758 0.0699815 
0.572242 0.0597901 0.296174 0.673504 0.883169 
0.558798 0.0530117 0.222098 0.120665 0.916702 
0.412329 0.884038 0.286783 0.0818834 0.29923 
0.343686 0.267278 0.470988 0.296775 0.049642 
0.842822 0.718062 0.513073 0.203213 0.748143 
0.0415577 0.0858722 0.347619 0.549883 0.383863 
0.106828 0.744882 0.146634 0.71744 0.377472 
0.300805 0.960585 0.654771 0.797889 0.325437 
0.863304 0.223771 0.450792 0.37939 0.0315369 
0.913053 0.865153 0.71801 0.563456 0.584557 
0.0592718 0.990349 0.297979 0.300954 0.590278 
0.670626 0.370213 0.509922 0.8082 0.37098 
0.293228 0.380567 0.5824 0.71117 0.83172 
0.493071 0.529262 0.0939474 0.960681 0.528281 
0.254478 0.924237 0.523331 0.667993 0.73234 
0.682323 0.783385 0.0469705 0.780966 0.187491 
0.000630894 0.826996 0.982251 0.836837 0.86522 
0.156257 0.532892 0.137537 0.936422 0.867529 
0.334458 0.0239377 0.775496 0.995008 0.0631393 
0.196315 0.185362 0.0100897 0.296122 0.231071 
0.31339 0.0932863 0.452371 0.778881 0.931666 
0.15302 0.294074 0.292076 0.630203 0.494318 
0.183554 0.46827 0.0732808 0.389286 0.443351 
0.0225621 0.427013 0.617432 0.437503 0.23335 
0.35275 0.960805 0.101074 0.497232 0.490167 
0.587019 0.670126 0.449303 0.698012 0.626621 
0.816863 0.947068 0.261122 0.0729877 0.821091 
0.722236 0.814585 0.58916 0.733974 0.947642 
0.901037 0.490319 0.813931 0.125714 0.896103 
0.238778 0.783878 0.810518 0.766671 0.931603 
0.893587 0.359231 0.532013 0.69743 0.883464 
0.438428 0.572002 0.931552 0.461892 0.94672 
0.815893 0.824049 0.828294 0.958677 0.828555 
0.17638 0.17423 0.512131 0.117624 0.0455358 
0.429246 0.100936 0.262194 0.472661 0.968557 
0.601145 0.935739 0.0507362 0.0823301 0.329507 
0.278614 0.30922 0.0462217 0.539686 0.658301 
0.851107 0.422723 0.149607 0.44973 0.472768 
0.810853 0.413115 0.557074 0.605985 0.428198 
0.315448 0.191436 0.212762 0.980358 0.587065 
0.149388 0.203097 0.579976 0.848459 0.185203 
0.857793 0.391935 0.0256083 0.188419 0.0844254 
0.242577 0.891327 0.0933057 0.123511 0.236573 
0.00858227 0.810859 0.243926 0.967245 0.221654 
0.900396 0.526054 0.737653 0.260303 0.613943 
0.113049 0.914492 0.263752 0.287985 0.0618715 
0.715138 0.88719 0.398582 0.801241 0.663097 
0.285161 0.350209 0.20344 0.754665 0.238004 
0.454997 0.184236 0.801682 0.106744 0.61455 
0.739489 0.577313 0.394416 0.0684531 0.0117922 
0.589531 0.0330809 0.483606 0.516388 0.0973437 
0.581247 0.961613 0.427401 0.983869 0.114118 
0.935542 0.586886 0.769078 0.966537 0.956105 
0.990313 0.0162872 0.52545 0.275968 0.705084 
0.274966 0.950511 0.471007 0.329959 0.537197 
0.809699 0.725 0.573635 0.959419 0.915475 
0.71489 0.685726 0.587281 0.706522 0.472143 
0.537726 0.599263 0.236322 0.0646078 0.67103 
0.820396 0.767925 0.54326 0.0170366 0.356425 
0.276842 0.245539 0.728058 0.113347 0.876572 
0.779901 0.965866 0.683845 0.464146 0.65484 
0.456513 0.929639 0.281214 0.848785 0.790481 
0.602019 0.17813 0.102119 0.773838 0.501293 
0.982102 0.403949 0.40929 0.810476 0.433052 
0.597605 0.616214 0.29156 0.268929 0.384951 
0.667749 0.255837 0.995688 0.53076 0.723838 
0.510777 0.00956037 0.645084 0.749158 0.653812 
0.150313 0.0970303 0.195875 0.562606 0.905776 
0.933521 0.470597 0.0980673 0.889424 0.164158 
0.533131 0.550224 0.879649 0.546793 0.484706 
0.309501 0.958298 0.413258 0.964413 0.605506 
0.926662 0.986764 0.721552 0.259782 0.674806 
0.92239 0.585659 0.144687 0.403561 0.523851 
0.816987 0.96022 0.946763 0.303826 0.43449 
0.120564 0.826671 0.539236 0.505626 0.45868 
0.76014 0.381127 0.978536 0.0472125 0.206151 
0.692451 0.0695702 0.552763 0.18941 0.348781 
0.500935 0.858801 0.0957817 0.738219 0.0839756 
0.139228 0.936387 0.808693 0.659816 0.962136 
0.0529919 0.922155 0.604642 0.257341 0.250794 
0.158177 0.0954724 0.660246 0.646598 0.818097 
0.284938 0.889679 0.110975 0.164202 0.0208703 
0.76603 0.119897 0.0937221 0.230715 0.188251 
0.0476764 0.814475 0.138159 0.184294 0.36242 
0.878112 0.722985 0.790856 0.516389 0.629639 
0.514428 0.755827 0.459918 0.967859 0.184508 
0.823373 0.926973 0.824775 0.54162 0.552878 
0.249843 0.172173 0.133787 0.0748317 0.940604 
0.465365 0.861751 0.29737 0.901737 0.0207786 
0.988988 0.953651 0.727104 0.767272 0.53993 
0.2572 0.550991 0.605828 0.10787 0.145366 
0.0390119 0.570304 0.307803 0.00869947 0.0706876 
0.253347 0.261874 0.744893 0.221953 0.518742 
0.248423 0.831203 0.751124 0.607718 0.518524 
0.556864 0.685758 0.0218867 0.623044 0.3866 
0.978919 0.473383 0.656274 0.894588 0.320686 
0.598833 0.296097 0.656305 0.889197 0.243542 
0.77847 0.00731462 0.443845 0.0422929 0.239595 
0.797511 0.221958 0.272793 0.093675 0.889546 
0.89695 0.95121 0.164866 0.702589 0.527709 
0.983071 0.613934 0.212646 0.542284 0.352846 
0.827265 0.917231 0.460147 0.260907 0.917542 
0.758321 0.715323 0.870042 0.171783 0.581724 
0.67988 0.524261 0.486432 0.638152 0.846215 
0.606632 0.0752002 0.936591 0.335582 0.224855 
0.450281 0.747146 0.649852 0.137134 0.499788 
0.236279 0.327583 0.672115 0.128354 0.247709 
0.952983 0.874259 0.357293 0.712333 0.101601 
0.0210952 0.136861 0.566646 0.49163 0.812979 
0.239119 0.0909167 0.500986 0.786079 0.165348 
0.712878 0.361899 0.190529 0.2873 0.790548 
0.544449 0.161297 0.255587 0.472193 0.711261 
0.867493 0.391089 0.874763 0.619075 0.0713099 
0.617318 0.683874 0.723427 0.873338 0.131922 
0.979261 0.151901 0.31039 0.27427 0.217763 
0.154918 0.98945 0.0026419 0.620265 0.0773561 
0.0100401 0.0749177 0.622934 0.00629564 0.773974 
0.490874 0.783744 0.370872 0.532717 0.275672 
0.119804 0.753797 0.977177 0.866613 0.0605906 
0.732031 0.650427 0.361145 0.548202 0.64281 
0.245378 0.372237 0.425374 0.759525 0.18904 
0.261965 0.114067 0.996808 0.285022 0.313453 
0.498331 0.222622 0.364565 0.724811 0.422959 
0.99523 0.733233 0.728278 0.0140041 0.547087 
0.81417 0.355358 0.94408 0.161868 0.50562 
0.816458 0.789525 0.421953 0.125709 0.490257 
0.280751 0.432531 0.127789 0.085709 0.00951413 
0.517958 0.713657 0.153655 0.620039 0.625305 
0.13704 0.118743 0.34411 0.78936 0.372838 
0.324472 0.48191 0.586256 0.864142 0.0176054 
0.431866 0.776731 0.457627 0.92645 0.409634 
0.459844 0.56635 0.825091 0.330871 0.951958 
0.662979 0.289113 0.442579 0.0346545 0.78834 
0.0842925 0.98393 0.29736 0.64251 0.541068 
0.679464 0.169614 0.993312 0.701399 0.916396 
0.0595408 0.486201 0.0266887 0.974417 0.930512 
0.483253 0.335753 0.100496 0.395284 0.0724196 
0.228731 0.386777 0.839779 0.9089 0.981929 
0.207609 0.500795 0.0605076 0.800757 0.389064 
0.0152379 0.0133168 0.633906 0.862586 0.661809 
0.530354 0.24031 0.211225 0.308192 0.0242072 
0.592633 0.152273 0.0819182 0.807908 0.925354 
0.795912 0.801348 0.449318 0.108896 0.649232 
0.711657 0.237433 0.263549 0.815243 0.982324 
0.528278 0.865248 0.709191 0.338401 0.635367 
0.990062 0.623109 0.229855 0.232737 0.576234 
0.829712 0.335446 0.194199 0.590446 0.311586 
0.551523 0.0941264 0.100245 0.628289 0.307214 
0.98818 0.539777 0.298651 0.358534 0.507484 
0.0247114 0.826865 0.414435 0.0893728 0.923304 
0.126347 0.0779254 0.888122 0.684644 0.286614 
0.703101 0.832171 0.691905 0.122061 0.998247 
0.986892 0.000528618 0.680169 0.731322 0.332361 
0.572633 0.998818 0.112 0.706895 0.178212 
0.467841 0.00276195 0.023255 0.601283 0.431425 
0.47459 0.839816 0.76825 0.0758635 0.037366 
0.058895 0.248781 0.485195 0.525744 0.740679 
0.635628 0.187488 0.943935 0.321306 0.430698 
0.649577 0.166442 0.289226 0.0372247 0.150907 
0.628916 0.717629 0.880292 0.685013 0.948184 
0.701964 0.787256 0.524622 0.117782 0.999908 
0.36348 0.615663 0.00449668 0.10001 0.0291267 
0.463958 0.587239 0.0869697 0.171396 0.416181 
0.420612 0.831957 0.501017 0.0391839 0.658469 
0.156147 0.599054 0.598195 0.103231 0.463328 
0.753589 0.834085 0.296422 0.310775 0.425196 
0.803274 0.951543 0.743678 0.916589 0.844667 
0.176046 0.858499 0.654738 0.369965 0.590944 
0.799761 0.145726 0.415971 0.70991 0.640373 
0.953721 0.139639 0.226521 0.854854 0.661772 
0.0255545 0.838789 0.588957 0.562889 0.941439 
0.395994 0.906396 0.136897 0.0715256 0.125878 
0.951668 0.64568 0.526521 0.891808 0.551155 
0.481284 0.612815 0.101789 0.847032 0.579282 
0.18459 0.272168 0.484938 0.074246 0.0450692 
0.405105 0.125065 0.993741 0.908737 0.925304 
0.817587 0.046401 0.118666 0.585627 0.133157 
0.0159443 0.905985 0.854512 0.433556 0.109654 
0.00113559 0.861623 0.131369 0.975304 0.85711 
0.980399 0.931853 0.956225 0.716277 0.755578 
0.709981 0.340815 0.610982 0.539617 0.745035 
0.260834 0.805701 0.492682 0.35987 0.474977 
0.0201294 0.523078 0.773012 0.0541768 0.723719 
0.102727 0.00791399 0.770235 0.139442 0.212789 
0.759129 0.462237 0.504818 0.60095 0.634648 
0.719394 0.944578 0.087658 0.790777 0.414982 
0.509624 0.180177 0.750312 0.157755 0.0985402 
0.906519 0.672577 0.101281 0.602867 0.31536 
0.0955169 0.916161 0.716624 0.958866 0.0484227 
0.135557 0.901118 0.84499 0.462566 0.883971 
0.698976 0.645554 0.920013 0.367861 0.216946 
0.91469 0.515102 0.691777 0.155898 0.680668 
0.382143 0.834325 0.903102 0.470313 0.282115 
0.620189 0.534076 0.782784 0.946283 0.595631 
0.460634 0.335555 0.528403 0.616107 0.348807 
0.462774 0.803811 0.260075 0.199919 0.059921 
0.12301 0.0830316 0.939002 0.997754 0.967404 
0.414196 0.999885 0.178224 0.678575 0.312181 
0.591089 0.659278 0.969715 0.90204 0.850212 
0.0405448 0.222937 0.976686 0.636194 0.0279269 
0.732314 0.558948 0.750267 0.372429 0.29425 
0.307009 0.788204 0.934066 0.255089 0.0724487 
0.550804 0.373546 0.804335 0.145784 0.883235 
0.415879 0.829305 0.401293 0.740672 0.0251228 
0.729013 0.127679 0.359805 0.315161 0.777659 
0.0080778 0.950352 0.213198 0.880847 0.580918 
0.450556 0.559765 0.109412 0.775489 0.514887 
0.650573 0.547247 0.681711 0.17883 0.730328 
0.28613 0.348056 0.788177 0.200362 0.314255 
0.225797 0.0975498 0.966888 0.477017 0.56174 
0.790457 0.383352 0.0306729 0.370045 0.6408 
0.0793646 0.42848 0.497178 0.892661 0.251055 
0.499937 0.379982 0.779598 0.599393 0.880139 
0.877582 0.461733 0.233285 0.576091 0.138585 
0.441978 0.103354 0.245114 0.930875 0.962937 
0.121974 0.0415691 0.536727 0.222801 0.210071 
0.877336 0.572331 0.755682 0.14011 0.979856 
0.408887 0.443041 0.332661 0.0926303 0.857874 
0.244486 0.475498 0.00110652 0.101298 0.73332 
0.872494 0.287489 0.388768 0.205335 0.256558 
0.234909 0.0589312 0.802809 0.743425 0.760638 
0.647642 0.218271 0.352173 0.972678 0.802342 
0.854646 0.910752 0.985791 0.910526 0.295852 
0.913427 0.57392 0.694596 0.434247 0.928912 
0.57276 0.870559 0.47164 0.655026 0.548253 
0.572407 0.56899 0.747934 0.200483 0.625217 
0.918729 0.89965 0.225649 0.998611 0.422256 
0.32215 0.154665 0.696967 0.836313 0.626702 
0.00973329 0.554024 0.697171 0.832063 0.373446 
0.920381 0.690785 0.616639 0.215001 0.554476 
0.951508 0.985836 0.777469 0.136506 0.292985 
0.031339 0.968647 0.616174 0.267172 0.711253 
0.0586894 0.604509 0.108347 0.999514 0.3452 
0.0128578 0.830147 0.454697 0.138769 0.891422 
0.888054 0.45019 0.379395 0.542677 0.0231149 
0.121329 0.470083 0.596249 0.395217 0.463485 
0.531191 0.746738 0.483828 0.469944 0.618047 
0.758806 0.236516 0.31483 0.18319 0.148545 
0.0422712 0.438655 0.979828 0.687123 0.678638 
0.312036 0.735125 0.989306 0.431374 0.130824 
0.805447 0.642891 0.172113 0.948527 0.644776 
0.893647 0.633845 0.740146 0.89782 0.96147 
0.381679 0.389258 0.158213 0.925071 0.610535 
0.912758 0.666598 0.39429 0.351898 0.215248 
0.845981 0.52964 0.612065 0.410785 0.275773 
0.300258 0.188578 0.843148 0.300218 0.620798 
0.0416897 0.905485 0.50837 0.267651 0.652719 
0.747046 0.425982 0.46951 0.870968 0.538896 
0.975046 0.457872 0.478511 0.272124 0.815695 
0.918212 0.674885 0.0140938 0.981925 0.925062 
0.104704 0.694397 0.331702 0.229772 0.0820412 
0.264727 0.628263 0.55966 0.60176 0.148104 
0.0121987 0.239058 0.351216 0.158848 0.132589 
0.418162 0.715455 0.110143 0.793269 0.639891 
0.353428 0.449128 0.893872 0.889535 0.368987 
0.756145 0.921819 0.814263 0.357549 0.984479 
0.484341 0.991659 0.730285 0.751388 0.582866 
0.500272 0.457729 0.301063 0.12197 0.592386 
0.242943 0.275109 0.9109 0.675287 0.752295 
0.124365 0.0776511 0.83 0.328364 0.360545 
0.862466 0.156801 0.737866 0.929179 0.524739 
0.675398 0.685689 0.50026 0.214618 0.220088 
0.855628 0.35988 0.0273877 0.158892 0.0551207 
0.991382 0.329645 0.316714 0.772525 0.0590552 
0.154431 0.628659 0.172561 0.437363 0.0561965 
0.120518 0.381892 0.39057 0.960939 0.68694 
0.53661 0.00863772 0.133733 0.170291 0.334394 
0.796828 0.171106 0.0157421 0.801682 0.439876 
0.482797 0.884939 0.1508 0.0705537 0.277107 
0.0641512 0.0159575 0.269906 0.59031 0.378479 
0.49275 0.785709 0.158015 0.115202 0.112564 
0.912857 0.797729 0.980444 0.863133 0.513654 
0.176414 0.24667 0.526718 0.251967 0.334087 
0.159313 0.357302 0.0538274 0.973631 0.00765484 
0.235064 0.564511 0.985994 0.433494 0.37948 
0.62013 0.472369 0.535346 0.385543 0.177686 
0.690645 0.116422 0.0510531 0.466896 0.253434 
0.708941 0.596926 0.445285 0.100639 0.209732 
0.723339 0.857016 0.413584 0.339235 0.00550592 
0.705092 0.884691 0.277394 0.945452 0.832046 
0.0962304 0.290522 0.949038 0.464992 0.892706 
0.726581 0.407596 0.103918 0.5044 0.122187 
0.139276 0.0840894 0.124556 0.838899 0.201386 
0.205554 0.712609 0.609608 0.907309 0.0459651 
0.975889 0.639058 0.150056 0.8556 0.597291 
0.659318 0.503318 0.480576 0.914626 0.363927 
0.148253 0.862432 0.409593 0.868829 0.0855229 
0.604494 0.250343 0.899554 0.0241881 0.653241 
0.760965 0.0470628 0.451269 0.978798 0.732956 
0.0665372 0.346711 0.394386 0.440319 0.496571 
0.761048 0.656385 0.139001 0.957215 0.911443 
0.345409 0.140357 0.823556 0.772248 0.414517 
0.408749 0.965707 0.562701 0.308173 0.367214 
0.760106 0.774836 0.454028 0.693849 0.707516 
0.84216 0.724309 0.384467 0.226125 0.052399 
0.407486 0.131928 0.376049 0.473183 0.60414 
0.0441538 0.0729876 0.988856 0.0451863 0.413985 
0.734942 0.238401 0.245824 0.241909 0.19265 
0.117373 0.653145 0.414731 0.909719 0.558465 
0.781201 0.855817 0.76973 0.495071 0.806569 
0.852465 0.157728 0.101435 0.278442 0.156864 
0.827084 0.0168698 0.0943625 0.821997 0.2616 
0.848636 0.250529 0.927296 0.761723 0.043776 
0.197134 0.784774 0.708184 0.903247 0.93131 
0.839299 0.582156 0.439058 0.482043 0.342132 
0.47641 0.531946 0.505091 0.824129 0.974202 
0.329549 0.65611 0.679079 0.514988 0.948063 
0.916021 0.603919 0.121829 0.432858 0.574294 
0.871817 0.121203 0.386247 0.145539 0.748429 
0.250091 0.239247 0.533304 0.247631 0.653826 
0.410067 0.24274 0.412268 0.533946 0.704716 
0.95078 0.4186 0.60203 0.103439 0.805474 
0.0229813 0.446107 0.210137 0.508229 0.0101257 
0.694251 0.352481 0.496507 0.452129 0.143268 
0.100979 0.529955 0.464765 0.546634 0.762713 
0.0433895 0.0856842 0.333671 0.779915 0.209984 
0.372211 0.799398 0.296513 0.182813 0.400134 
0.40331 0.207262 0.122655 0.0943596 0.792586 
0.69213 0.802829 0.536679 0.311113 0.150636 
0.58762 0.169093 0.17482 0.720814 0.314738 
0.407087 0.300425 0.342252 0.369382 0.957909 
0.683549 0.488016 0.263642 0.949941 0.939838 
0.00967292 0.442682 0.109123 0.696975 0.292396 
0.385895 0.0762822 0.410335 0.556662 0.640347 
0.990193 0.263011 0.542762 0.0817012 0.960154 
0.192577 0.605951 0.54841 0.0801045 0.958428 
0.813415 0.467858 0.277819 0.114223 0.128479 
0.946342 0.595975 0.643999 0.49713 0.210864 
0.649866 0.149787 0.678948 0.952415 0.437715 
0.561594 0.740882 0.696828 0.493766 0.3826 
0.435497 0.15353 0.578905 0.172648 0.111857 
0.822638 0.840621 0.783874 0.320943 0.214016 
0.678996 0.578022 0.78032 0.0628904 0.903068 
0.796889 0.699302 0.808472 0.00685066 0.598535 
0.152664 0.978967 0.446015 0.865921 0.425738 
0.570255 0.551097 0.965463 0.316264 0.929627 
0.818174 0.427912 0.493243 0.405606 0.594026 
0.406311 0.00452734 0.225867 0.704252 0.135518 
0.00544851 0.255278 0.19977 0.805491 0.415546 
0.293697 0.26824 0.0893612 0.786739 0.247385 
0.150176 0.911916 0.446185 0.216572 0.535965 
0.608044 0.127473 0.945517 0.927938 0.485788 
0.507399 0.59334 0.236461 0.604402 0.883461 
0.8692 0.251327 0.41791 0.587712 0.150252 
0.0363881 0.817237 0.308713 0.352066 0.52221 
0.367613 0.905042 0.077336 0.881589 0.555259 
0.862107 0.35674 0.234427 0.345236 0.321505 
0.972181 0.870102 0.834932 0.258601 0.600233 
0.125748 0.528305 0.939004 0.240433 0.458081 
0.91601 0.17408 0.871102 0.981409 0.350022 
0.968349 0.470502 0.194144 0.704706 0.79983 
0.904809 0.282642 0.0486678 0.583966 0.975592 
0.860169 0.565715 0.371969 0.578633 0.0108532 
0.242629 0.91436 0.648864 0.246501 0.487042 
0.692546 0.0606329 0.458987 0.344888 0.591367 
0.140078 0.998096 0.737256 0.546954 0.435398 
