2900 5
0.677755 0.440708 0.923064 0.611881 0.685496 
0.915532 0.0215921 0.791261 0.492777 0.720812 
0.143183 0.94438 0.185305 0.697831 0.857934 
0.207256 0.755037 0.97311 0.0373218 0.850838 
0.782608 0.144578 0.0188041 0.592843 0.682887 
0.777789 0.623089 0.978811 0.822542 0.487047 
0.979963 0.333959 0.0827419 0.439665 0.226733 
0.464184 0.0810051 0.880705 0.980559 0.0426077 
0.318172 0.577174 0.882844 0.723847 0.658279 
0.668463 0.922005 0.963477 0.0541795 0.690341 
0.240688 0.591394 0.872048 0.503159 0.285916 
0.0446957 0.0439366 0.506103 0.147187 0.643266 
0.530827 0.884937 0.481624 0.703993 0.993606 
0.704522 0.817755 0.894879 0.45509 0.30728 
0.569437 0.371448 0.398607 0.915968 0.634844 
0.274852 0.290291 0.0687375 0.449727 0.676384 
0.128861 0.141174 0.459289 0.872186 0.859914 
0.858717 0.123556 0.497634 0.343124 0.877779 
0.0727514 0.106706 0.266016 0.0662022 0.0925554 
0.694525 0.948398 0.523652 0.510482 0.17613 
0.247624 0.748628 0.870487 0.430787 0.229025 
0.772937 0.138747 0.143239 0.0501864 0.171292 
0.718428 0.0563582 0.477239 0.140283 0.959725 
0.0985002 0.672155 0.0981855 0.44422 0.0268212 
0.947353 0.703436 0.36101 0.314072 0.7957 
0.2582 0.881712 0.0546381 0.511337 0.277811 
0.439237 0.780334 0.373836 0.175228 0.507057 
0.782665 0.97696 0.168443 0.150912 0.670726 
0.173885 0.13385 0.0884175 0.978085 0.850139 
0.496178 0.785597 0.244012 0.373689 0.690257 
0.259416 0.720454 0.0551949 0.0641852 0.862384 
0.779779 0.67172 0.0301327 0.985345 0.624173 
0.239842 0.12389 0.0631251 0.692575 0.618055 
0.352216 0.220183 0.66934 0.663026 0.577567 
0.127347 0.367217 0.936271 0.785734 0.24751 
0.935682 0.379297 0.0135525 0.0646238 0.390621 
0.465358 0.582952 0.202057 0.917433 0.137122 
0.795589 0.163808 0.392469 0.370343 0.533622 
0.14962 0.509464 0.765077 0.224988 0.0232689 
0.441278 0.0495174 0.263261 0.480378 0.090694 
0.557339 0.00606847 0.335245 0.00909844 0.282879 
0.977085 0.958345 0.545249 0.345766 0.627896 
0.729759 0.328857 0.177812 0.135914 0.689892 
0.453814 0.89288 0.18506 0.783372 0.447287 
0.176679 0.137079 0.474674 0.625517 0.923618 
0.855644 0.583842 0.184039 0.198652 0.44432 
0.856305 0.432563 0.120742 0.425557 0.749086 
0.476098 0.667012 0.953196 0.584715 0.247298 
0.0777644 0.724448 0.15275 0.453674 0.91381 
0.430201 0.935048 0.689895 0.932844 0.135177 
0.451184 0.884533 0.933321 0.154263 0.841567 
0.558721 0.600046 0.751084 0.277036 0.372686 
0.676286 0.611675 0.350696 0.890561 0.728856 
0.498651 0.18106 0.629579 0.404533 0.538796 
0.847214 0.333462 0.691668 0.480646 0.479215 
0.653799 0.499493 0.340029 0.85268 0.0279055 
0.671741 0.168291 0.673656 0.0308152 0.686237 
0.0275242 0.960107 0.379362 0.0679566 0.0647724 
0.254476 0.304754 0.517334 0.824239 0.450944 
0.00274719 0.211136 0.986502 0.00557449 0.76572 
0.0814336 0.103658 0.296954 0.902667 0.304737 
0.21419 0.844619 0.175236 0.223547 0.977839 
0.383276 0.949533 0.36286 0.230585 0.471894 
0.464223 0.592484 0.762564 0.0876114 0.55701 
0.384385 0.381816 0.234747 0.568827 0.19749 
0.0999775 0.186041 0.990887 0.257703 0.869329 
0.163316 0.561964 0.558288 0.767742 0.0480497 
0.874875 0.22959 0.998133 0.642567 0.42519 
0.663611 0.897531 0.39245 0.450263 0.75378 
0.248926 0.944566 0.555063 0.405895 0.253033 
0.29324 0.0911985 0.175714 0.798901 0.41953 
0.979403 0.00369734 0.607076 0.878378 0.729131 
0.783281 0.766142 0.46025 0.892068 0.0232701 
0.61201 0.569941 0.19031 0.574972 0.0462134 
0.255171 0.925858 0.14445 0.0537037 0.649933 
0.388813 0.0919359 0.62119 0.108324 0.0402617 
0.249784 0.303194 0.703282 0.0649361 0.695564 
0.641454 0.412204 0.621498 0.651897 0.886899 
0.456258 0.83629 0.784261 0.684751 0.0768525 
0.0477023 0.520209 0.684745 0.302323 0.63266 
0.310933 0.816809 0.37173 0.24203 0.758371 
0.966541 0.614888 0.175442 0.902645 0.656147 
0.253532 0.291276 0.914505 0.972447 0.371568 
0.304287 0.780293 0.00387268 0.632925 0.28166 
0.563708 0.0459988 0.586325 0.214462 0.989884 
0.757156 0.995252 0.426434 0.431489 0.376746 
0.22723 0.828963 0.357333 0.648218 0.692083 
0.472008 0.631092 0.99087 0.186468 0.278266 
0.531396 0.098416 0.550599 0.295603 0.248593 
0.852703 0.855252 0.412036 0.580683 0.370014 
0.987518 0.034507 0.760619 0.199589 0.959407 
0.667329 0.53944 0.352629 0.763799 0.660379 
0.151556 0.104194 0.846024 0.0803548 0.29495 
0.109239 0.586344 0.636388 0.941574 0.291445 
0.699306 0.344645 0.778887 0.000800732 0.886806 
0.295122 0.998369 0.0838897 0.44767 0.556275 
0.842948 0.870469 0.885433 0.557128 0.175379 
0.069288 0.3434 0.99223 0.195041 0.697385 
0.132146 0.717913 0.897129 0.18239 0.142686 
0.67952 0.366527 0.0185559 0.509104 0.486018 
0.729932 0.860019 0.183868 0.388777 0.542222 
0.0074683 0.66034 0.460036 0.927399 0.12071 
0.945605 0.734915 0.847135 0.0742772 0.45715 
0.822118 0.101209 0.885953 0.41257 0.336735 
0.473457 0.353418 0.941216 0.877371 0.260608 
0.881389 0.239404 0.450917 0.0321533 0.917588 
0.0780353 0.465716 0.576352 0.686122 0.482647 
0.27921 0.820703 0.203434 0.0171248 0.233207 
0.372381 0.89957 0.155673 0.452246 0.675106 
0.995878 0.398381 0.399937 0.247446 0.801444 
0.343802 0.638442 0.225281 0.872888 0.201807 
0.551254 0.0427885 0.381298 0.39973 0.446213 
0.10594 0.411996 0.937279 0.0624192 0.0622625 
0.942201 0.0409176 0.434275 0.0675496 0.220704 
0.799312 0.18039 0.76067 0.242096 0.973877 
0.186756 0.32674 0.0958759 0.233832 0.485576 
0.648862 0.895446 0.95214 0.833546 0.0815925 
0.609401 0.251979 0.194769 0.343291 0.129048 
0.779685 0.699657 0.37473 0.672723 0.948346 
0.500752 0.699478 0.779427 0.797823 0.263151 
0.455874 0.369839 0.511805 0.446836 0.475179 
0.154803 0.795411 0.227654 0.396328 0.414354 
0.538814 0.0664998 0.932832 0.914216 0.205592 
0.29843 0.0729876 0.30615 0.944196 0.597531 
0.101064 0.339849 0.180592 0.00319685 0.105946 
0.971471 0.377205 0.0546979 0.590835 0.480507 
0.398128 0.310623 0.484465 0.427612 0.827681 
0.573326 0.931928 0.720069 0.909908 0.251494 
0.506748 0.662488 0.111494 0.227957 0.179475 
0.691913 0.731225 0.260532 0.724619 0.565275 
0.804765 0.301486 0.767107 0.445867 0.00488066 
0.720479 0.640148 0.799086 0.0737634 0.832255 
0.470579 0.95731 0.245893 0.521989 0.88411 
0.720712 0.0235465 0.319929 0.722206 0.97092 
0.813977 0.11782 0.569497 0.908817 0.318914 
0.29288 0.398626 0.0668891 0.8312 0.615764 
0.209446 0.120098 0.261568 0.747905 0.340522 
0.675295 0.868052 0.930685 0.244024 0.760403 
0.637744 0.939034 0.422251 0.432329 0.684857 
0.140952 0.685748 0.116819 0.371469 0.465825 
0.227246 0.130296 0.104462 0.399226 0.505475 
0.893086 0.466176 0.0956578 0.691492 0.400057 
0.420977 0.069654 0.178666 0.567025 0.150389 
0.756395 0.944968 0.975633 0.0508724 0.820658 
0.398653 0.414958 0.416517 0.470786 0.151322 
0.314301 0.618089 0.814729 0.848274 0.0344103 
0.095245 0.333415 0.669968 0.957622 0.24391 
0.941073 0.56413 0.552568 0.48107 0.962713 
0.375694 0.113854 0.0175219 0.976434 0.0906207 
0.635846 0.340706 0.692959 0.711043 0.705233 
0.772379 0.69236 0.932573 0.678093 0.523453 
0.896141 0.347931 0.467103 0.601596 0.9342 
0.662399 0.742089 0.369921 0.93441 0.571371 
0.691044 0.249746 0.171165 0.488922 0.0286235 
0.688942 0.180992 0.413751 0.652789 0.86384 
0.244065 0.352574 0.221206 0.501378 0.0205962 
0.64944 0.384634 0.541758 0.726189 0.166716 
0.569786 0.53995 0.89266 0.304192 0.507589 
0.809775 0.653604 0.748562 0.544053 0.218774 
0.358894 0.948565 0.0672826 0.270542 0.830668 
0.834583 0.73254 0.955298 0.54512 0.638537 
0.830557 0.970106 0.55304 0.15311 0.869938 
0.87589 0.720671 0.416536 0.122787 0.525686 
0.965863 0.228671 0.156829 0.454212 0.00666547 
0.447013 0.725769 0.815268 0.372568 0.359846 
0.96296 0.57252 0.0313963 0.438016 0.309677 
0.846576 0.660658 0.57498 0.195518 0.441677 
0.554591 0.194734 0.64468 0.581842 0.655497 
0.57634 0.899057 0.501172 0.013464 0.385124 
0.586445 0.385049 0.132604 0.775489 0.923798 
0.0196203 0.016528 0.804728 0.919434 0.775891 
0.460948 0.807871 0.919053 0.288532 0.727849 
0.074531 0.0250585 0.784686 0.037882 0.313265 
0.974861 0.343021 0.871066 0.973238 0.298181 
0.974138 0.938465 0.142986 0.721266 0.625506 
0.612697 0.990992 0.324001 0.0799821 0.221595 
0.305467 0.901123 0.739072 0.812068 0.0259735 
0.847039 0.598385 0.000337493 0.186862 0.0508408 
0.775341 0.545793 0.176805 0.970982 0.922246 
0.954256 0.718357 0.945574 0.93548 0.0361649 
0.130708 0.906718 0.923118 0.800518 0.728997 
0.485893 0.290656 0.0187915 0.972611 0.0530368 
0.174438 0.66484 0.0392453 0.623386 0.943751 
0.8809 0.845082 0.370194 0.47388 0.523425 
0.688625 0.720605 0.835218 0.963341 0.84782 
0.717002 0.342172 0.805408 0.690536 0.780392 
0.890824 0.756189 0.254155 0.47931 0.674962 
0.56501 0.369733 0.787549 0.020647 0.42413 
0.0772383 0.520953 0.835093 0.177372 0.940616 
0.974999 0.308324 0.452438 0.597601 0.84989 
0.762915 0.459774 0.753871 0.797571 0.902666 
0.626926 0.48984 0.556181 0.610451 0.50204 
0.181315 0.73644 0.0963408 0.105525 0.153614 
0.167267 0.107826 0.243149 0.0776731 0.36712 
0.0488215 0.970958 0.714369 0.808234 0.700853 
0.0573567 0.101932 0.757987 0.9111 0.619095 
0.797235 0.771326 0.272917 0.858855 0.603253 
0.728421 0.129974 0.987673 0.76026 0.0212332 
0.78813 0.0714452 0.721999 0.557142 0.96872 
0.395531 0.849779 0.297641 0.407901 0.124082 
0.292202 0.420058 0.83024 0.725488 0.425457 
0.135757 0.579773 0.77095 0.802125 0.520873 
0.0184009 0.865989 0.28786 0.193329 0.433884 
0.762879 0.709192 0.756315 0.157321 0.280154 
0.57681 0.509659 0.314653 0.0217992 0.635129 
0.301144 0.5161 0.844154 0.198957 0.0448622 
0.263674 0.874944 0.135309 0.493577 0.12007 
0.994569 0.399369 0.509168 0.753171 0.293602 
0.636976 0.636459 0.503497 0.0843004 0.0662887 
0.913476 0.0250853 0.191176 0.519458 0.943596 
0.122918 0.583777 0.90571 0.876997 0.486049 
0.59101 0.017612 0.792144 0.409144 0.188603 
0.46985 0.0988883 0.978289 0.103546 0.0719352 
0.185776 0.668369 0.297421 0.545294 0.726376 
0.688603 0.182809 0.413008 0.687477 0.729118 
0.80697 0.948525 0.995828 0.110697 0.886704 
0.845325 0.292248 0.594322 0.90741 0.0872916 
0.677583 0.276424 0.955067 0.92123 0.980629 
0.883241 0.34551 0.836609 0.460012 0.0574441 
0.940226 0.811347 0.702827 0.545145 0.345058 
0.2743 0.971231 0.0491295 0.0334787 0.180844 
0.0753635 0.997055 0.717664 0.166539 0.962605 
0.822278 0.00677794 0.324127 0.0389127 0.320485 
0.825661 0.549736 0.437393 0.967157 0.154678 
0.263805 0.928099 0.843751 0.454092 0.239954 
0.758769 0.0112946 0.490465 0.630077 0.482976 
0.841798 0.339712 0.428356 0.958226 0.891063 
0.607779 0.226393 0.406591 0.880085 0.125946 
0.520798 0.551639 0.683048 0.761604 0.664791 
0.473748 0.578802 0.963425 0.779651 0.787512 
0.585022 0.214289 0.396901 0.561622 0.350518 
0.192016 0.426446 0.538314 0.514573 0.406433 
0.613472 0.516851 0.227562 0.144349 0.699094 
0.0601625 0.637617 0.192162 0.0929052 0.269899 
0.421731 0.342601 0.612568 0.837671 0.264269 
0.933739 0.15013 0.453013 0.125323 0.157377 
0.644213 0.935335 0.0181596 0.323492 0.211654 
0.517117 0.23965 0.302848 0.244041 0.235983 
0.130936 0.199217 0.678809 0.466879 0.999194 
0.775437 0.31069 0.849222 0.209955 0.257901 
0.786761 0.716123 0.47152 0.560592 0.897378 
0.281783 0.13921 0.926156 0.432298 0.773892 
0.239977 0.300874 0.133709 0.229329 0.205944 
0.965926 0.084448 0.902874 0.96166 0.750291 
0.513473 0.864877 0.317907 0.405939 0.375012 
0.584265 0.978902 0.297128 0.850385 0.749429 
0.511508 0.356889 0.785317 0.0884904 0.799483 
0.68506 0.431103 0.348473 0.688497 0.0579434 
0.0184323 0.140578 0.570327 0.399634 0.128719 
0.473556 0.176996 0.983732 0.312417 0.632177 
0.444776 0.969794 0.601188 0.357819 0.283003 
0.864804 0.863372 0.483209 0.53265 0.180297 
0.716571 0.239488 0.557009 0.426869 0.185968 
0.931117 0.587561 0.692969 0.608603 0.325538 
0.651723 0.483264 0.794265 0.774571 0.829374 
0.0396133 0.330917 0.793354 0.448467 0.116692 
0.0969396 0.360468 0.620969 0.851221 0.145665 
0.871329 0.505565 0.245115 0.522333 0.55545 
0.340242 0.307301 0.652032 0.276079 0.818282 
0.394211 0.121675 0.489623 0.630359 0.126941 
0.734752 0.160334 0.94308 0.307013 0.307313 
0.139891 0.733295 0.780643 0.796892 0.774723 
0.576409 0.923681 0.412485 0.76801 0.34291 
0.973219 0.561932 0.540881 0.0180216 0.0281644 
0.874367 0.254102 0.140168 0.0110992 0.012066 
0.801998 0.525866 0.23048 0.050681 0.287346 
0.310334 0.0394551 0.122578 0.977591 0.399827 
0.318426 0.658962 0.710864 0.546518 0.000604124 
0.155685 0.0720167 0.0726146 0.54408 0.473806 
0.946512 0.207168 0.962674 0.248334 0.833321 
0.537273 0.998199 0.659903 0.609192 0.106952 
0.255672 0.308063 0.432297 0.533485 0.594406 
0.965868 0.416947 0.970439 0.108119 0.632471 
0.0930071 0.835668 0.0382389 0.386008 0.429487 
0.628915 0.521503 0.311986 0.524904 0.808165 
0.00942802 0.586228 0.370391 0.184426 0.268395 
0.545853 0.552104 0.721431 0.152431 0.00997088 
0.63355 0.539488 0.0605895 0.0249287 0.629905 
0.873806 0.748326 0.163317 0.521063 0.776565 
0.665542 0.473542 0.665795 0.976998 0.241035 
0.52589 0.587576 0.0716424 0.409321 0.962036 
0.957859 0.620533 0.37743 0.146625 0.397688 
0.0335699 0.00543544 0.118099 0.68913 0.131029 
0.8836 0.306739 0.63667 0.696217 0.228987 
0.836944 0.219776 0.337 0.381111 0.349423 
0.0689828 0.240168 0.577758 0.0987535 0.747765 
0.634063 0.600507 0.18069 0.0223727 0.575649 
0.622988 0.0639007 0.483511 0.964562 0.685545 
0.773415 0.25642 0.415462 0.478881 0.509523 
0.474964 0.778179 0.76655 0.956691 0.194912 
0.255971 0.307132 0.784221 0.0869402 0.0154715 
0.804007 0.453979 0.747392 0.172682 0.511269 
0.395781 0.29267 0.613707 0.066576 0.0392375 
0.402467 0.226866 0.766115 0.843717 0.431709 
0.825928 0.683709 0.541566 0.487449 0.307899 
0.729967 0.672223 0.68934 0.545349 0.677281 
0.881663 0.627101 0.737107 0.793658 0.758884 
0.491491 0.900176 0.888995 0.184941 0.0984592 
0.774356 0.713679 0.989614 0.379857 0.264127 
0.520664 0.480883 0.7701 0.581179 0.884141 
0.3283 0.605026 0.888336 0.231127 0.652223 
0.242385 0.626046 0.677706 0.434708 0.148961 
0.876716 0.543074 0.531461 0.541889 0.872557 
0.33416 0.207993 0.617973 0.171278 0.240358 
0.831314 0.998419 0.908151 0.269667 0.835235 
0.559042 0.682262 0.9627 0.44196 0.304082 
0.970644 0.500576 0.455251 0.887022 0.0462673 
0.227623 0.178237 0.367791 0.49484 0.331071 
0.331912 0.0877719 0.859039 0.101624 0.661187 
0.0292386 0.194569 0.235242 0.855602 0.250675 
0.178237 0.923805 0.0469336 0.825836 0.850747 
0.899559 0.71603 0.790663 0.322891 0.733498 
0.331049 0.757311 0.509237 0.109809 0.0973824 
0.4953 0.756652 0.488239 0.620231 0.239355 
0.745574 0.30716 0.646041 0.0340155 0.751471 
0.960192 0.135213 0.345972 0.633982 0.390164 
0.274619 0.35995 0.932201 0.212702 0.942913 
0.588121 0.323183 0.239807 0.217041 0.341229 
0.0182686 0.247344 0.179527 0.341046 0.26533 
0.582556 0.56362 0.829357 0.265773 0.555602 
0.618455 0.414501 0.306103 0.859419 0.937408 
0.168258 0.316177 0.975849 0.384692 0.846153 
0.470352 0.536049 0.676001 0.15811 0.226113 
0.258637 0.376602 0.529601 0.651315 0.788605 
0.103317 0.17309 0.254863 0.590333 0.352144 
0.198873 0.364006 0.979599 0.464603 0.671601 
0.0199071 0.65807 0.246624 0.726428 0.744298 
0.278835 0.829922 0.705352 0.882855 0.988388 
0.286045 0.326497 0.0967683 0.470871 0.521918 
0.283428 0.157076 0.444685 0.188236 0.484319 
0.817837 0.709889 0.0568938 0.536053 0.397131 
0.16776 0.613736 0.945695 0.182754 0.0187224 
0.369171 0.239779 0.260357 0.20619 0.35086 
0.211048 0.154896 0.251441 0.308293 0.497373 
0.715792 0.540079 0.426491 0.106097 0.823586 
0.368717 0.697627 0.665692 0.891449 0.586895 
0.0850616 0.808993 0.514102 0.667775 0.518306 
0.918973 0.667899 0.759038 0.631412 0.588302 
0.0703918 0.445693 0.0937375 0.728616 0.848636 
0.497944 0.852974 0.320955 0.433728 0.850901 
0.739214 0.192487 0.0998532 0.00255501 0.496105 
0.0675654 0.433094 0.319312 0.0939683 0.0527277 
0.2012 0.174991 0.0770337 0.19196 0.251831 
0.464037 0.561682 0.517895 0.62451 0.366202 
0.397477 0.565683 0.192011 0.644148 0.869831 
0.354872 0.806847 0.249209 0.578559 0.20204 
0.343351 0.636736 0.546862 0.758438 0.287065 
0.216135 0.308457 0.695299 0.306231 0.721899 
0.37872 0.334941 0.976137 0.366809 0.820107 
0.401978 0.974065 0.0841277 0.644164 0.232212 
0.886611 0.116462 0.0465638 0.655654 0.535787 
0.966218 0.417699 0.888066 0.921257 0.0508112 
0.244629 0.0877485 0.690653 0.353629 0.30034 
0.20121 0.665865 0.0321703 0.159063 0.568229 
0.722975 0.110915 0.416584 0.158606 0.539211 
0.349588 0.0704497 0.354027 0.249662 0.419749 
0.711152 0.607568 0.770313 0.876181 0.169652 
0.219322 0.630547 0.373318 0.464275 0.807415 
0.906165 0.593876 0.216589 0.355227 0.617159 
0.476163 0.470802 0.140263 0.983263 0.639988 
0.01508 0.165166 0.754859 0.892593 0.822672 
0.222615 0.789413 0.536239 0.303792 0.947881 
0.792156 0.1227 0.912785 0.023193 0.963035 
0.979766 0.248804 0.552922 0.0675718 0.796701 
0.725552 0.290109 0.914895 0.378144 0.422276 
0.0605514 0.839852 0.359456 0.8825 0.573521 
0.83022 0.16707 0.728347 0.896993 0.0466408 
0.366476 0.187229 0.522966 0.218506 0.714786 
0.938378 0.578128 0.769885 0.0132447 0.0962447 
0.256327 0.92232 0.829887 0.612518 0.875694 
0.862785 0.284775 0.00472627 0.447194 0.888645 
0.72418 0.714188 0.586207 0.0678425 0.674227 
0.571996 0.449287 0.645585 0.684599 0.181917 
0.737684 0.674727 0.712705 0.666959 0.0545598 
0.959588 0.30535 0.597601 0.572643 0.4513 
0.529271 0.270139 0.679442 0.334382 0.495445 
0.87324 0.0832043 0.307135 0.70535 0.0846695 
0.922453 0.260021 0.978985 0.83015 0.122501 
0.769967 0.794878 0.255511 0.2166 0.255972 
0.651792 0.265698 0.119689 0.804239 0.120135 
0.496749 0.557425 0.0549051 0.870704 0.789108 
0.496103 0.879152 0.657371 0.305131 0.663282 
0.676787 0.000121772 0.951168 0.191022 0.199542 
0.628182 0.843528 0.808947 0.813487 0.737471 
0.508906 0.791801 0.797525 0.653242 0.540282 
0.0703345 0.353767 0.449922 0.487831 0.86551 
0.657647 0.48607 0.336142 0.746 0.31361 
0.023567 0.112299 0.392155 0.363614 0.102151 
0.28312 0.696182 0.105782 0.89385 0.76589 
0.179789 0.274519 0.376503 0.937781 0.966979 
0.850717 0.91996 0.205121 0.220298 0.21179 
0.928737 0.475386 0.485898 0.191519 0.405656 
0.636539 0.213974 0.118861 0.223709 0.520456 
0.712657 0.030154 0.491185 0.641127 0.748333 
0.527556 0.72505 0.880444 0.176236 0.368215 
0.62419 0.999419 0.283715 0.531509 0.786761 
0.415391 0.104019 0.886184 0.0133782 0.825764 
0.94579 0.422452 0.572126 0.332388 0.375977 
0.49271 0.472103 0.183673 0.516507 0.115502 
0.130514 0.577095 0.755445 0.940791 0.13668 
0.0876017 0.00511687 0.601823 0.991951 0.0932116 
0.575827 0.527153 0.465427 0.113628 0.931172 
0.844018 0.655596 0.0635509 0.211594 0.0552682 
0.672188 0.371877 0.00730776 0.380571 0.362253 
0.16948 0.718042 0.711154 0.373558 0.964946 
0.0679861 0.614206 0.759932 0.185986 0.525859 
0.544529 0.535098 0.523232 0.535076 0.0116667 
0.183631 0.918048 0.234822 0.0285336 0.535836 
0.132753 0.655673 0.964628 0.510368 0.751074 
0.924297 0.232428 0.847656 0.535879 0.759212 
0.866063 0.800165 0.682964 0.504801 0.682175 
0.213833 0.320763 0.51234 0.329839 0.769639 
0.0997534 0.335908 0.15272 0.528673 0.924077 
0.12866 0.166792 0.444686 0.948592 0.294982 
0.0909101 0.616122 0.765845 0.683874 0.616388 
0.358963 0.724554 0.754041 0.258232 0.946447 
0.131897 0.425242 0.541665 0.658455 0.710758 
0.138555 0.935501 0.819414 0.440825 0.984465 
0.701123 0.376542 0.677871 0.301705 0.0763298 
0.856233 0.815693 0.211448 0.47411 0.26997 
0.253024 0.691079 0.922319 0.0297736 0.566425 
0.825275 0.832691 0.114361 0.436226 0.193376 
0.346943 0.15877 0.452977 0.190863 0.429857 
0.507721 0.0949356 0.0702822 0.576204 0.297066 
0.821669 0.327167 0.508882 0.181963 0.77032 
0.828807 0.829828 0.68195 0.174399 0.533978 
0.525129 0.496927 0.0890403 0.967889 0.514101 
0.236579 0.807371 0.776219 0.0742736 0.661101 
0.957267 0.442021 0.732721 0.880234 0.0346913 
0.343757 0.663657 0.0108325 0.131551 0.656541 
0.731791 0.856383 0.674608 0.185276 0.015701 
0.170398 0.29601 0.252456 0.45087 0.356595 
0.920847 0.795642 0.483856 0.569895 0.420211 
0.33843 0.130738 0.188433 0.0706412 0.220387 
0.688124 0.409878 0.957977 0.3793 0.299973 
0.899884 0.638672 0.559184 0.821439 0.64002 
0.580462 0.263927 0.143779 0.0969485 0.974167 
0.573433 0.252855 0.401215 0.972658 0.83984 
0.276508 0.1897 0.710605 0.998327 0.863708 
0.7907 0.461479 0.0821587 0.942328 0.504881 
0.70171 0.190486 0.469001 0.00594846 0.305683 
0.688329 0.146624 0.120738 0.156378 0.0505197 
0.633213 0.95046 0.574107 0.113367 0.830628 
0.998444 0.448753 0.0795418 0.602375 0.299422 
0.628371 0.701299 0.110244 0.64783 0.632746 
0.73266 0.330956 0.779095 0.96034 0.668792 
0.490282 0.250541 0.789041 0.840397 0.722953 
0.755617 0.97359 0.0607188 0.844727 0.391012 
0.821969 0.0850826 0.460578 0.794731 0.685839 
0.583222 0.635855 0.873538 0.573389 0.874857 
0.215338 0.308672 0.738335 0.67425 0.581538 
0.265399 0.47358 0.493524 0.539011 0.223741 
0.141925 0.593499 0.802238 0.913161 0.979442 
0.21745 0.565668 0.301508 0.451973 0.369881 
0.171112 0.288128 0.112942 0.0566921 0.566298 
0.572566 0.263663 0.9087 0.0662648 0.0222017 
0.50057 0.267792 0.419145 0.596309 0.671042 
0.926297 0.602092 0.0460168 0.412396 0.695452 
0.646955 0.264735 0.931212 0.68271 0.138654 
0.680543 0.529286 0.19589 0.878966 0.725651 
0.395301 0.902037 0.385648 0.0293883 0.564683 
0.164619 0.661708 0.440078 0.103151 0.463545 
0.188966 0.70328 0.271927 0.42955 0.361883 
0.00185668 0.314051 0.19274 0.0838906 0.488843 
0.888245 0.734903 0.483305 0.390281 0.674396 
0.587925 0.285764 0.259701 0.0137381 0.514924 
0.139502 0.768678 0.888859 0.371706 0.59951 
0.252822 0.280046 0.0399619 0.777887 0.0136115 
0.46995 0.115256 0.625304 0.721646 0.903615 
0.384618 0.347054 0.995318 0.945068 0.389764 
0.87122 0.691325 0.103226 0.089849 0.77527 
0.479042 0.239553 0.463869 0.771901 0.521163 
0.964323 0.0343926 0.347354 0.552588 0.646894 
0.58425 0.0365349 0.690453 0.217142 0.0348892 
0.383208 0.115485 0.909638 0.875078 0.214557 
0.729847 0.951427 0.401424 0.199975 0.493345 
0.998455 0.0333734 0.706714 0.803516 0.540408 
0.0883718 0.599794 0.228466 0.756519 0.182785 
0.414839 0.707479 0.604325 0.943882 0.763472 
0.4567 0.692013 0.607255 0.494771 0.274271 
0.179439 0.688646 0.806067 0.0833511 0.0169215 
0.123354 0.876985 0.633036 0.637347 0.0653048 
0.116038 0.896559 0.362642 0.094121 0.510052 
0.580571 0.324682 0.817121 0.536121 0.484928 
0.542041 0.504738 0.487236 0.298626 0.791083 
0.61835 0.710529 0.991469 0.616403 0.231893 
0.717485 0.45055 0.488605 0.252663 0.422026 
0.559846 0.816254 0.63199 0.979491 0.897637 
0.925331 0.447864 0.00650175 0.260717 0.990258 
0.962853 0.0934748 0.0408632 0.240492 0.805542 
0.0756539 0.915969 0.0386268 0.963202 0.0845868 
0.498788 0.817787 0.765393 0.0885544 0.71328 
0.445326 0.556383 0.266642 0.835205 0.845264 
0.19656 0.295509 0.625569 0.20802 0.49766 
0.983315 0.5099 0.408806 0.699366 0.819306 
0.278547 0.371748 0.78008 0.292357 0.938029 
0.243903 0.932745 0.38058 0.517821 0.956 
0.477225 0.67135 0.313109 0.108528 0.203913 
0.479918 0.0916518 0.159564 0.545124 0.462819 
0.505635 0.582221 0.459149 0.388007 0.71378 
0.144234 0.139909 0.50066 0.0731935 0.876231 
0.429903 0.514916 0.458046 0.613354 0.268958 
0.15385 0.391471 0.912832 0.139416 0.944248 
0.347917 0.858407 0.615803 0.802367 0.0736385 
0.955519 0.495314 0.401451 0.812735 0.81401 
0.962115 0.976315 0.266492 0.454898 0.59553 
0.0612052 0.558487 0.219708 0.5961 0.841804 
0.599499 0.810234 0.766429 0.149672 0.794003 
0.71918 0.161651 0.997341 0.896654 0.370356 
0.422023 0.590848 0.484855 0.987336 0.760839 
0.0213693 0.176033 0.550669 0.876683 0.0446983 
0.558486 0.422624 0.706806 0.0890339 0.227006 
0.844633 0.89422 0.484498 0.771798 0.727627 
0.860152 0.288438 0.784202 0.273564 0.51986 
0.72582 0.290908 0.0851164 0.979409 0.607833 
0.717617 0.371789 0.126477 0.00799401 0.340512 
0.959783 0.721617 0.627007 0.310754 0.0567168 
0.407762 0.132308 0.630649 0.189953 0.129237 
0.51202 0.551538 0.87745 0.771532 0.326981 
0.307963 0.97264 0.265574 0.447338 0.761691 
0.538425 0.967494 0.434081 0.244515 0.17182 
0.797758 0.726772 0.969085 0.238239 0.664774 
0.816936 0.467446 0.971611 0.0083632 0.155649 
0.523843 0.638599 0.114196 0.998979 0.563103 
0.619465 0.0975909 0.677286 0.13598 0.142092 
0.796443 0.788932 0.082367 0.371882 0.444085 
0.584707 0.45191 0.00433958 0.880926 0.555671 
0.310454 0.238737 0.843431 0.221771 0.383324 
0.942514 0.178707 0.718009 0.267785 0.0557523 
0.958923 0.91319 0.514783 0.755128 0.132492 
0.756093 0.0417919 0.127762 0.488068 0.508929 
0.0997473 0.906708 0.634373 0.0651308 0.0242864 
0.658794 0.955894 0.552028 0.214942 0.356582 
0.464671 0.656528 0.679354 0.0348254 0.599238 
0.901159 0.725186 0.908283 0.171847 0.210692 
0.317723 0.615697 0.138687 0.741906 0.156815 
0.78388 0.591363 0.938636 0.331472 0.834897 
0.159857 0.313358 0.707028 0.078147 0.330434 
0.510443 0.340854 0.398305 0.704951 0.1025 
0.730834 0.337981 0.755896 0.211526 0.315022 
0.183528 0.585237 0.681163 0.288055 0.367009 
0.329327 0.011136 0.694218 0.382485 0.609114 
0.328308 0.0501129 0.946495 0.848667 0.381805 
0.221614 0.133232 0.763215 0.22626 0.159971 
0.116547 0.428098 0.972297 0.265213 0.888452 
0.242503 0.819237 0.0739502 0.703505 0.397583 
0.871683 0.459 0.869916 0.396353 0.834462 
0.141291 0.354259 0.357044 0.94957 0.914691 
0.453087 0.144369 0.290429 0.989833 0.226673 
0.571284 0.570863 0.416186 0.768355 0.503641 
0.510676 0.134149 0.753609 0.563327 0.356815 
0.654123 0.32902 0.848324 0.674858 0.907094 
0.308437 0.214037 0.798995 0.22641 0.271517 
0.0201929 0.319523 0.210532 0.343746 0.089658 
0.995576 0.229441 0.176131 0.41504 0.898521 
0.38972 0.726225 0.451462 0.75666 0.74847 
0.184526 0.886164 0.915338 0.672902 0.88703 
0.414086 0.396686 0.405628 0.491958 0.590404 
0.0960877 0.210262 0.132672 0.983125 0.00939043 
0.997268 0.635444 0.779118 0.550906 0.492839 
0.225454 0.100405 0.171851 0.307778 0.167929 
0.128309 0.905382 0.851424 0.0631642 0.564458 
0.35103 0.712617 0.209734 0.652135 0.661589 
0.681206 0.325274 0.431658 0.0507764 0.508228 
0.0623575 0.203839 0.464521 0.140119 0.475937 
0.499256 0.456928 0.836028 0.353071 0.490905 
0.224524 0.1357 0.935892 0.246843 0.358971 
0.814608 0.282331 0.756022 0.333818 0.0242735 
0.151062 0.9057 0.852766 0.313201 0.957429 
0.283021 0.302325 0.0484845 0.210931 0.52617 
0.918767 0.806212 0.553102 0.593077 0.902767 
0.533457 0.664962 0.0678465 0.480653 0.141619 
0.0418059 0.484474 0.336379 0.234722 0.840065 
0.417241 0.115568 0.416064 0.303162 0.24529 
0.334089 0.884667 0.438937 0.671243 0.40056 
0.147632 0.958832 0.479822 0.890809 0.813593 
0.142459 0.714863 0.378168 0.563454 0.158476 
0.403957 0.632884 0.844511 0.0600533 0.498972 
0.574348 0.963892 0.783425 0.0988392 0.317635 
0.78817 0.435297 0.816887 0.827087 0.868397 
0.390988 0.182916 0.499639 0.248504 0.654047 
0.152965 0.872308 0.862259 0.504318 0.748319 
0.975727 0.751976 0.650623 0.874942 0.782366 
0.134152 0.283581 0.650747 0.294085 0.181656 
0.760312 0.22619 0.717556 0.230571 0.33139 
0.977254 0.590047 0.622475 0.534479 0.126055 
0.475111 0.662893 0.697088 0.290464 0.499835 
0.181601 0.386292 0.0776751 0.582645 0.327701 
0.211625 0.491368 0.210329 0.315094 0.878897 
0.505046 0.00717405 0.149861 0.176247 0.74825 
0.695912 0.67148 0.703247 0.416872 0.383868 
0.540332 0.798693 0.263152 0.709669 0.437567 
0.000404438 0.025219 0.355433 0.556346 0.348178 
0.954793 0.5551 0.598436 0.919224 0.0636965 
0.932501 0.257485 0.378978 0.941476 0.0417569 
0.904691 0.349861 0.154698 0.203618 0.187835 
0.346624 0.455206 0.929228 0.723086 0.796496 
0.547933 0.500135 0.194257 0.419742 0.752794 
0.894459 0.384142 0.0394188 0.812218 0.58856 
0.376499 0.538486 0.596688 0.637693 0.975341 
0.465465 0.48445 0.380151 0.592289 0.201486 
0.402402 0.837626 0.331621 0.66174 0.448787 
0.0584201 0.0508425 0.195819 0.889987 0.347579 
0.678197 0.255803 0.104782 0.0825407 0.80792 
0.354526 0.326126 0.839752 0.302776 0.87438 
0.760158 0.472751 0.0739739 0.350418 0.903241 
0.169781 0.10363 0.273685 0.736182 0.15884 
0.473488 0.964097 0.421862 0.130898 0.684217 
0.546503 0.45228 0.856224 0.627465 0.464141 
0.723328 0.0372722 0.338115 0.40489 0.663755 
0.104804 0.33506 0.0128906 0.0762465 0.889032 
0.279038 0.527279 0.666026 0.08581 0.404789 
0.578907 0.0108032 0.186117 0.792888 0.155061 
0.208387 0.215685 0.0416536 0.693063 0.437904 
0.248873 0.105465 0.881989 0.130771 0.478386 
0.819824 0.763386 0.0874972 0.462008 0.115618 
0.890499 0.57516 0.749699 0.301014 0.30585 
0.904725 0.767232 0.995894 0.855349 0.698221 
0.223326 0.53058 0.466707 0.344782 0.253697 
0.120147 0.392757 0.88483 0.0445756 0.781398 
0.185869 0.636443 0.267552 0.818948 0.745719 
0.120145 0.741601 0.92901 0.962759 0.129699 
0.448651 0.710575 0.394357 0.732461 0.052219 
0.240886 0.2489 0.989303 0.812452 0.423065 
0.399977 0.884408 0.686886 0.0854653 0.363664 
0.954863 0.241844 0.337977 0.65504 0.418502 
0.595941 0.837476 0.513768 0.240525 0.499736 
0.729376 0.324487 0.259441 0.356206 0.4286 
0.0796167 0.416603 0.4083 0.904706 0.958556 
0.56141 0.0139327 0.91585 0.807586 0.3739 
0.745769 0.342985 0.786735 0.810377 0.870552 
0.378213 0.63398 0.738802 0.893616 0.984467 
0.306895 0.00663101 0.624426 0.427456 0.515069 
0.311733 0.18381 0.771126 0.743424 0.161646 
0.383655 0.433922 0.14813 0.956852 0.632462 
0.437698 0.201255 0.587992 0.93709 0.356017 
0.811201 0.0544551 0.782744 0.51183 0.578352 
0.648435 0.789459 0.250616 0.636131 0.906495 
0.664291 0.0638423 0.915015 0.814272 0.264321 
0.886756 0.578535 0.100421 0.657876 0.234628 
0.720447 0.239143 0.450558 0.0189517 0.831666 
0.00822045 0.67776 0.728807 0.957971 0.676133 
0.857969 0.680154 0.453225 0.669871 0.20193 
0.335218 0.937891 0.675789 0.550922 0.746765 
0.094767 0.465115 0.0618154 0.332037 0.356386 
0.402547 0.52121 0.612366 0.872248 0.04727 
0.172946 0.771701 0.167494 0.837574 0.21994 
0.638836 0.079318 0.315413 0.33831 0.906382 
0.246634 0.95844 0.877673 0.53667 0.0879926 
0.953403 0.0547224 0.164058 0.314817 0.367759 
0.560251 0.859679 0.6157 0.475745 0.424872 
0.519667 0.194507 0.870854 0.118395 0.992584 
0.203342 0.591974 0.762516 0.349274 0.30031 
0.162776 0.634112 0.521882 0.0710979 0.221804 
0.360215 0.520485 0.339427 0.794664 0.501688 
0.362354 0.959017 0.87961 0.254557 0.399359 
0.827607 0.193157 0.857354 0.193488 0.349909 
0.792991 0.481198 0.826101 0.894302 0.769277 
0.429428 0.862528 0.524888 0.68494 0.397659 
0.926941 0.0700449 0.660865 0.408456 0.575257 
0.500128 0.00777303 0.749949 0.555655 0.724051 
0.76299 0.170367 0.97139 0.453291 0.214825 
0.998862 0.410346 0.575536 0.248984 0.930461 
0.451568 0.499992 0.346713 0.847556 0.901812 
0.455067 0.1944 0.586705 0.908248 0.41388 
0.00895144 0.674397 0.874772 0.257468 0.584244 
0.517049 0.696786 0.261519 0.702641 0.450916 
0.689606 0.469837 0.00838079 0.944764 0.850411 
0.913319 0.499126 0.407994 0.775124 0.704197 
0.192146 0.313861 0.775329 0.797042 0.0787601 
0.193876 0.768937 0.611151 0.881117 0.411796 
0.989362 0.331755 0.432673 0.591659 0.572924 
0.212555 0.280407 0.191732 0.0432665 0.51893 
0.372969 0.601643 0.239888 0.541731 0.355499 
0.178023 0.427054 0.410952 0.0498959 0.967152 
0.20513 0.372528 0.726283 0.159227 0.745225 
0.139329 0.656955 0.852523 0.845081 0.289425 
0.690487 0.955625 0.64515 0.392437 0.486166 
0.494511 0.20159 0.856586 0.527467 0.69858 
0.673342 0.114043 0.124015 0.857037 0.630201 
0.973108 0.0380042 0.905615 0.44173 0.601306 
0.424155 0.426069 0.271175 0.0633074 0.247522 
0.714242 0.498699 0.037682 0.949945 0.426457 
0.483792 0.156267 0.351774 0.569926 0.15981 
0.529279 0.693991 0.43331 0.139772 0.655 
0.258398 0.983347 0.911516 0.703914 0.620913 
0.998102 0.537886 0.235975 0.521961 0.332441 
0.0279296 0.427897 0.319969 0.881299 0.503158 
0.18659 0.527812 0.523688 0.57837 0.683502 
0.485264 0.5138 0.588594 0.256955 0.296047 
0.429622 0.70857 0.899885 0.89192 0.627983 
0.415317 0.234545 0.694208 0.951674 0.849646 
0.845649 0.862439 0.218319 0.351792 0.369402 
0.684307 0.665737 0.153469 0.44805 0.669883 
0.926337 0.767361 0.695101 0.0182818 0.540892 
0.383111 0.911731 0.648536 0.764721 0.436672 
0.0906133 0.0422461 0.380774 0.597496 0.382604 
0.422546 0.856522 0.344236 0.240318 0.031163 
0.0694818 0.319725 0.136328 0.0136671 0.596569 
0.607813 0.329263 0.596751 0.715039 0.629158 
0.929 0.490392 0.344838 0.252287 0.279772 
0.480515 0.401289 0.851847 0.94983 0.160276 
0.254987 0.853849 0.0395034 0.267399 0.0143095 
0.591714 0.0898898 0.0119823 0.244685 0.533198 
0.307614 0.178059 0.819654 0.695084 0.727324 
0.475259 0.739296 0.474649 0.664031 0.678658 
0.231827 0.572912 0.7317 0.0828202 0.186265 
0.0267266 0.342234 0.22115 0.107309 0.10314 
0.1608 0.964934 0.956655 0.858743 0.766157 
0.98504 0.155795 0.608448 0.516561 0.400752 
0.428425 0.843412 0.570653 0.46634 0.629296 
0.92775 0.258095 0.460021 0.919493 0.622892 
0.154927 0.160919 0.0822249 0.678617 0.208849 
0.899129 0.0885486 0.643628 0.973707 0.381883 
0.983041 0.299833 0.636262 0.753011 0.939529 
0.987194 0.729129 0.81216 0.645489 0.40804 
0.872125 0.472967 0.93358 0.341011 0.839652 
0.116279 0.681427 0.282136 0.758749 0.403706 
0.389303 0.935372 0.291343 0.604392 0.233465 
0.955624 0.799602 0.798744 0.161367 0.196303 
0.331263 0.0133616 0.317194 0.141716 0.787967 
0.679646 0.716015 0.436795 0.910796 0.910138 
0.0818054 0.870769 0.322973 0.194594 0.563298 
0.926879 0.2775 0.0564828 0.947989 0.141537 
0.5217 0.689049 0.110812 0.99469 0.189298 
0.223955 0.518003 0.758106 0.383114 0.692247 
0.156043 0.374877 0.710921 0.354931 0.814125 
0.817601 0.108528 0.233099 0.195452 0.262104 
0.568992 0.0803503 0.0274683 0.482008 0.111033 
0.750529 0.497268 0.322601 0.712503 0.988714 
0.865106 0.786463 0.0381481 0.481099 0.572967 
0.788741 0.641102 0.119587 0.690221 0.204314 
0.276879 0.0626248 0.00904225 0.281338 0.637114 
0.534315 0.658844 0.208072 0.114605 0.11776 
0.596903 0.360519 0.592116 0.400456 0.899102 
0.672753 0.556731 0.638926 0.477526 0.412283 
0.800754 0.321488 0.383186 0.50628 0.240784 
0.513613 0.989801 0.935268 0.0865104 0.450483 
0.964142 0.157408 0.6529 0.531714 0.6511 
0.906572 0.930853 0.427612 0.702424 0.178345 
0.346655 0.596836 0.421964 0.347099 0.8006 
0.01298 0.821143 0.921525 0.436659 0.76737 
0.378741 0.259636 0.922838 0.34348 0.0476803 
0.834097 0.652711 0.140745 0.488932 0.353231 
0.285426 0.756573 0.636799 0.0883484 0.270626 
0.374908 0.529784 0.836215 0.497599 0.812515 
0.683969 0.498503 0.479377 0.981268 0.130326 
0.155099 0.716985 0.296166 0.284341 0.730056 
0.619588 0.867971 0.724578 0.0615524 0.664006 
0.573744 0.420217 0.837954 0.125284 0.159484 
0.0971816 0.791076 0.742527 0.348643 0.680334 
0.0659805 0.260558 0.483533 0.377695 0.456137 
0.597884 0.693294 0.779416 0.374635 0.534747 
0.0209178 0.864526 0.407609 0.373828 0.557886 
0.0145933 0.565029 0.892378 0.933334 0.529185 
0.0229331 0.46753 0.664256 0.272882 0.451355 
0.661345 0.891789 0.435875 0.369247 0.2086 
0.125281 0.0610361 0.427574 0.338383 0.910668 
0.188516 0.319999 0.104177 0.844833 0.314939 
0.489597 0.476133 0.990193 0.178488 0.816303 
0.815433 0.288197 0.351981 0.0963897 0.794098 
0.0804944 0.434517 0.558257 0.762463 0.342977 
0.687663 0.23572 0.874767 0.160383 0.438045 
0.473065 0.119752 0.283172 0.649723 0.378625 
0.698844 0.892715 0.713203 0.974616 0.945236 
0.227854 0.682431 0.758359 0.598015 0.792265 
0.441334 0.378856 0.415575 0.0546614 0.741293 
0.885877 0.775264 0.449803 0.312984 0.382109 
0.521624 0.611893 0.0835387 0.632946 0.183163 
0.0900205 0.758097 0.696437 0.850602 0.871926 
0.135087 0.209903 0.0142234 0.933911 0.4888 
0.745403 0.694321 0.511813 0.595408 0.799487 
0.500112 0.142215 0.309754 0.432409 0.0713579 
0.327438 0.597759 0.217958 0.679484 0.780844 
0.193516 0.72176 0.544806 0.474652 0.553935 
0.735342 0.256258 0.631788 0.282599 0.46296 
0.509562 0.180471 0.220012 0.738078 0.718477 
0.815809 0.636743 0.733862 0.652182 0.17478 
0.195115 0.461686 0.0094133 0.368823 0.282522 
0.096534 0.399901 0.315235 0.0864013 0.72781 
0.46562 0.093412 0.22566 0.427811 0.864229 
0.600059 0.697287 0.469704 0.295235 0.115492 
0.0988677 0.669787 0.838176 0.54818 0.012065 
0.231329 0.60334 0.806636 0.59567 0.953727 
0.437231 0.215705 0.235828 0.0872707 0.331218 
0.617653 0.0318037 0.707473 0.0587474 0.496408 
0.746641 0.50085 0.590071 0.154503 0.387823 
0.0337981 0.504456 0.748042 0.63984 0.0252482 
0.135983 0.572319 0.434196 0.594545 0.311212 
0.990449 0.616563 0.36193 0.210681 0.392499 
0.684605 0.879591 0.768213 0.955439 0.265194 
0.878889 0.946623 0.924069 0.655686 0.750402 
0.321373 0.0315486 0.0634304 0.360919 0.114009 
0.998871 0.419066 0.329352 0.96417 0.927222 
0.710829 0.298719 0.482223 0.979123 0.684387 
0.935163 0.201425 0.816534 0.554604 0.505575 
0.341412 0.181656 0.983855 0.0211026 0.546585 
0.367179 0.457567 0.670975 0.384277 0.538423 
0.443924 0.722272 0.689447 0.300507 0.54803 
0.440311 0.612231 0.634347 0.830956 0.961874 
0.726427 0.484346 0.321349 0.134373 0.783054 
0.446658 0.766169 0.513536 0.810721 0.446541 
0.217862 0.411777 0.364681 0.359246 0.577939 
0.804934 0.927365 0.308611 0.483984 0.238285 
0.804237 0.417114 0.547468 0.855928 0.172318 
0.24903 0.559418 0.349049 0.785537 0.924895 
0.633174 0.913684 0.982744 0.187114 0.883332 
0.00281278 0.337856 0.178292 0.0454833 0.859498 
0.234916 0.945449 0.740801 0.719804 0.41951 
0.486117 0.526356 0.553343 0.982852 0.474028 
0.675773 0.192448 0.632921 0.423925 0.554142 
0.555672 0.737303 0.736999 0.18333 0.91976 
0.61217 0.980311 0.862193 0.6501 0.177646 
0.230212 0.998753 0.147219 0.949868 0.260362 
0.608178 0.366425 0.644567 0.696393 0.510521 
0.473485 0.853747 0.0468552 0.93597 0.880639 
0.0373395 0.297728 0.662381 0.536783 0.452826 
0.458103 0.731609 0.0970561 0.791706 0.0594846 
0.718903 0.349839 0.250572 0.553661 0.227391 
0.465614 0.528023 0.0644713 0.473624 0.821689 
0.736796 0.728547 0.0396076 0.567311 0.61003 
0.0456105 0.324456 0.137287 0.796892 0.8495 
0.468376 0.352248 0.0643601 0.806906 0.0569596 
0.752474 0.733678 0.882162 0.598722 0.216057 
0.915553 0.609564 0.898727 0.961135 0.0655211 
0.944821 0.0254619 0.148344 0.977581 0.224984 
0.497169 0.440352 0.705475 0.174671 0.444063 
0.409984 0.381048 0.919573 0.746065 0.26791 
0.227908 0.719126 0.989052 0.465843 0.112404 
0.229473 0.0214487 0.00940276 0.679983 0.825616 
0.751001 0.522773 0.0019209 0.425238 0.433347 
0.791912 0.367186 0.728953 0.284815 0.535985 
0.251717 0.799251 0.632287 0.504323 0.124545 
0.860859 0.682246 0.471647 0.0498154 0.691422 
0.80206 0.949634 0.844511 0.679417 0.00767672 
0.098132 0.731914 0.00994419 0.381285 0.216497 
0.785631 0.35272 0.236953 0.430926 0.53205 
0.819319 0.600985 0.665157 0.675944 0.780695 
0.160897 0.395677 0.843536 0.00305338 0.438284 
0.873388 0.660552 0.0821401 0.794649 0.518469 
0.461832 0.38946 0.586655 0.385192 0.53623 
0.550969 0.493518 0.061909 0.481957 0.835838 
0.602491 0.868203 0.137073 0.657245 0.977318 
0.649311 0.636918 0.112801 0.886809 0.754168 
0.293538 0.787508 0.111669 0.365218 0.498022 
0.654265 0.875497 0.765676 0.917205 0.536281 
0.127395 0.860536 0.19299 0.849547 0.935566 
0.0848178 0.49789 0.438596 0.117463 0.803617 
0.394142 0.461142 0.294182 0.39934 0.601858 
0.181292 0.35299 0.15145 0.827824 0.865296 
0.242659 0.185705 0.169348 0.648819 0.717297 
0.10319 0.059634 0.346751 0.68875 0.757831 
0.520619 0.383091 0.157814 0.51593 0.974301 
0.799021 0.87751 0.274866 0.33311 0.0729516 
0.339252 0.0870143 0.255798 0.271964 0.269778 
0.444535 0.988496 0.45185 0.786888 0.933607 
0.113941 0.531344 0.257433 0.36652 0.91817 
0.103756 0.564553 0.777676 0.104803 0.600738 
0.189385 0.815592 0.464614 0.657848 0.387182 
0.719996 0.528262 0.852156 0.633022 0.101399 
0.712279 0.873392 0.135129 0.744269 0.803525 
0.0493412 0.280118 0.597622 0.702649 0.161225 
0.797152 0.937366 0.870283 0.0575222 0.598338 
0.268071 0.291282 0.657094 0.805019 0.94565 
0.695111 0.300024 0.0345247 0.338592 0.227947 
0.281274 0.637649 0.928629 0.384626 0.993692 
0.850842 0.0148302 0.673833 0.863325 0.208525 
0.125082 0.173174 0.382901 0.504163 0.196326 
0.552446 0.19769 0.0304393 0.449376 0.0973476 
0.57927 0.138264 0.0834493 0.142415 0.569745 
0.49745 0.834857 0.533895 0.989783 0.903862 
0.0249601 0.770327 0.351073 0.948742 0.5454 
0.132818 0.200835 0.736357 0.377613 0.569248 
0.992847 0.67539 0.806222 0.411128 0.240728 
0.237606 0.812006 0.108909 0.0209253 0.870555 
0.552948 0.729563 0.0242942 0.37074 0.0958221 
0.0509767 0.564457 0.715111 0.93758 0.684728 
0.0332917 0.0580358 0.855147 0.789876 0.961353 
0.80758 0.534337 0.137091 0.493352 0.20776 
0.264753 0.131157 0.123016 0.495143 0.493314 
0.357271 0.692346 0.637609 0.80924 0.17148 
0.0773497 0.908036 0.73442 0.806448 0.651624 
0.914677 0.460167 0.00157484 0.0839106 0.386159 
0.0583246 0.369318 0.927732 0.127263 0.196868 
0.849132 0.460684 0.550183 0.150468 0.973961 
0.68712 0.0790374 0.0730837 0.614355 0.763556 
0.722281 0.725776 0.357959 0.430398 0.214813 
0.105215 0.0540074 0.710308 0.061002 0.289271 
0.118208 0.0390715 0.420857 0.16917 0.631535 
0.156248 0.684356 0.194858 0.355968 0.919435 
0.712513 0.258457 0.00523682 0.33919 0.63068 
0.791777 0.413178 0.933373 0.352837 0.314529 
0.884563 0.641886 0.657644 0.641763 0.0340248 
0.510957 0.456833 0.933326 0.0856561 0.00428447 
0.169904 0.854402 0.46887 0.484456 0.042606 
0.448924 0.815525 0.228231 0.787978 0.95604 
0.218875 0.0437207 0.877229 0.314887 0.844055 
0.774379 0.389101 0.223954 0.233083 0.00134129 
0.177574 0.0802134 0.73794 0.0587927 0.550597 
0.19944 0.228754 0.697736 0.544077 0.361391 
0.0500728 0.491377 0.829988 0.220789 0.388968 
0.229189 0.821028 0.995033 0.896798 0.325991 
0.609534 0.0472621 0.382458 0.202015 0.720174 
0.0942275 0.301759 0.460797 0.991141 0.759494 
0.989325 0.14087 0.290072 0.0802109 0.356025 
0.643376 0.434281 0.847796 0.596631 0.141236 
0.925738 0.492017 0.719813 0.966269 0.47423 
0.413526 0.786778 0.33065 0.0426151 0.172853 
0.988245 0.42445 0.285799 0.251929 0.691187 
0.516979 0.425833 0.995643 0.352583 0.760474 
0.494348 0.76521 0.0403816 0.905027 0.655828 
0.430221 0.0724276 0.436255 0.442548 0.621235 
0.689623 0.315679 0.98815 0.131238 0.886446 
0.303508 0.460617 0.470807 0.709048 0.826216 
0.466356 0.142258 0.415163 0.0794793 0.691437 
0.497751 0.102326 0.182124 0.0792603 0.0724964 
0.967446 0.0967738 0.244992 0.877702 0.809462 
0.894582 0.394661 0.205088 0.923096 0.117617 
0.343335 0.415996 0.0806625 0.00851963 0.889426 
0.953052 0.167275 0.0509771 0.344265 0.100995 
0.327145 0.90204 0.610411 0.615742 0.207709 
0.702824 0.390036 0.897753 0.993634 0.818429 
0.325086 0.397981 0.34271 0.241214 0.944863 
0.570311 0.63945 0.4228 0.123958 0.756145 
0.214099 0.282092 0.431866 0.557113 0.417581 
0.493722 0.314539 0.75743 0.777399 0.421944 
0.42253 0.0557126 0.620692 0.624194 0.406593 
0.382434 0.648346 0.384213 0.324883 0.630786 
0.374186 0.0162517 0.231874 0.617339 0.108068 
0.156291 0.150088 0.775955 0.428323 0.561776 
0.958037 0.309899 0.655987 0.730259 0.331159 
0.975526 0.697812 0.55413 0.52383 0.140905 
0.362667 0.379372 0.923452 0.129814 0.481364 
0.686153 0.628098 0.959074 0.677229 0.883514 
0.294187 0.182723 0.918272 0.466676 0.924516 
0.214377 0.552647 0.474863 0.810799 0.276544 
0.629131 0.286512 0.551993 0.33342 0.928435 
0.51281 0.211369 0.828148 0.424163 0.994283 
0.71431 0.851571 0.713617 0.556202 0.469752 
0.969901 0.125732 0.313655 0.136145 0.644008 
0.243408 0.648612 0.347352 0.489567 0.852728 
0.314716 0.300829 0.0463094 0.430791 0.838935 
0.623286 0.966352 0.477552 0.855757 0.864673 
0.724158 0.68722 0.923361 0.0222618 0.765026 
0.310266 0.895938 0.179962 0.0844952 0.482206 
0.0454368 0.709325 0.888871 0.454859 0.934805 
0.601454 0.876431 0.130841 0.103624 0.836651 
0.751384 0.478092 0.725332 0.284089 0.0130591 
0.725077 0.429995 0.65632 0.285601 0.194677 
0.656916 0.244318 0.868387 0.628984 0.0426685 
0.519412 0.0890668 0.782087 0.560824 0.663533 
0.551938 0.139596 0.0460818 0.900827 0.475851 
0.382489 0.376105 0.753012 0.0452755 0.0475776 
0.668744 0.274602 0.0630776 0.0739115 0.925011 
0.476595 0.598976 0.00139824 0.0528565 0.270315 
0.333433 0.708838 0.910127 0.47358 0.566451 
0.172028 0.246507 0.705018 0.206759 0.275833 
0.5794 0.835725 0.67655 0.684683 0.217773 
0.725351 0.551206 0.548878 0.381588 0.48084 
0.470636 0.698615 0.796297 0.456766 0.888273 
0.480529 0.686638 0.20026 0.404382 0.541751 
0.685111 0.0329186 0.574381 0.464321 0.547206 
0.209038 0.554777 0.303075 0.769397 0.177317 
0.126418 0.427509 0.57458 0.257994 0.158854 
0.684356 0.176476 0.866248 0.822175 0.557068 
0.0789452 0.463366 0.507629 0.808549 0.527087 
0.342196 0.72435 0.171713 0.514521 0.262649 
0.236873 0.493334 0.987216 0.825645 0.255422 
0.936556 0.742698 0.978248 0.0567907 0.547335 
0.496455 0.976265 0.622751 0.716118 0.540396 
0.988714 0.731424 0.939439 0.683106 0.43866 
0.943148 0.314341 0.700285 0.778316 0.356321 
0.659981 0.621028 0.347435 0.861263 0.642307 
0.152902 0.394659 0.364337 0.552325 0.432586 
0.701304 0.987395 0.805845 0.983935 0.199639 
0.40048 0.181652 0.749554 0.968267 0.365991 
0.136366 0.794031 0.308063 0.962911 0.841663 
0.544244 0.576449 0.413736 0.254267 0.136458 
0.077108 0.689539 0.191374 0.179484 0.62998 
0.0186597 0.406515 0.225171 0.173595 0.290748 
0.141725 0.781914 0.696253 0.206163 0.142675 
0.0575283 0.169388 0.848155 0.538504 0.927912 
0.968762 0.453026 0.256097 0.506459 0.980921 
0.0144318 0.531729 0.230365 0.245424 0.419711 
0.0592209 0.725436 0.675353 0.445657 0.088608 
0.306619 0.671829 0.921405 0.512445 0.958252 
0.374796 0.626103 0.860188 0.856982 0.697614 
0.409858 0.071871 0.898327 0.586137 0.00516189 
0.267839 0.203369 0.663574 0.103359 0.161708 
0.586321 0.15693 0.51957 0.997697 0.970256 
0.601767 0.591696 0.862106 0.033384 0.324319 
0.00410324 0.717755 0.427973 0.542455 0.0394517 
0.847077 0.147474 0.242059 0.74326 0.608733 
0.764749 0.17999 0.169423 0.0767871 0.671251 
0.58942 0.0733998 0.659778 0.596988 0.868661 
0.312648 0.475067 0.240138 0.773969 0.00846946 
0.71061 0.936221 0.647722 0.794853 0.535596 
0.665298 0.0208594 0.965393 0.769437 0.175815 
0.185875 0.0659657 0.472801 0.154673 0.774117 
0.363736 0.591267 0.403153 0.334092 0.0526017 
0.763529 0.701149 0.0896738 0.866903 0.562422 
0.6602 0.848292 0.322918 0.945982 0.211342 
0.220655 0.640453 0.0919717 0.421003 0.639222 
0.599559 0.0796241 0.947147 0.804992 0.933959 
0.310459 0.982507 0.908871 0.769457 0.495231 
0.846381 0.500561 0.880971 0.81723 0.328482 
0.883743 0.8273 0.778929 0.713977 0.351307 
0.920943 0.370077 0.104722 0.870145 0.896042 
0.61807 0.751469 0.523448 0.276379 0.704166 
0.616575 0.921704 0.356593 0.748481 0.506123 
0.433297 0.989189 0.129815 0.937515 0.476988 
0.115062 0.160777 0.244507 0.113813 0.88889 
0.801133 0.873558 0.852587 0.355652 0.591439 
0.640654 0.556207 0.705276 0.229407 0.0845446 
0.751499 0.660462 0.996716 0.967988 0.739885 
0.658774 0.43289 0.584384 0.133324 0.0773117 
0.665916 0.329276 0.15681 0.262704 0.700069 
0.933445 0.656317 0.0490762 0.472959 0.577468 
0.837764 0.325415 0.493072 0.23884 0.117775 
0.768562 0.0203657 0.342939 0.471545 0.133289 
0.364128 0.0973699 0.105669 0.400035 0.960324 
0.0376538 0.212495 0.951834 0.158438 0.818173 
0.421939 0.032666 0.982275 0.393114 0.21762 
0.63485 0.277469 0.949048 0.943652 0.104329 
0.270016 0.653529 0.11278 0.850374 0.0403539 
0.519135 0.165951 0.125256 0.00556506 0.667649 
0.606958 0.408362 0.813645 0.710639 0.895957 
0.988972 0.293861 0.969598 0.189398 0.0874409 
0.494331 0.53421 0.471752 0.182805 0.159857 
0.560856 0.583049 0.631301 0.270863 0.669791 
0.161325 0.142744 0.586184 0.351643 0.516618 
0.172085 0.381037 0.842043 0.138971 0.461543 
0.761111 0.704928 0.259509 0.693218 0.727313 
0.236121 0.77388 0.255591 0.776603 0.357934 
0.378738 0.488977 0.885169 0.834984 0.783667 
0.380218 0.288902 0.490677 0.812361 0.665917 
0.380376 0.101127 0.908487 0.939607 0.709462 
0.355156 0.750966 0.46567 0.946378 0.551492 
0.748828 0.67649 0.272176 0.11009 0.449501 
0.510589 0.212568 0.0634105 0.235549 0.86003 
0.376411 0.875832 0.0143311 0.0652455 0.157226 
0.769023 0.778692 0.696334 0.444408 0.765367 
0.340159 0.266068 0.635845 0.0794358 0.109122 
