2500 5
0.52129 0.388572 0.686965 0.580697 0.223148 
0.550658 0.355624 0.511749 0.692058 0.638994 
0.0270537 0.176454 0.379639 0.626714 0.577536 
0.86747 0.777175 0.799096 0.159209 0.0504612 
0.404753 0.791746 0.750703 0.79939 0.994834 
0.640375 0.468362 0.75487 0.968073 0.167233 
0.656776 0.0172638 0.978321 0.57765 0.620995 
0.314285 0.591401 0.139338 0.318369 0.760499 
0.962941 0.825046 0.403339 0.475581 0.284797 
0.301415 0.30373 0.939587 0.609726 0.477577 
0.670363 0.460882 0.770063 0.266313 0.541616 
0.968066 0.658297 0.679038 0.656794 0.398677 
0.243975 0.952775 0.47773 0.456619 0.393002 
0.77989 0.583678 0.358104 0.345037 0.949106 
0.407897 0.0555246 0.711626 0.62879 0.0648719 
0.261848 0.700504 0.348403 0.847726 0.0208631 
0.571422 0.0129367 0.604684 0.225255 0.276734 
0.564096 0.999116 0.277869 0.471223 0.387106 
0.421167 0.64738 0.871784 0.982619 0.745529 
0.600787 0.0372302 0.37752 0.172273 0.731664 
0.979127 0.505614 0.437273 0.517406 0.709317 
0.154239 0.242029 0.916472 0.370039 0.703929 
0.557469 0.76772 0.0487043 0.134452 0.876065 
0.00466255 0.145442 0.0961865 0.555831 0.790211 
0.31823 0.775415 0.350163 0.906287 0.673865 
0.776355 0.608717 0.137838 0.436609 0.27438 
0.897088 0.996585 0.491501 0.665358 0.982652 
0.282055 0.148702 0.76588 0.400867 0.299937 
0.912323 0.990912 0.90587 0.887325 0.551518 
0.174446 0.816343 0.922492 0.681959 0.912141 
0.0762938 0.890487 0.259148 0.208996 0.021999 
0.446634 0.995518 0.557045 0.571952 0.0166755 
0.980784 0.975464 0.285812 0.488615 0.700164 
0.935272 0.0987456 0.579336 0.283229 0.558104 
0.224778 0.00806646 0.254638 0.719399 0.451713 
0.75718 0.153099 0.974695 0.220198 0.241509 
0.418781 0.914642 0.366892 0.92136 0.883879 
0.616742 0.357145 0.799687 0.401426 0.443917 
0.823901 0.388628 0.729642 0.112675 0.518243 
0.268734 0.481141 0.434231 0.38959 0.19276 
0.332188 0.341585 0.569687 0.802126 0.0735282 
0.725842 0.285671 0.0159428 0.24997 0.843312 
0.293343 0.0875984 0.394414 0.357611 0.532351 
0.666137 0.195501 0.662 0.413203 0.935442 
0.467509 0.863447 0.232018 0.563215 0.112009 
0.931145 0.996043 0.344665 0.297274 0.556 
0.371175 0.886359 0.78135 0.182319 0.497217 
0.458932 0.216291 0.170528 0.165319 0.561613 
0.452645 0.622778 0.16557 0.617828 0.155404 
0.865928 0.768308 0.36298 0.2717 0.520505 
0.212904 0.452637 0.320028 0.755644 0.502441 
0.543942 0.95103 0.141869 0.179623 0.123053 
0.906599 0.233964 0.169102 0.520101 0.0919203 
0.0824395 0.108173 0.128753 0.798772 0.599641 
0.853801 0.294453 0.373876 0.639347 0.862456 
0.931456 0.685253 0.327742 0.967464 0.627225 
0.215161 0.764352 0.335902 0.812549 0.286218 
0.16743 0.836093 0.278833 0.803274 0.612825 
0.61974 0.952831 0.296307 0.3764 0.181636 
0.248392 0.524465 0.800677 0.0700742 0.231949 
0.414193 0.551002 0.501993 0.546747 0.757132 
0.714697 0.893824 0.923783 0.0592419 0.941009 
0.351941 0.034731 0.294461 0.593805 0.0993747 
0.0538998 0.682839 0.0368435 0.308389 0.631649 
0.476937 0.694701 0.998177 0.182165 0.691853 
0.798534 0.560959 0.0320818 0.930574 0.0654977 
0.573051 0.974626 0.826386 0.624929 0.217513 
0.560591 0.711825 0.953688 0.983538 0.81185 
0.941939 0.931921 0.755121 0.817327 0.177274 
0.494334 0.117028 0.462032 0.985362 0.42196 
0.418944 0.42345 0.593365 0.968372 0.547846 
0.748709 0.558513 0.462872 0.683091 0.21506 
0.0556419 0.61881 0.0220855 0.851498 0.622142 
0.11732 0.646058 0.597023 0.475105 0.568432 
0.534433 0.0741768 0.831447 0.237497 0.430178 
0.340853 0.148854 0.914379 0.125988 0.813471 
0.371843 0.0214201 0.801196 0.402772 0.00679105 
0.832418 0.615496 0.729982 0.984558 0.5644 
0.49626 0.753324 0.614571 0.254913 0.461586 
0.695318 0.538634 0.365636 0.906424 0.0246205 
0.660617 0.256256 0.69707 0.0783134 0.685645 
0.116584 0.379498 0.699183 0.281008 0.20718 
0.654107 0.146983 0.622722 0.724981 0.176809 
0.837842 0.0306231 0.114579 0.33981 0.248622 
0.614894 0.133599 0.278055 0.874624 0.946447 
0.0920552 0.983286 0.431106 0.861912 0.472888 
0.313411 0.607944 0.597949 0.1747 0.75599 
0.0887489 0.110078 0.803721 0.507697 0.212753 
0.0502529 0.331574 0.586957 0.532957 0.370904 
0.256441 0.503682 0.69478 0.402109 0.42641 
0.225013 0.484695 0.24186 0.45108 0.686627 
0.600214 0.950333 0.818085 0.386603 0.605204 
0.516456 0.697851 0.853197 0.396969 0.172265 
0.451431 0.39493 0.233313 0.625847 0.951748 
0.925712 0.605057 0.797595 0.466606 0.955375 
0.0848335 0.0132463 0.95538 0.0549187 0.400291 
0.132126 0.748918 0.841984 0.405008 0.913835 
0.483749 0.786411 0.49549 0.386601 0.844752 
0.0703397 0.509653 0.718095 0.662933 0.774257 
0.0834036 0.340714 0.841991 0.16335 0.399079 
0.140638 0.0267847 0.162431 0.88075 0.530778 
0.848454 0.149539 0.610908 0.119633 0.48287 
0.0833486 0.617205 0.414219 0.110229 0.911132 
0.533891 0.899498 0.344152 0.186546 0.902011 
0.523803 0.557607 0.401918 0.838118 0.580614 
0.357137 0.568333 0.774756 0.0939406 0.209932 
0.904431 0.637731 0.76622 0.187202 0.647883 
0.0414935 0.645334 0.219991 0.333828 0.929621 
0.805578 0.967296 0.588083 0.914603 0.878591 
0.453871 0.223272 0.144877 0.977455 0.52658 
0.717292 0.772359 0.772368 0.569684 0.253228 
0.0504775 0.532228 0.0942601 0.00455453 0.478547 
0.485166 0.306715 0.184599 0.437127 0.793926 
0.299145 0.424869 0.59008 0.753725 0.594092 
0.81034 0.440472 0.517257 0.585707 0.820935 
0.460896 0.983135 0.659383 0.648154 0.997916 
0.954094 0.243231 0.625861 0.159582 0.709025 
0.926234 0.979913 0.0434485 0.387545 0.975314 
0.871373 0.646317 0.00839762 0.299474 0.774125 
0.921483 0.309798 0.283452 0.0529103 0.539839 
0.83102 0.289153 0.472961 0.411409 0.570621 
0.82892 0.601623 0.297824 0.446545 0.416779 
0.775334 0.553957 0.717326 0.326311 0.54216 
0.770716 0.905602 0.457284 0.965335 0.0571961 
0.00649857 0.845797 0.996752 0.368288 0.525364 
0.245554 0.757402 0.707279 0.855656 0.0937814 
0.514389 0.188599 0.0392066 0.832242 0.610737 
0.74168 0.945245 0.455551 0.742067 0.643917 
0.385478 0.691098 0.313453 0.695484 0.138308 
0.930411 0.796505 0.769095 0.887426 0.967747 
0.944668 0.861544 0.468484 0.195102 0.435935 
0.993597 0.540084 0.883196 0.148295 0.0181557 
0.464671 0.875551 0.983539 0.883438 0.406331 
0.940005 0.344223 0.734656 0.0810772 0.313983 
0.0772467 0.363195 0.550823 0.0748413 0.155482 
0.617687 0.232955 0.416389 0.880815 0.958994 
0.522116 0.900512 0.200696 0.880857 0.929327 
0.453246 0.40758 0.934904 0.530961 0.886688 
0.860583 0.572832 0.516127 0.969146 0.421197 
0.165502 0.571588 0.224592 0.570161 0.188698 
0.0479024 0.9693 0.686581 0.655305 0.889461 
0.547488 0.0593524 0.427255 0.820441 0.778588 
0.534163 0.781972 0.476722 0.313253 0.691866 
0.739303 0.63091 0.720315 0.736963 0.61494 
0.445729 0.0763492 0.280993 0.0250718 0.00947548 
0.466156 0.28656 0.141984 0.309335 0.538229 
0.976058 0.975364 0.15638 0.515687 0.454564 
0.0523744 0.757618 0.958726 0.232546 0.584071 
0.352341 0.345966 0.964288 0.618109 0.713964 
0.395271 0.837688 0.571299 0.372474 0.11013 
0.51501 0.0697766 0.988503 0.802559 0.247052 
0.534565 0.0163294 0.920636 0.618563 0.743182 
0.71809 0.983749 0.293899 0.745894 0.528251 
0.117576 0.48067 0.386283 0.425371 0.628115 
0.804484 0.785751 0.336066 0.91224 0.668236 
0.186522 0.634125 0.365217 0.169381 0.233323 
0.576127 0.783729 0.520889 0.767116 0.440107 
0.869414 0.408496 0.719282 0.787845 0.837292 
0.345791 0.339892 0.233849 0.40544 0.105784 
0.829043 0.601782 0.971851 0.625038 0.894859 
0.190459 0.051408 0.322296 0.904466 0.547629 
0.510269 0.428728 0.264825 0.881137 0.139099 
0.190118 0.0827749 0.52334 0.360752 0.364916 
0.2445 0.248288 0.293356 0.239304 0.195698 
0.906541 0.148409 0.213449 0.858922 0.70566 
0.784901 0.869447 0.980088 0.670215 0.272984 
0.323248 0.229332 0.501759 0.904228 0.603506 
0.18692 0.340352 0.704004 0.567145 0.57307 
0.956952 0.759993 0.990249 0.988532 0.334743 
0.0917014 0.507209 0.399106 0.0153244 0.931532 
0.349719 0.960403 0.930121 0.761395 0.0201619 
0.135736 0.996028 0.0348101 0.423439 0.779792 
0.870634 0.911689 0.473532 0.265226 0.853147 
0.759188 0.473153 0.0397651 0.117992 0.566778 
0.338483 0.423697 0.637589 0.507879 0.440787 
0.989064 0.117845 0.690429 0.965657 0.676512 
0.724025 0.400166 0.841467 0.891637 0.808501 
0.755532 0.780399 0.223831 0.491606 0.578947 
0.192378 0.0209623 0.0580913 0.973941 0.950779 
0.959489 0.585869 0.421212 0.219898 0.514166 
0.665779 0.854606 0.84946 0.116498 0.0177956 
0.639967 0.591849 0.622515 0.663263 0.585578 
0.837244 0.902324 0.583016 0.340342 0.439431 
0.381082 0.992185 0.313483 0.384708 0.301251 
0.430931 0.529533 0.593022 0.432954 0.0250104 
0.658355 0.659654 0.205564 0.122524 0.683524 
0.0135522 0.943682 0.701317 0.776015 0.705036 
0.572424 0.0607128 0.51716 0.627202 0.765293 
0.759645 0.0431785 0.235747 0.466234 0.338929 
0.106202 0.943598 0.56317 0.475912 0.0830126 
0.512341 0.0663978 0.343832 0.237288 0.104836 
0.509002 0.426426 0.311641 0.2499 0.403322 
0.446626 0.242035 0.752793 0.909996 0.311569 
0.914199 0.391167 0.853067 0.950045 0.324582 
0.542093 0.515605 0.931903 0.186355 0.616928 
0.947001 0.667579 0.638654 0.305945 0.607428 
0.765621 0.0910954 0.894843 0.875693 0.681656 
0.965502 0.63603 0.035186 0.393268 0.750822 
0.400109 0.137862 0.375076 0.43041 0.601888 
0.177302 0.0307499 0.156827 0.622169 0.280039 
0.678482 0.884565 0.0660866 0.93327 0.334198 
0.946902 0.936747 0.673489 0.957277 0.800782 
0.829364 0.724799 0.461445 0.378904 0.491879 
0.942387 0.48838 0.545365 0.625288 0.270197 
0.746946 0.629755 0.0615876 0.753984 0.447078 
0.211899 0.795149 0.461363 0.520969 0.0935328 
0.279053 0.152075 0.752906 0.449359 0.435604 
0.274834 0.768075 0.783749 0.985946 0.178906 
0.16209 0.417532 0.0981783 0.0662337 0.254732 
0.316745 0.649173 0.0824765 0.394293 0.47037 
0.47495 0.021584 0.337491 0.902877 0.228728 
0.585113 0.38762 0.689464 0.835669 0.388446 
0.409687 0.770206 0.594733 0.796858 0.0170806 
0.70448 0.656446 0.805262 0.756965 0.560619 
0.659205 0.455109 0.786469 0.653938 0.648206 
0.923379 0.394833 0.27261 0.863999 0.00580712 
0.404306 0.087308 0.990951 0.386746 0.685511 
0.0440451 0.77623 0.575818 0.350494 0.260101 
0.428842 0.158648 0.339522 0.280956 0.1866 
0.798218 0.263715 0.960436 0.239565 0.966192 
0.0310711 0.447754 0.703043 0.292401 0.403886 
0.742776 0.801546 0.402246 0.252947 0.148474 
0.205826 0.117821 0.106773 0.413436 0.247173 
0.905271 0.411433 0.712313 0.298354 0.959674 
0.863546 0.582777 0.528596 0.2347 0.730926 
0.773572 0.743713 0.73711 0.663576 0.632301 
0.760459 0.0966735 0.423734 0.99937 0.180544 
0.86757 0.792291 0.666333 0.500846 0.522434 
0.720211 0.170727 0.672591 0.546188 0.640804 
0.640828 0.748963 0.143677 0.941493 0.297443 
0.780909 0.7494 0.961432 0.949702 0.929458 
0.792923 0.911677 0.498426 0.225645 0.110863 
0.291256 0.188835 0.592249 0.764926 0.651854 
0.253294 0.635704 0.700916 0.433874 0.745792 
0.147086 0.980106 0.147957 0.766875 0.392773 
0.203774 0.0955069 0.5619 0.205359 0.469823 
0.399966 0.479364 0.533774 0.920849 0.755171 
0.407448 0.371197 0.0901522 0.33752 0.849461 
0.274096 0.890397 0.0124935 0.397596 0.631496 
0.646955 0.405612 0.515135 0.804512 0.61392 
0.299524 0.937637 0.0892043 0.856312 0.999425 
0.0701009 0.0599635 0.524582 0.293338 0.8056 
0.00293051 0.42559 0.166647 0.455878 0.415861 
0.131568 0.130656 0.170244 0.329841 0.824429 
0.0814095 0.163381 0.454889 0.258778 0.474658 
0.949865 0.69103 0.539393 0.706841 0.0229745 
0.70688 0.914276 0.404673 0.200097 0.453475 
0.0452455 0.878281 0.648284 0.700498 0.274278 
0.309016 0.403344 0.281653 0.249749 0.0258926 
0.543732 0.31885 0.985784 0.957762 0.424484 
0.287162 0.662805 0.986376 0.307718 0.625678 
0.570079 0.806218 0.519359 0.187132 0.351516 
0.35217 0.333101 0.459485 0.102598 0.655019 
0.619864 0.375229 0.770845 0.219126 0.181744 
0.617902 0.347944 0.0816911 0.904969 0.924009 
0.227846 0.736657 0.93722 0.780758 0.696335 
0.338765 0.587105 0.596636 0.652871 0.179234 
0.426911 0.668345 0.443001 0.472657 0.427466 
0.013527 0.329021 0.890473 0.0740232 0.109104 
0.870964 0.432658 0.0511306 0.627163 0.606577 
0.939765 0.531496 0.107327 0.722846 0.975193 
0.708136 0.308443 0.594772 0.0890608 0.0495845 
0.99368 0.53411 0.0700364 0.379676 0.206683 
0.214849 0.505953 0.594079 0.724736 0.615668 
0.0804208 0.70798 0.607931 0.899471 0.460579 
0.185286 0.333716 0.0802188 0.954519 0.762129 
0.240935 0.000168755 0.289197 0.380001 0.459856 
0.265446 0.498916 0.372494 0.920175 0.783221 
0.745692 0.687256 0.239469 0.274718 0.541737 
0.205382 0.998928 0.282106 0.439584 0.0818835 
0.611506 0.254134 0.18822 0.336181 0.141475 
0.835488 0.82899 0.236019 0.53398 0.303147 
0.712363 0.82899 0.444879 0.983251 0.596608 
0.119064 0.0667464 0.248698 0.633269 0.93237 
0.970506 0.2997 0.105955 0.0908595 0.405974 
0.0838499 0.409807 0.0678702 0.889675 0.820956 
0.707066 0.895206 0.179757 0.0583554 0.400672 
0.515054 0.0299377 0.4432 0.207504 0.959125 
0.768585 0.701259 0.651859 0.312918 0.777399 
0.416012 0.0355533 0.212402 0.693857 0.44033 
0.14591 0.916649 0.695175 0.989224 0.359209 
0.578451 0.718881 0.479043 0.252972 0.0346465 
0.598744 0.881801 0.550527 0.694598 0.214221 
0.466756 0.593692 0.150583 0.592123 0.357141 
0.614905 0.500458 0.51862 0.746397 0.146397 
0.281702 0.015674 0.76841 0.959515 0.0575657 
0.249943 0.0416979 0.0468217 0.323005 0.469666 
0.145029 0.5211 0.754902 0.0938193 0.212 
0.597351 0.0878859 0.436656 0.751687 0.367677 
0.914055 0.271659 0.595649 0.273191 0.572056 
0.174256 0.179099 0.500722 0.985815 0.297927 
0.161185 0.526659 0.578943 0.0245132 0.778236 
0.062281 0.49271 0.83168 0.689948 0.920994 
0.750147 0.0646248 0.875156 0.181518 0.355369 
0.880421 0.212082 0.0548903 0.721089 0.580551 
0.809085 0.13424 0.151854 0.930927 0.160155 
0.617279 0.514515 0.455361 0.472322 0.945339 
0.975576 0.051755 0.517862 0.485729 0.627298 
0.698566 0.925769 0.0368045 0.955129 0.0895492 
0.014557 0.788711 0.305995 0.903253 0.113556 
0.0696641 0.814527 0.169663 0.353727 0.597564 
0.225117 0.114955 0.530621 0.385753 0.756005 
0.0396502 0.167286 0.349365 0.132124 0.97746 
0.280598 0.75412 0.91056 0.35435 0.805804 
0.162579 0.280469 0.172828 0.185388 0.67759 
0.288573 0.995241 0.831965 0.161862 0.315141 
0.718592 0.785999 0.79435 0.348928 0.722036 
0.217466 0.921327 0.38382 0.395846 0.338245 
0.53663 0.19706 0.928667 0.896851 0.822903 
0.344352 0.501785 0.964631 0.986134 0.00295064 
0.334952 0.386379 0.75687 0.234188 0.969243 
0.740234 0.817311 0.138774 0.876158 0.243842 
0.489652 0.829794 0.0992302 0.942015 0.0471286 
0.864284 0.403875 0.632267 0.286444 0.986646 
0.179383 0.863214 0.0470641 0.415858 0.578731 
0.162567 0.325862 0.116797 0.222138 0.539212 
0.00458207 0.156558 0.212784 0.886882 0.124855 
0.454221 0.529568 0.321585 0.436427 0.46133 
0.0215767 0.580011 0.194029 0.244727 0.154271 
0.907546 0.612631 0.453152 0.771422 0.612922 
0.943303 0.93628 0.358505 0.90696 0.62132 
0.575619 0.368405 0.306861 0.448667 0.480403 
0.459631 0.903421 0.979556 0.596782 0.247936 
0.789525 0.147846 0.811957 0.537175 0.939009 
0.099554 0.391346 0.289023 0.875348 0.908465 
0.566025 0.400483 0.888509 0.861776 0.0321567 
0.991225 0.90332 0.605088 0.15321 0.383374 
0.0124923 0.817334 0.0694734 0.614608 0.488056 
0.254293 0.445527 0.78727 0.700849 0.59068 
0.713643 0.930418 0.148112 0.877505 0.182404 
0.561234 0.56438 0.290009 0.15398 0.350864 
0.054529 0.110932 0.741773 0.70945 0.59089 
0.00332426 0.873552 0.52717 0.576968 0.860022 
0.94965 0.440943 0.171625 0.798554 0.211574 
0.138374 0.133527 0.573028 0.682793 0.737618 
0.0851849 0.946496 0.424903 0.986591 0.742399 
0.625976 0.186179 0.383349 0.564559 0.565247 
0.172362 0.707464 0.703817 0.880123 0.369633 
0.985253 0.200973 0.563027 0.996114 0.0746691 
0.57911 0.665627 0.618316 0.306156 0.898438 
0.663992 0.922575 0.647413 0.928132 0.480585 
0.67833 0.193764 0.901047 0.549021 0.643526 
0.233543 0.358867 0.0599786 0.974279 0.90436 
0.705615 0.875388 0.611327 0.589016 0.957784 
0.423897 0.922552 0.115563 0.518375 0.64725 
0.542288 0.87765 0.00649282 0.843817 0.0542915 
0.951848 0.74596 0.454693 0.745895 0.917995 
0.978416 0.862441 0.65712 0.742767 0.0559667 
0.712441 0.195408 0.0157751 0.0417822 0.722496 
0.630062 0.955237 0.676939 0.377963 0.694228 
0.622721 0.63651 0.0362196 0.684095 0.694139 
0.226406 0.350142 0.876179 0.605445 0.24504 
0.584817 0.33371 0.725089 0.475626 0.00369862 
0.242597 0.536695 0.28311 0.151888 0.903694 
0.139368 0.929297 0.106005 0.933762 0.0575426 
0.946588 0.277125 0.377088 0.921158 0.611507 
0.198701 0.148968 0.0279759 0.787155 0.386138 
0.723134 0.0572461 0.553281 0.44583 0.300185 
0.924427 0.445306 0.442029 0.325104 0.677245 
0.878716 0.759513 0.735784 0.205 0.102576 
0.104801 0.389047 0.868346 0.684164 0.377588 
0.0016715 0.30615 0.271162 0.917598 0.632117 
0.156647 0.652031 0.626963 0.0627821 0.832662 
0.0423293 0.637709 0.0170161 0.310894 0.95349 
0.223383 0.879225 0.875109 0.891779 0.101097 
0.504665 0.71133 0.865049 0.94991 0.64487 
0.000362256 0.598683 0.230624 0.246708 0.87719 
0.0945941 0.720735 0.273371 0.235096 0.714463 
0.268277 0.443068 0.315931 0.62677 0.687149 
0.169766 0.942909 0.901221 0.727569 0.539705 
0.489919 0.918599 0.174198 0.174951 0.505556 
0.130853 0.0271349 0.918839 0.985103 0.788563 
0.585567 0.490455 0.0542214 0.783739 0.510037 
0.754443 0.799946 0.988835 0.889399 0.25178 
0.209395 0.866657 0.820052 0.0048107 0.685187 
0.0751082 0.0661461 0.106872 0.146971 0.974116 
0.432099 0.156248 0.409012 0.850194 0.914555 
0.266809 0.0467695 0.300603 0.0493805 0.170871 
0.137026 0.756516 0.795724 0.904302 0.17886 
0.534812 0.769379 0.129158 0.598228 0.536016 
0.346143 0.906985 0.945185 0.535118 0.88068 
0.913356 0.680655 0.588504 0.473911 0.455343 
0.282267 0.935833 0.778696 0.45746 0.207273 
0.701567 0.116343 0.305168 0.235024 0.123148 
0.900873 0.879628 0.155966 0.484194 0.694629 
0.061129 0.392984 0.0983676 0.441129 0.938798 
0.719978 0.634569 0.199174 0.559942 0.532087 
0.187216 0.00512116 0.400028 0.822134 0.839026 
0.103597 0.985372 0.700419 0.686148 0.301366 
0.909461 0.792254 0.868091 0.834509 0.379895 
0.521842 0.894198 0.825837 0.579393 0.559993 
0.534822 0.727429 0.460731 0.777492 0.963659 
0.752476 0.519676 0.539416 0.408191 0.415156 
0.0477366 0.507443 0.760308 0.687105 0.835354 
0.507971 0.63708 0.386475 0.30271 0.894847 
0.675324 0.110878 0.937317 0.506149 0.922407 
0.574271 0.402722 0.472019 0.616682 0.420391 
0.287136 0.994142 0.0785204 0.72829 0.127126 
0.18907 0.83554 0.338232 0.810535 0.899619 
0.104283 0.108553 0.806658 0.934257 0.115111 
0.0261397 0.690374 0.0445094 0.245368 0.710372 
0.940775 0.270444 0.695975 0.650445 0.738574 
0.962548 0.142618 0.484099 0.925517 0.652461 
0.569684 0.36454 0.826424 0.948381 0.908152 
0.134387 0.487876 0.642258 0.0195254 0.655269 
0.0398657 0.794872 0.306069 0.814864 0.927697 
0.695841 0.455211 0.320338 0.832714 0.976176 
0.460397 0.172356 0.761149 0.801446 0.0266084 
0.201868 0.620079 0.109748 0.480836 0.919517 
0.032631 0.0104167 0.387253 0.239825 0.170268 
0.54523 0.646659 0.0232107 0.260332 0.998846 
0.522476 0.797931 0.529378 0.553966 0.158314 
0.271734 0.845592 0.949117 0.170127 0.95156 
0.130444 0.503032 0.00169028 0.958393 0.266168 
0.417699 0.619165 0.576365 0.284277 0.942581 
0.751898 0.987257 0.0561891 0.0344612 0.104794 
0.749632 0.894677 0.990759 0.720791 0.908802 
0.554754 0.685735 0.241253 0.635707 0.586671 
0.492169 0.789347 0.36913 0.375509 0.631473 
0.0510834 0.0245083 0.988518 0.679572 0.00614492 
0.495588 0.00983951 0.183861 0.723125 0.822362 
0.545787 0.262635 0.87922 0.469106 0.697871 
0.869707 0.746985 0.0672606 0.265622 0.958868 
0.083811 0.216643 0.160258 0.888295 0.758899 
0.888694 0.593389 0.612863 0.783873 0.585866 
0.480938 0.850005 0.86815 0.379308 0.579092 
0.811988 0.222611 0.686945 0.833581 0.278142 
0.0448078 0.815561 0.616999 0.235113 0.0534121 
0.578761 0.107265 0.526836 0.449438 0.901537 
0.657023 0.697374 0.474017 0.742439 0.838625 
0.905791 0.29782 0.886197 0.491021 0.117211 
0.940092 0.21075 0.157793 0.163458 0.331639 
0.504824 0.871678 0.546476 0.938066 0.140986 
0.882497 0.113832 0.129665 0.454895 0.443424 
0.410406 0.487276 0.0315364 0.820923 0.0638643 
0.0644919 0.746327 0.355821 0.550905 0.0864969 
0.486802 0.7824 0.110186 0.561655 0.614258 
0.288015 0.891617 0.995384 0.0196814 0.665683 
0.477236 0.0504248 0.0552446 0.302863 0.54288 
0.973187 0.0945948 0.134015 0.427571 0.121534 
0.733354 0.914528 0.839297 0.527626 0.0912355 
0.604425 0.0551401 0.670174 0.868946 0.651916 
0.970612 0.89205 0.729834 0.350104 0.350128 
0.165161 0.384535 0.550001 0.671987 0.437941 
0.907283 0.693547 0.280809 0.688098 0.599948 
0.82509 0.194657 0.604023 0.228588 0.664668 
0.623326 0.731915 0.774073 0.545303 0.955842 
0.757084 0.260783 0.821688 0.16291 0.707605 
0.166718 0.529372 0.384507 0.020088 0.344113 
0.226967 0.580866 0.381793 0.742265 0.850678 
0.583602 0.408376 0.302092 0.350664 0.411319 
0.9918 0.596828 0.230631 0.401047 0.59096 
0.921715 0.245845 0.106705 0.561981 0.437646 
0.259762 0.81159 0.5865 0.28192 0.0786068 
0.348182 0.271685 0.0421952 0.0624764 0.726954 
0.245666 0.00683577 0.109178 0.0619803 0.379264 
0.261562 0.960786 0.0471637 0.746686 0.261423 
0.329288 0.696104 0.0862021 0.322117 0.98822 
0.56317 0.371712 0.528237 0.613948 0.831537 
0.156876 0.82942 0.359287 0.732626 0.290762 
0.142808 0.881213 0.34898 0.765021 0.655961 
0.769936 0.24739 0.105651 0.234978 0.791991 
0.775532 0.653442 0.341621 0.558936 0.0733515 
0.779762 0.0835487 0.346046 0.956647 0.755239 
0.955762 0.587143 0.857146 0.00387876 0.799726 
0.12739 0.336563 0.758074 0.400643 0.513565 
0.697031 0.425775 0.116886 0.564604 0.597721 
0.904863 0.0903142 0.764758 0.599848 0.955679 
0.0992032 0.427855 0.850012 0.901414 0.544729 
0.0851306 0.448342 0.796946 0.0316499 0.504508 
0.401178 0.948162 0.175683 0.00820191 0.383074 
0.0136974 0.113246 0.840161 0.386075 0.846087 
0.371714 0.15443 0.87092 0.986483 0.688822 
0.233689 0.0416705 0.975262 0.315298 0.958137 
0.667172 0.0126584 0.973867 0.730887 0.568219 
0.975396 0.359665 0.153623 0.866724 0.331956 
0.184716 0.481602 0.611508 0.744337 0.411285 
0.908802 0.234497 0.0470993 0.503104 0.509735 
0.27252 0.710542 0.164586 0.588013 0.774473 
0.526815 0.0160706 0.885314 0.101596 0.565666 
0.277259 0.177564 0.894281 0.0627197 0.817207 
0.395937 0.932616 0.885717 0.0924934 0.602515 
0.96172 0.969974 0.593369 0.340611 0.807806 
0.81281 0.642921 0.14224 0.395605 0.8851 
0.085201 0.338291 0.429304 0.280458 0.753785 
0.138686 0.742229 0.983412 0.344187 0.987852 
0.1652 0.25554 0.99918 0.418559 0.00379285 
0.875248 0.98226 0.734269 0.742729 0.144355 
0.635698 0.30471 0.581573 0.0630453 0.0820634 
0.647611 0.475908 0.680283 0.729849 0.873596 
0.793732 0.879344 0.861688 0.129245 0.889592 
0.740634 0.236246 0.141911 0.149931 0.633292 
0.692108 0.799677 0.636723 0.463456 0.37712 
0.385455 0.38899 0.707257 0.323512 0.361508 
0.872246 0.786722 0.522066 0.190463 0.927136 
0.987752 0.747931 0.316136 0.805082 0.324332 
0.450415 0.380956 0.458944 0.538717 0.901509 
0.11327 0.285131 0.178493 0.67206 0.544322 
0.582839 0.719274 0.632734 0.341927 0.488055 
0.826918 0.160703 0.397174 0.851557 0.437914 
0.196301 0.508191 0.89072 0.19533 0.567292 
0.405744 0.770391 0.171801 0.574066 0.599949 
0.822519 0.0899805 0.030074 0.349857 0.932681 
0.796914 0.428713 0.10318 0.241322 0.41714 
0.627103 0.221888 0.405247 0.947223 0.00437102 
0.381361 0.889643 0.485849 0.922844 0.276333 
0.808185 0.728039 0.490154 0.49218 0.68696 
0.515486 0.22424 0.449159 0.160277 0.876418 
0.32821 0.595779 0.796909 0.266027 0.937066 
0.884698 0.976846 0.714138 0.898445 0.202322 
0.843807 0.0514955 0.675699 0.0948324 0.187989 
0.757849 0.623729 0.459778 0.180321 0.0906933 
0.519881 0.299023 0.648592 0.228517 0.788138 
6.31553e-05 0.485931 0.350635 0.828211 0.569959 
0.807462 0.630021 0.134177 0.549743 0.508457 
0.614144 0.932605 0.896426 0.455413 0.174926 
0.623382 0.45101 0.409381 0.609804 0.892879 
0.327511 0.650363 0.923647 0.403013 0.753989 
0.184168 0.291317 0.792928 0.602559 0.311284 
0.362236 0.38696 0.770094 0.306116 0.795976 
0.00279368 0.225282 0.0920527 0.415503 0.833547 
0.54616 0.268515 0.679669 0.395434 0.369041 
0.134746 0.549581 0.437277 0.787471 0.0510156 
0.490151 0.793697 0.802287 0.966503 0.589778 
0.163878 0.137138 0.889045 0.362964 0.134576 
0.500762 0.391872 0.303963 0.72913 0.524909 
0.141363 0.102373 0.171145 0.22676 0.780349 
0.913817 0.443126 0.227982 0.94357 0.00692964 
0.0107308 0.769116 0.0471993 0.288507 0.766525 
0.320191 0.394309 0.503688 0.448091 0.909218 
0.231773 0.209828 0.170506 0.432449 0.653497 
0.12856 0.450017 0.588063 0.0917506 0.362652 
0.437848 0.430758 0.509693 0.656397 0.0441903 
0.339643 0.869488 0.271152 0.63378 0.826226 
0.0587418 0.913799 0.942797 0.315038 0.594512 
0.789535 0.996812 0.515382 0.858948 0.413874 
0.527261 0.763159 0.335206 0.731742 0.0612102 
0.4574 0.94443 0.726681 0.870232 0.201772 
0.328673 0.838212 0.172147 0.349999 0.614109 
0.508742 0.574995 0.544802 0.903143 0.0256892 
0.100043 0.0767808 0.135366 0.211405 0.108133 
0.153658 0.410723 0.829838 0.127069 0.10302 
0.0757677 0.298421 0.974437 0.0936496 0.180563 
0.712697 0.960212 0.722907 0.138635 0.731118 
0.834795 0.299018 0.634633 0.500039 0.20672 
0.645985 0.999355 0.519592 0.0639349 0.571872 
0.53146 0.412846 0.913975 0.814878 0.707498 
0.255801 0.637901 0.516331 0.508326 0.379953 
0.690682 0.350381 0.529214 0.502615 0.61427 
0.572518 0.328085 0.676615 0.726386 0.28668 
0.838851 0.762403 0.0890723 0.413666 0.731212 
0.348763 0.0587047 0.719352 0.600101 0.6929 
0.20964 0.247568 0.968609 0.934137 0.149329 
0.342736 0.960971 0.214821 0.38438 0.695892 
0.627962 0.651608 0.374164 0.601702 0.0882003 
0.632092 0.231576 0.940686 0.351382 0.0926286 
0.302203 0.17643 0.876147 0.968573 0.170954 
0.423487 0.0156316 0.519162 0.147625 0.671365 
0.765301 0.0650054 0.115962 0.97781 0.0030285 
0.801142 0.627189 0.301574 0.263379 0.782647 
0.986175 0.269773 0.047692 0.185624 0.768527 
0.36352 0.995703 0.93452 0.785736 0.936454 
0.20146 0.532358 0.481705 0.221613 0.487235 
0.353325 0.945538 0.654706 0.886585 0.0448634 
0.537063 0.165131 0.108262 0.103609 0.0583164 
0.389698 0.185261 0.944312 0.391104 0.0353431 
0.288255 0.702358 0.126281 0.0360135 0.78824 
0.165886 0.230743 0.130256 0.394785 0.736551 
0.307398 0.924224 0.324481 0.0195448 0.922176 
0.334597 0.677993 0.00702572 0.479239 0.254514 
0.431265 0.245593 0.909512 0.846833 0.228594 
0.085756 0.104918 0.726505 0.530909 0.896701 
0.90611 0.566879 0.846494 0.959634 0.1519 
0.0809588 0.811833 0.804235 0.236406 0.833528 
0.970306 0.356781 0.948169 0.835735 0.0113297 
0.0490023 0.173917 0.642839 0.133918 0.764444 
0.717726 0.686578 0.611778 0.869994 0.086881 
0.00275026 0.440605 0.0646657 0.344277 0.676453 
0.797072 0.399008 0.0765644 0.995442 0.224902 
0.479997 0.479357 0.0999451 0.426558 0.346686 
0.96957 0.868096 0.00176268 0.987486 0.757061 
0.153084 0.93976 0.567771 0.869655 0.957723 
0.892653 0.447227 0.694427 0.109314 0.118168 
0.559247 0.136879 0.0559848 0.972496 0.750112 
0.796851 0.931358 0.252408 0.10238 0.899394 
0.28719 0.373669 0.932282 0.413979 0.283347 
0.680731 0.802024 0.722889 0.114313 0.978305 
0.57582 0.472027 0.897512 0.0755602 0.339074 
0.549877 0.420566 0.474211 0.493526 0.559015 
0.5509 0.211902 0.675873 0.36667 0.879718 
0.543267 0.201529 0.516019 0.421012 0.0509472 
0.434629 0.751538 0.0558105 0.00172696 0.587584 
0.373199 0.756606 0.20182 0.977939 0.015996 
0.016182 0.0163783 0.250778 0.889277 0.338896 
0.317889 0.806217 0.688814 0.0369932 0.138523 
0.49385 0.223305 0.759864 0.595125 0.0709954 
0.468246 0.951092 0.870124 0.796125 0.898668 
0.856999 0.247112 0.556251 0.199749 0.025284 
0.0114649 0.699624 0.376072 0.0111565 0.803804 
0.34582 0.400731 0.452296 0.2771 0.770809 
0.423102 0.991277 0.529234 0.26564 0.442988 
0.245576 0.330229 0.830051 0.648955 0.441279 
0.231143 0.588308 0.00180461 0.834086 0.456515 
0.591583 0.320545 0.235119 0.0278345 0.644514 
0.502792 0.722058 0.970673 0.844572 0.154615 
0.381206 0.621049 0.230755 0.957911 0.0785049 
0.649555 0.517926 0.899727 0.0349595 0.21513 
0.471917 0.426645 0.843198 0.795579 0.207018 
0.739446 0.425419 0.363898 0.120937 0.285731 
0.129487 0.459625 0.683436 0.82924 0.15942 
0.421657 0.445285 0.451029 0.513794 0.673073 
0.406729 0.484361 0.284908 0.680341 0.43347 
0.323189 0.929623 0.150252 0.564271 0.0373408 
0.100802 0.626406 0.215969 0.457324 0.388885 
0.177754 0.473199 0.436775 0.618113 0.797103 
0.420091 0.242773 0.329646 0.365906 0.621135 
0.550274 0.534583 0.11717 0.959766 0.217934 
0.596228 0.505702 0.760769 0.83355 0.890453 
0.701052 0.994581 0.543133 0.472654 0.532763 
0.925375 0.038791 0.94454 0.0267499 0.569912 
0.721411 0.386364 0.355117 0.26473 0.963075 
0.852166 0.607102 0.889864 0.451587 0.261823 
0.135135 0.347554 0.839172 0.157052 0.718708 
0.449237 0.497781 0.500194 0.639193 0.77642 
0.221794 0.716426 0.0762986 0.386132 0.678129 
0.135592 0.779851 0.245447 0.674032 0.558834 
0.344084 0.98778 0.0411841 0.715748 0.23976 
0.755837 0.86361 0.241879 0.4899 0.0145235 
0.198442 0.841839 0.452207 0.560721 0.496329 
0.43122 0.978131 0.54341 0.764179 0.693581 
0.829564 0.451778 0.596352 0.53907 0.0336656 
0.777108 0.84106 0.311873 0.784054 0.940957 
0.385427 0.284866 0.857464 0.705663 0.70852 
0.785219 0.152444 0.981849 0.886283 0.766288 
0.505274 0.529718 0.961144 0.552366 0.146314 
0.0672292 0.901833 0.117919 0.423914 0.333283 
0.633822 0.985839 0.55388 0.180616 0.261218 
0.00458723 0.951475 0.152617 0.739749 0.82215 
0.263775 0.316657 0.819878 0.0415908 0.44731 
0.543464 0.456149 0.574269 0.179215 0.153022 
0.784882 0.85439 0.297659 0.893025 0.182221 
0.210229 0.881943 0.643241 0.72319 0.00740616 
0.0205453 0.769855 0.381252 0.161117 0.0106922 
0.945903 0.808661 0.699759 0.955327 0.179763 
0.320252 0.818783 0.632081 0.708964 0.92442 
0.389156 0.822013 0.530291 0.29058 0.410694 
0.0963791 0.0517723 0.244005 0.643374 0.480112 
0.770369 0.270878 0.185717 0.580569 0.913133 
0.657673 0.390245 0.0755489 0.844272 0.234445 
0.828428 0.53573 0.340449 0.44203 0.798415 
0.557867 0.0865061 0.394325 0.0116711 0.281714 
0.0117734 0.449274 0.406004 0.76475 0.197423 
0.77634 0.144217 0.393505 0.60594 0.226613 
0.632599 0.636648 0.323721 0.495249 0.18064 
0.247349 0.0185966 0.0832523 0.778673 0.338776 
0.47567 0.100541 0.729167 0.975891 0.0104433 
0.415493 0.962746 0.838497 0.513115 0.902047 
0.95942 0.139646 0.786191 0.0452131 0.58005 
0.00760988 0.545166 0.512569 0.877846 0.84634 
0.345214 0.478488 0.743795 0.735105 0.0397909 
0.280381 0.634689 0.595013 0.266375 0.395255 
0.660169 0.508906 0.673612 0.302944 0.118893 
0.915451 0.696384 0.95526 0.851651 0.568945 
0.188947 0.913689 0.248155 0.446345 0.423861 
0.918357 0.908671 0.652709 0.806862 0.20575 
0.273541 0.849785 0.446161 0.788162 0.741147 
0.177526 0.858976 0.154099 0.889102 0.0812544 
0.700321 0.639217 0.948757 0.784908 0.116144 
0.286842 0.720595 0.0430304 0.970805 0.224573 
0.723647 0.715978 0.0212268 0.515467 0.060279 
0.532284 0.643735 0.22576 0.125142 0.200143 
0.770649 0.789705 0.44899 0.793765 0.905311 
0.0483724 0.656344 0.111692 0.441251 0.0687062 
0.772812 0.714633 0.579175 0.808962 0.509955 
0.397964 0.604307 0.0323612 0.81914 0.865628 
0.8248 0.150759 0.178701 0.33302 0.728233 
0.0259023 0.127523 0.209153 0.80338 0.280759 
0.790725 0.60211 0.0415583 0.490433 0.168422 
0.181257 0.848349 0.91188 0.868273 0.719907 
0.941427 0.446016 0.751834 0.540348 0.270361 
0.73969 0.555182 0.317861 0.192698 0.980247 
0.470146 0.132417 0.923363 0.47631 0.667096 
0.939141 0.425173 0.0795222 0.0902272 0.588769 
0.293052 0.894688 0.115139 0.845252 0.655568 
0.407852 0.642233 0.724229 0.0997905 0.555176 
0.0839263 0.425929 0.327415 0.893122 0.973159 
0.538505 0.170554 0.993509 0.791116 0.0168073 
0.876143 0.673494 0.498584 0.0658864 0.653426 
0.51688 0.400035 0.981284 0.233924 0.873653 
0.726563 0.361556 0.330329 0.0437405 0.0584405 
0.162511 0.128615 0.958872 0.488157 0.0116672 
0.633849 0.603162 0.114377 0.695036 0.781106 
0.609626 0.0162311 0.446434 0.229189 0.844646 
0.472023 0.371228 0.650764 0.811798 0.527007 
0.272797 0.641135 0.0882532 0.674184 0.457405 
0.857157 0.709467 0.563409 0.21692 0.698516 
0.721653 0.897197 0.0697687 0.64739 0.00995609 
0.128921 0.434802 0.612181 0.502067 0.257245 
0.30906 0.660906 0.932351 0.206639 0.105992 
0.565022 0.466352 0.65006 0.879132 0.636864 
0.759458 0.25797 0.646319 0.162708 0.613245 
0.149158 0.96641 0.445915 0.096336 0.666256 
0.774775 0.292912 0.34949 0.125453 0.683851 
0.287379 0.985346 0.514393 0.623071 0.186818 
0.366851 0.248962 0.330302 0.870673 0.616835 
0.439759 0.374352 0.351886 0.950331 0.934178 
0.81387 0.549647 0.137808 0.823044 0.856504 
0.258808 0.335433 0.514824 0.252447 0.3403 
0.0328664 0.585214 0.106088 0.780729 0.269235 
0.767723 0.181787 0.908711 0.0359737 0.458843 
0.760422 0.516911 0.737239 0.449946 0.552324 
0.243921 0.314953 0.335743 0.0602323 0.383361 
0.548259 0.549086 0.376644 0.724598 0.82905 
0.42073 0.188759 0.411198 0.488047 0.413995 
0.443887 0.678217 0.323446 0.770201 0.883167 
0.537309 0.0393522 0.667667 0.707874 0.356454 
0.0599005 0.233407 0.5793 0.69429 0.864859 
0.554366 0.506259 0.226791 0.0396366 0.0255554 
0.933331 0.630065 0.757159 0.388966 0.284056 
0.644453 0.332235 0.976221 0.594386 0.352489 
0.925502 0.126685 0.368139 0.92186 0.0581572 
0.765697 0.802479 0.313852 0.260388 0.0737218 
0.193645 0.633885 0.0519377 0.692172 0.97492 
0.143704 0.800252 0.348669 0.264133 0.463776 
0.572988 0.733972 0.864048 0.72713 0.884894 
0.456293 0.87972 0.3122 0.763302 0.560239 
0.363292 0.710442 0.470396 0.548572 0.0534662 
0.574548 0.906101 0.216095 0.0609809 0.450597 
0.946319 0.99972 0.201898 0.545885 0.891499 
0.650085 0.783756 0.580301 0.599698 0.980962 
0.233737 0.479141 0.488317 0.500589 0.130327 
0.115299 0.793018 0.203379 0.762419 0.594361 
0.690207 0.441153 0.264622 0.234633 0.431522 
0.695641 0.442538 0.625853 0.922043 0.0271359 
0.378956 0.720798 0.846625 0.311368 0.113608 
0.764005 0.890168 0.593562 0.46371 0.577356 
0.124312 0.390231 0.99291 0.0662381 0.151576 
0.174978 0.437033 0.555648 0.815461 0.768426 
0.427133 0.643973 0.156463 0.0477614 0.0177558 
0.392392 0.733758 0.438347 0.49418 0.376103 
0.469029 0.343114 0.537642 0.253791 0.114352 
0.0461752 0.847541 0.0765689 0.0491528 0.393431 
0.595226 0.260323 0.847728 0.471015 0.362009 
0.120054 0.481216 0.603873 0.675795 0.607572 
0.139913 0.149674 0.267728 0.594368 0.567779 
0.935492 0.300192 0.175009 0.0384363 0.0783787 
0.354468 0.311743 0.725558 0.79024 0.201292 
0.117314 0.934472 0.559921 0.196684 0.794596 
0.498658 0.64626 0.252528 0.47759 0.354665 
0.515878 0.169956 0.200754 0.219284 0.5044 
0.0565403 0.195881 0.687149 0.637243 0.11048 
0.745991 0.318388 0.87516 0.144699 0.479822 
0.951896 0.950386 0.808586 0.484134 0.250687 
0.947608 0.974647 0.653814 0.252074 0.476413 
0.806869 0.553711 0.181694 0.174055 0.885859 
0.98377 0.738966 0.822892 0.861038 0.400104 
0.119603 0.829898 0.376394 0.477143 0.676919 
0.431214 0.355713 0.0902283 0.501206 0.812953 
0.119643 0.245987 0.123793 0.769786 0.329099 
0.458279 0.267211 0.300978 0.0414652 0.377776 
0.160514 0.788525 0.882795 0.0188247 0.404537 
0.280691 0.480377 0.551198 0.224349 0.904635 
0.784654 0.346475 0.188859 0.801778 0.295481 
0.770972 0.687616 0.401543 0.219716 0.240219 
0.311186 0.869634 0.286868 0.304006 0.104156 
0.122602 0.938737 0.857837 0.597369 0.586358 
0.249723 0.896536 0.582644 0.44037 0.611533 
0.486022 0.111797 0.0823101 0.340742 0.509632 
0.332682 0.126848 0.955068 0.879525 0.77422 
0.949356 0.125044 0.94958 0.478855 0.47737 
0.899291 0.938608 0.152815 0.638921 0.647308 
0.07594 0.528494 0.992141 0.764114 0.420083 
0.00049621 0.834867 0.784571 0.0290074 0.512727 
0.282965 0.405754 0.226286 0.295555 0.0336675 
0.624021 0.946959 0.932095 0.71866 0.806886 
0.0919636 0.166222 0.513895 0.230688 0.83838 
0.677398 0.629791 0.935849 0.943805 0.989083 
0.547025 0.545077 0.99169 0.901205 0.974578 
0.616468 0.445742 0.00888697 0.577066 0.536258 
0.736048 0.706444 0.753604 0.269071 0.180562 
0.0721084 0.164115 0.0306732 0.985987 0.450381 
0.565687 0.109368 0.584391 0.632124 0.875182 
0.227772 0.123976 0.791072 0.711394 0.080728 
0.960605 0.685806 0.0815771 0.919168 0.219065 
0.881195 0.278569 0.0485259 0.51173 0.872879 
0.900719 0.87699 0.920123 0.410953 0.0233831 
0.975535 0.26462 0.275991 0.265972 0.0195857 
0.656038 0.690284 0.0571305 0.218242 0.653002 
0.977258 0.409946 0.490813 0.858453 0.444799 
0.299754 0.914725 0.57965 0.230697 0.214987 
0.206641 0.989761 0.813741 0.979573 0.892909 
0.168135 0.898531 0.2826 0.636376 0.203536 
0.0205377 0.352885 0.0464542 0.1102 0.74669 
0.86578 0.529813 0.353367 0.522952 0.953064 
0.934661 0.702576 0.711731 0.0425277 0.649685 
0.383353 0.124137 0.146463 0.58213 0.94962 
0.565372 0.267408 0.942289 0.045742 0.228191 
0.8927 0.0257109 0.508393 0.254963 0.425946 
0.723087 0.930943 0.626381 0.0826821 0.98371 
0.690669 0.241473 0.115737 0.995035 0.615156 
0.0934502 0.790914 0.725189 0.59487 0.370814 
0.826225 0.480926 0.249857 0.805867 0.94217 
0.403706 0.345076 0.621461 0.384907 0.326587 
0.39011 0.836375 0.213063 0.480186 0.48455 
0.0106127 0.0431259 0.327458 0.480067 0.422583 
0.061812 0.294294 0.987485 0.859884 0.427202 
0.392228 0.524316 0.179049 0.181332 0.464636 
0.278295 0.85215 0.131093 0.375039 0.725937 
0.108433 0.158323 0.918339 0.664773 0.568168 
0.260109 0.706284 0.129783 0.240477 0.00660095 
0.142243 0.0398958 0.303496 0.0361593 0.240766 
0.928689 0.325955 0.980624 0.263495 0.847385 
0.961104 0.240809 0.973972 0.162011 0.530934 
0.00986247 0.849547 0.155912 0.0826751 0.875888 
0.93686 0.185728 0.444856 0.683668 0.115 
0.359954 0.388508 0.639608 0.894841 0.499723 
0.741245 0.417904 0.640546 0.927681 0.919423 
0.405782 0.176709 0.367144 0.322346 0.587532 
0.336289 0.290311 0.974536 0.145905 0.059398 
0.73311 0.781098 0.743169 0.720556 0.384034 
0.204898 0.86781 0.683273 0.585047 0.814911 
0.302914 0.549824 0.82699 0.275437 0.900693 
0.495685 0.63921 0.0963518 0.0130983 0.587298 
0.154946 0.841757 0.28837 0.648883 0.357926 
0.366587 0.903828 0.519045 0.278596 0.435934 
0.903228 0.740442 0.487458 0.238631 0.851493 
0.761368 0.155345 0.676568 0.171226 0.85363 
0.27828 0.411311 0.142666 0.384938 0.70997 
0.932841 0.0481597 0.616359 0.756909 0.406068 
0.541694 0.724098 0.90373 0.292444 0.313932 
0.54577 0.425955 0.706632 0.793793 0.211856 
0.406427 0.227279 0.275429 0.309251 0.271079 
0.412802 0.911521 0.266054 0.566304 0.664586 
0.882128 0.0825281 0.584247 0.459682 0.935821 
0.395671 0.685576 0.077588 0.133779 0.368572 
0.375032 0.817717 0.837984 0.609804 0.260229 
0.583382 0.666721 0.692474 0.328792 0.0293314 
0.393456 0.500215 0.508414 0.122213 0.0739274 
0.481075 0.925555 0.287922 0.0446254 0.270757 
0.582698 0.302297 0.320855 0.509664 0.241262 
0.479268 0.950315 0.994044 0.463766 0.810875 
0.236668 0.0610055 0.351102 0.480093 0.975647 
0.247141 0.101577 0.719647 0.288549 0.799907 
0.375727 0.467938 0.163997 0.957362 0.0112007 
0.290678 0.360752 0.853956 0.323568 0.370043 
0.333615 0.64001 0.26387 0.133008 0.362504 
0.46136 0.163686 0.0782668 0.28294 0.317305 
0.863501 0.990002 0.264736 0.618705 0.858834 
0.023454 0.79364 0.842985 0.955466 0.614823 
0.908898 0.514657 0.430642 0.131377 0.632976 
0.190798 0.61933 0.98033 0.0517532 0.965542 
0.963908 0.355891 0.139709 0.438826 0.808267 
0.929611 0.153312 0.170716 0.12233 0.321085 
0.641485 0.0336085 0.054613 0.681133 0.603507 
0.320153 0.682751 0.10775 0.406344 0.115007 
0.533051 0.518472 0.57846 0.365171 0.650426 
0.630072 0.911186 0.508461 0.999366 0.285593 
0.602636 0.0619798 0.482526 0.813068 0.811572 
0.16625 0.857911 0.225946 0.754881 0.487331 
0.162452 0.232577 0.120876 0.545935 0.755702 
0.0698057 0.106035 0.435262 0.217654 0.155813 
0.0895791 0.489761 0.105376 0.849334 0.352313 
0.920725 0.376479 0.704122 0.00275004 0.0968268 
0.438873 0.214372 0.547418 0.861328 0.149363 
0.697429 0.930197 0.151439 0.588994 0.945157 
0.00393024 0.697169 0.14305 0.763638 0.0683334 
0.629568 0.215807 0.0422704 0.47677 0.424986 
0.761362 0.910032 0.38271 0.898517 0.0635777 
0.66847 0.48584 0.516842 0.339899 0.637043 
0.16376 0.210336 0.244928 0.722837 0.242966 
0.465428 0.00592702 0.258644 0.9607 0.104714 
0.211314 0.579253 0.288747 0.342837 0.47287 
0.821837 0.391134 0.57156 0.0360023 0.145 
0.807465 0.679917 0.265427 0.483183 0.664549 
0.62582 0.643259 0.559593 0.0321073 0.552568 
0.229025 0.755526 0.371848 0.463606 0.121526 
0.750908 0.595535 0.878025 0.158488 0.280595 
0.790694 0.477711 0.0292101 0.748275 0.77354 
0.962576 0.925006 0.78941 0.05546 0.651731 
0.833948 0.595848 0.242291 0.719081 0.784535 
0.025339 0.325827 0.105646 0.964755 0.831629 
0.025764 0.332124 0.612789 0.615234 0.488528 
0.405486 0.521094 0.885648 0.50988 0.541189 
0.0323245 0.0486314 0.0746787 0.408416 0.413445 
0.768986 0.58147 0.597891 0.115696 0.456748 
0.36905 0.202933 0.636643 0.87512 0.293143 
0.299469 0.349626 0.0538712 0.464939 0.307685 
0.488087 0.349169 0.0232274 0.711301 0.327419 
0.391369 0.592978 0.261988 0.6756 0.107279 
0.560294 0.0436252 0.957448 0.789848 0.425342 
0.77188 0.0879318 0.671822 0.207744 0.427968 
0.0414737 0.0393794 0.639902 0.335663 0.990495 
0.836802 0.95211 0.557663 0.365036 0.267547 
0.924803 0.56327 0.996535 0.533956 0.846745 
0.585091 0.577355 0.503421 0.958782 0.439796 
0.425987 0.82363 0.321001 0.15116 0.891254 
0.960829 0.075874 0.649868 0.351834 0.318009 
0.966692 0.332511 0.184062 0.605957 0.999536 
0.48554 0.0429918 0.876935 0.425719 0.425467 
0.993279 0.703937 0.732013 0.621764 0.0313373 
0.393804 0.363828 0.691148 0.506469 0.431013 
0.823015 0.946172 0.232554 0.669658 0.769102 
0.3498 0.411676 0.597617 0.429014 0.649657 
0.388276 0.521481 0.75239 0.549578 0.229507 
0.403649 0.906329 0.356955 0.332479 0.829588 
0.787736 0.21743 0.683502 0.107048 0.661256 
0.606547 0.835231 0.794021 0.229326 0.104333 
0.137652 0.579955 0.0560832 0.426021 0.781958 
0.107513 0.172197 0.394613 0.357524 0.639593 
0.572155 0.480668 0.242144 0.148936 0.917661 
0.650754 0.204791 0.511798 0.445952 0.0450665 
0.730488 0.365806 0.724535 0.435422 0.577134 
0.881117 0.514278 0.579572 0.318223 0.00116511 
0.305705 0.309 0.912857 0.767782 0.557722 
0.72844 0.634429 0.428501 0.223087 0.339741 
0.50869 0.758662 0.00855636 0.0872661 0.496044 
0.484598 0.0541413 0.0221792 0.0317373 0.727083 
0.29135 0.82022 0.532401 0.475949 0.0968299 
0.663075 0.0287546 0.00131554 0.599913 0.551749 
0.37222 0.865612 0.00742559 0.351107 0.277288 
0.841724 0.990663 0.72248 0.587905 0.213098 
0.24074 0.856255 0.417847 0.0281015 0.131861 
0.0274107 0.51298 0.0491902 0.424147 0.705768 
0.680503 0.933011 0.688787 0.986672 0.62474 
0.221009 0.287897 0.980098 0.693819 0.776149 
0.687188 0.716805 0.486911 0.61258 0.941949 
0.255408 0.681557 0.151591 0.820296 0.564453 
0.228513 0.857041 0.219524 0.609085 0.268533 
0.780619 0.708173 0.438128 0.138713 0.26055 
0.414175 0.226718 0.292257 0.194232 0.90617 
0.0323669 0.0035246 0.487995 0.281562 0.315847 
0.0329589 0.0864335 0.562557 0.34477 0.559238 
0.497151 0.36709 0.895928 0.76991 0.033139 
0.229393 0.508992 0.000776652 0.303709 0.626125 
0.0504226 0.426405 0.792981 0.0632147 0.481481 
0.571874 0.932753 0.432028 0.198682 0.0346583 
0.136684 0.276268 0.752597 0.119166 0.390256 
0.429294 0.707942 0.904761 0.406046 0.0942459 
0.0823552 0.334243 0.449097 0.746093 0.143499 
0.314272 0.924788 0.0346268 0.357908 0.314302 
0.0569575 0.896131 0.0264999 0.759405 0.074049 
0.267125 0.50826 0.354299 0.646276 0.614188 
0.713911 0.995879 0.0597715 0.85608 0.833587 
0.227305 0.122965 0.278632 0.412572 0.216662 
0.951924 0.75977 0.00362698 0.981265 0.489326 
0.393665 0.494866 0.878396 0.701123 0.996575 
0.285056 0.728434 0.193574 0.70966 0.564527 
0.259586 0.9995 0.545485 0.910581 0.619467 
0.567419 0.860083 0.566443 0.0986369 0.791837 
0.748381 0.798958 0.130967 0.225394 0.313684 
0.0234684 0.500072 0.0759838 0.223567 0.790212 
0.789829 0.595087 0.887958 0.164162 0.530953 
0.281853 0.778289 0.930988 0.315448 0.157516 
0.635639 0.860494 0.916379 0.11762 0.449481 
0.48129 0.415261 0.518947 0.97519 0.214702 
0.145361 0.831011 0.694337 0.520481 0.302814 
0.315594 0.758286 0.235865 0.723455 0.809227 
0.750202 0.153627 0.771564 0.829569 0.245126 
0.273682 0.471709 0.465447 0.587704 0.530749 
0.738264 0.48432 0.338589 0.501273 0.904475 
0.269552 0.503339 0.666082 0.549935 0.664797 
0.229343 0.188966 0.489495 0.504749 0.385796 
0.122436 0.328472 0.479397 0.799744 0.866625 
0.494466 0.0291805 0.239143 0.235921 0.393488 
0.918356 0.496552 0.88285 0.603236 0.114885 
0.509426 0.424736 0.29317 0.523892 0.345531 
0.202746 0.702137 0.0979968 0.416547 0.40502 
0.182579 0.579245 0.914382 0.695347 0.995686 
0.251935 0.62121 0.488062 0.865031 0.117694 
0.415372 0.688904 0.251126 0.447414 0.0608733 
0.968637 0.803182 0.0469279 0.451508 0.897988 
0.475403 0.766794 0.0217112 0.787019 0.874621 
0.0891224 0.954686 0.440536 0.944729 0.31954 
0.306323 0.329342 0.882099 0.316858 0.841335 
0.476102 0.705111 0.0389873 0.891114 0.906003 
0.260324 0.885553 0.315157 0.411283 0.0271831 
0.552745 0.945336 0.421094 0.856159 0.555887 
0.591967 0.904722 0.0805014 0.336366 0.479166 
0.62695 0.424819 0.39379 0.671699 0.508949 
0.583598 0.666566 0.6568 0.379254 0.05045 
0.978844 0.690408 0.93026 0.424184 0.449079 
0.939209 0.935169 0.216116 0.62257 0.908974 
0.782004 0.361195 0.797559 0.885912 0.703944 
0.557564 0.958952 0.554939 0.727045 0.92018 
0.924721 0.00570256 0.0495547 0.0506661 0.331273 
0.0706881 0.992068 0.740372 0.346654 0.571655 
0.00409689 0.774743 0.0859685 0.119592 0.249645 
0.963078 0.217969 0.666756 0.948114 0.565592 
0.846815 0.43762 0.475167 0.239008 0.954808 
0.21665 0.821721 0.0316252 0.993098 0.0746777 
0.0817984 0.370206 0.793916 0.954303 0.881939 
0.650278 0.62841 0.86232 0.790963 0.613834 
0.103709 0.409293 0.813959 0.850181 0.970167 
0.261426 0.190673 0.845772 0.133415 0.959951 
0.303604 0.531085 0.0556644 0.0079949 0.28002 
0.529988 0.328538 0.987278 0.95099 0.69765 
0.222556 0.582928 0.0238076 0.208691 0.663478 
0.225128 0.635281 0.0569186 0.640006 0.55571 
0.0182754 0.807658 0.998323 0.26243 0.500938 
0.891249 0.378344 0.659595 0.366525 0.287255 
0.998265 0.832152 0.304383 0.574062 0.864151 
0.497823 0.28156 0.439947 0.672061 0.679613 
0.838974 0.716482 0.0472325 0.823248 0.92161 
0.789212 0.462657 0.85595 0.0362179 0.641713 
0.905768 0.527871 0.931032 0.511874 0.899535 
0.592042 0.343087 0.651952 0.351295 0.0229169 
0.600783 0.880554 0.31171 0.329376 0.0227519 
0.861105 0.909579 0.939973 0.545948 0.729832 
0.261779 0.561527 0.289215 0.0926852 0.485255 
0.14922 0.0693128 0.885056 0.460469 0.780264 
0.193501 0.553509 0.258535 0.074383 0.186053 
0.212724 0.695635 0.340064 0.601321 0.287892 
0.414289 0.184606 0.0595384 0.734428 0.688511 
0.701693 0.494393 0.70599 0.328585 0.716449 
0.442669 0.173884 0.301985 0.294604 0.44884 
0.0992287 0.575008 0.0143757 0.641732 0.628337 
0.110183 0.687529 0.747624 0.5375 0.364293 
0.792869 0.822635 0.451455 0.623569 0.935011 
0.288851 0.808526 0.109526 0.950341 0.997637 
0.398363 0.997739 0.581549 0.820077 0.695353 
0.686817 0.428443 0.822753 0.98974 0.112778 
0.222094 0.04596 0.300302 0.218249 0.866762 
0.357738 0.1714 0.666035 0.622025 0.260995 
0.746408 0.135421 0.864255 0.551219 0.403288 
0.0775803 0.906682 0.901514 0.0264508 0.892901 
0.375668 0.202898 0.105016 0.747193 0.524987 
0.456969 0.989503 0.833957 0.123592 0.172731 
0.325138 0.177378 0.108523 0.772418 0.557768 
0.387397 0.161195 0.97721 0.358664 0.634524 
0.876984 0.0428059 0.562412 0.509526 0.983756 
0.137455 0.639392 0.723391 0.982865 0.96887 
0.7721 0.471463 0.864619 0.649079 0.0981173 
0.332707 0.231308 0.132822 0.542901 0.145808 
0.349063 0.201882 0.888324 0.535031 0.508956 
0.692054 0.325615 0.379037 0.642756 0.766006 
0.578201 0.153456 0.784834 0.455122 0.585618 
0.0435115 0.138501 0.853536 0.701372 0.376299 
0.957538 0.404135 0.114959 0.405611 0.982518 
0.564047 0.63284 0.456264 0.575581 0.00556968 
0.919063 0.428035 0.400405 0.088828 0.431719 
0.743063 0.205099 0.850219 0.343333 0.421259 
0.0886423 0.0528248 0.800397 0.133611 0.211276 
0.51424 0.0775742 0.199128 0.861338 0.0279152 
