4400 5
0.590518 0.425265 0.103223 0.97851 0.700901 
0.197839 0.893148 0.633545 0.196317 0.29876 
0.395553 0.280552 0.24184 0.908373 0.906291 
0.513314 0.430233 0.32606 0.890105 0.112308 
0.58244 0.138895 0.832414 0.691192 0.901971 
0.653086 0.0181974 0.432895 0.444485 0.0477267 
0.281969 0.215418 0.336212 0.0844431 0.651774 
0.677973 0.291562 0.320588 0.819014 0.31379 
0.243234 0.180443 0.0262532 0.45967 0.168408 
0.4818 0.321033 0.905314 0.466701 0.713347 
0.830239 0.266837 0.0931289 0.838619 0.57091 
0.109793 0.118 0.929978 0.769572 0.189623 
0.744235 0.269914 0.352514 0.650849 0.289027 
0.867548 0.671699 0.175071 0.118468 0.61882 
0.328624 0.287567 0.694274 0.067835 0.394259 
0.634939 0.305474 0.162233 0.61975 0.998353 
0.353964 0.199305 0.744741 0.546463 0.0683346 
0.630337 0.943463 0.24914 0.457558 0.00491714 
0.858602 0.18502 0.702709 0.477586 0.615051 
0.631956 0.526448 0.55104 0.355537 0.657311 
0.274609 0.382612 0.767432 0.283745 0.141954 
0.186525 0.965687 0.0975607 0.88536 0.746516 
0.347105 0.584845 0.315 0.151791 0.29009 
0.746519 0.503154 0.689095 0.358844 0.461389 
0.646416 0.959881 0.866558 0.656649 0.537824 
0.0484929 0.696379 0.753873 0.818045 0.243881 
0.189132 0.351075 0.690919 0.860167 0.302661 
0.461584 0.209457 0.71538 0.0584363 0.908225 
0.425173 0.293085 0.152756 0.610024 0.401828 
0.351524 0.136333 0.622742 0.58483 0.429553 
0.248359 0.845165 0.195282 0.982778 0.431397 
0.733593 0.0407003 0.195995 0.478009 0.27078 
0.157541 0.075247 0.992204 0.822062 0.709242 
0.305286 0.0969632 0.508162 0.392252 0.226403 
0.372932 0.788 0.669903 0.852872 0.783564 
0.88298 0.206876 0.335004 0.73223 0.787822 
0.383654 0.0099624 0.016369 0.370404 0.167648 
0.552682 0.126562 0.246287 0.343591 0.220669 
0.883497 0.883073 0.537653 0.0495037 0.0568971 
0.701718 0.613839 0.872027 0.500534 0.726753 
0.144563 0.183488 0.214127 0.362412 0.801057 
0.881878 0.433268 0.530008 0.417242 0.802024 
0.650828 0.118059 0.697478 0.559235 0.703108 
0.741129 0.985539 0.557128 0.280729 0.647704 
0.388824 0.775472 0.0144133 0.289708 0.67388 
0.423961 0.424587 0.982923 0.750587 0.879668 
0.996222 0.819851 0.175694 0.902062 0.0714009 
0.913247 0.131126 0.300134 0.462791 0.394255 
0.214531 0.180671 0.742969 0.601672 0.757755 
0.871796 0.784474 0.289306 0.0109581 0.19216 
0.202386 0.331651 0.0146692 0.15634 0.70349 
0.890805 0.829309 0.0669193 0.0793579 0.646873 
0.869904 0.934725 0.739169 0.361678 0.443686 
0.819445 0.602323 0.329334 0.00177151 0.366841 
0.770117 0.184868 0.519589 0.743383 0.36693 
0.47697 0.706278 0.556771 0.668245 0.978941 
0.379835 0.689545 0.0542418 0.413049 0.675262 
0.0244936 0.172737 0.117767 0.48711 0.0293111 
0.111861 0.84661 0.0336459 0.0337776 0.18514 
0.662838 0.424192 0.0796591 0.0591871 0.135502 
0.27809 0.11817 0.23687 0.731914 0.12639 
0.548936 0.410538 0.15694 0.307932 0.827978 
0.826934 0.193646 0.469464 0.553423 0.55683 
0.857496 0.878998 0.774998 0.40152 0.60251 
0.220954 0.120705 0.733888 0.466805 0.285774 
0.377885 0.639946 0.109645 0.481173 0.994916 
0.278898 0.803907 0.740981 0.678753 0.183318 
0.233478 0.500999 0.0632015 0.721229 0.0990594 
0.865303 0.315022 0.428243 0.207181 0.368588 
0.0286002 0.856566 0.739895 0.996975 0.0357542 
0.710078 0.214938 0.922695 0.258312 0.297742 
0.804255 0.666738 0.713325 0.665413 0.6734 
0.104958 0.649824 0.190139 0.709766 0.36027 
0.546654 0.531875 0.757316 0.458519 0.12403 
0.594353 0.160063 0.94115 0.946382 0.882142 
0.498711 0.479829 0.37825 0.166964 0.909235 
0.663843 0.693752 0.774472 0.700858 0.0516545 
0.764825 0.673003 0.951319 0.669981 0.308494 
0.485235 0.766361 0.271711 0.796569 0.401442 
0.708509 0.977578 0.39835 0.133305 0.327943 
0.0502632 0.153512 0.919741 0.561675 0.103942 
0.693016 0.104604 0.419494 0.633175 0.397744 
0.99776 0.328504 0.900071 0.908376 0.977402 
0.0278596 0.475371 0.415243 0.641513 0.669058 
0.0754234 0.19714 0.557366 0.843299 0.825941 
0.860128 0.226102 0.300403 0.410055 0.687675 
0.660991 0.850046 0.942942 0.250008 0.0321486 
0.753124 0.932434 0.222274 0.0539279 0.254161 
0.340242 0.127924 0.862266 0.337829 0.240649 
0.940736 0.742331 0.424717 0.807856 0.537925 
0.843929 0.945417 0.652996 0.939863 0.536251 
0.592244 0.169274 0.603918 0.965423 0.860777 
0.976005 0.0461252 0.949867 0.6038 0.518734 
0.27698 0.10681 0.404734 0.812933 0.275223 
0.842446 0.337726 0.588634 0.219033 0.592748 
0.0562392 0.94403 0.250258 0.285652 0.893989 
0.391963 0.900336 0.915128 0.801962 0.517368 
0.578643 0.659756 0.60513 0.648041 0.476126 
0.939095 0.522042 0.811789 0.861017 0.578958 
0.219481 0.927396 0.103318 0.178563 0.588579 
0.408325 0.35591 0.287914 0.707278 0.302809 
0.0655062 0.402572 0.959379 0.181876 0.206943 
0.472967 0.187293 0.514104 0.81954 0.590996 
0.849328 0.192238 0.671131 0.0382569 0.297776 
0.623898 0.80995 0.374508 0.274748 0.464879 
0.158495 0.95223 0.778299 0.47413 0.425346 
0.494581 0.0749401 0.242561 0.255292 0.688823 
0.460162 0.299688 0.261889 0.319639 0.482813 
0.179171 0.993528 0.534428 0.23375 0.0419866 
0.333114 0.921576 0.44495 0.712555 0.370782 
0.018127 0.82138 0.198649 0.6675 0.122279 
0.354955 0.848668 0.71845 0.458247 0.202647 
0.733065 0.34643 0.715643 0.762082 0.832401 
0.22543 0.950797 0.500794 0.642813 0.943089 
0.0633018 0.705292 0.344627 0.20343 0.817198 
0.442938 0.808835 0.694734 0.149971 0.0882187 
0.563535 0.828495 0.0835567 0.93138 0.893613 
0.744109 0.402217 0.119565 0.575382 0.919128 
0.0901758 0.741165 0.440232 0.551177 0.682976 
0.80662 0.853952 0.953289 0.262457 0.877932 
0.339372 0.731707 0.724167 0.646332 0.168081 
0.338955 0.949239 0.856966 0.329017 0.486706 
0.106627 0.4874 0.795187 0.90524 0.342808 
0.039331 0.719952 0.123569 0.761486 0.587252 
0.84514 0.214075 0.230824 0.342234 0.873968 
0.232304 0.58019 0.368383 0.0553357 0.25235 
0.404346 0.480482 0.642769 0.234858 0.331439 
0.768578 0.155927 0.176681 0.353172 0.184313 
0.479599 0.184656 0.407163 0.496508 0.0114579 
0.87883 0.70865 0.484556 0.757558 0.0824336 
0.404763 0.0928558 0.790958 0.890986 0.10783 
0.84856 0.644069 0.926362 0.242313 0.421859 
0.213934 0.125153 0.663547 0.481168 0.749008 
0.0854472 0.603804 0.224009 0.594045 0.681526 
0.0245366 0.690284 0.76921 0.00142587 0.872516 
0.540583 0.0456808 0.249733 0.198765 0.771534 
0.697486 0.850588 0.424742 0.282952 0.178506 
0.305914 0.973731 0.975975 0.579393 0.708268 
0.0322405 0.3637 0.480417 0.937572 0.904281 
0.209614 0.694295 0.0382843 0.763219 0.877808 
0.450028 0.518993 0.802224 0.213093 0.467343 
0.0698424 0.921075 0.796438 0.672227 0.413 
0.737659 0.290016 0.851973 0.031211 0.903443 
0.921989 0.123381 0.0398153 0.897254 0.963545 
0.798959 0.864011 0.654953 0.270975 0.485515 
0.781002 0.649495 0.22258 0.3953 0.827 
0.912205 0.494453 0.932851 0.980925 0.330917 
0.784396 0.533652 0.118058 0.367386 0.000299192 
0.280106 0.802499 0.781645 0.990487 0.387901 
0.547519 0.600722 0.891627 0.438187 0.0834861 
0.386511 0.163491 0.630358 0.4078 0.454074 
0.430611 0.543018 0.0986275 0.679237 0.0008368 
0.850413 0.733105 0.797864 0.961731 0.305089 
0.758345 0.134444 0.491847 0.530399 0.64443 
0.796684 0.294223 0.215243 0.207211 0.903833 
0.0596641 0.409559 0.088187 0.438956 0.341099 
0.488183 0.255869 0.920191 0.870544 0.717026 
0.448006 0.139371 0.710618 0.336254 0.156472 
0.756683 0.132915 0.747574 0.190496 0.819241 
0.399749 0.693495 0.644818 0.0156116 0.618744 
0.264597 0.652458 0.198479 0.499293 0.0357601 
0.852968 0.000463813 0.669123 0.173465 0.936677 
0.660958 0.534937 0.817719 0.765819 0.594447 
0.561849 0.0189845 0.142951 0.927775 0.673516 
0.884932 0.619044 0.0936635 0.969808 0.0912411 
0.683031 0.091839 0.272461 0.751848 0.715964 
0.0897934 0.517199 0.543392 0.958892 0.00525683 
0.698309 0.787036 0.86619 0.665346 0.234562 
0.425893 0.581665 0.147247 0.0679369 0.345356 
0.0784105 0.407823 0.404289 0.860929 0.159858 
0.171635 0.550692 0.751245 0.4859 0.797035 
0.945928 0.922657 0.0640889 0.839555 0.703515 
0.372892 0.159939 0.952445 0.333269 0.422508 
0.905354 0.153749 0.468965 0.260666 0.17719 
0.435016 0.463108 0.271055 0.984397 0.650745 
0.619534 0.333545 0.20219 0.608431 0.424761 
0.308109 0.99539 0.629703 0.933863 0.690549 
0.835049 0.559844 0.657394 0.805484 0.977025 
0.607544 0.351884 0.543498 0.747462 0.365792 
0.952712 0.369725 0.400998 0.714386 0.155734 
0.581878 0.111493 0.855749 0.905672 0.901022 
0.305643 0.438348 0.548538 0.440377 0.861012 
0.315895 0.272934 0.740594 0.365913 0.731755 
0.429876 0.0386636 0.69935 0.0194022 0.382666 
0.228966 0.827133 0.334301 0.908438 0.908231 
0.850789 0.573485 0.529357 0.793201 0.551992 
0.555686 0.804502 0.813558 0.517398 0.687716 
0.284231 0.534168 0.684928 0.204711 0.666719 
0.246277 0.531012 0.340157 0.389597 0.999817 
0.778556 0.286211 0.354548 0.651445 0.772422 
0.416717 0.199413 0.770956 0.918311 0.663569 
0.340027 0.760303 0.980239 0.877911 0.192866 
0.0389544 0.295803 0.266963 0.745536 0.679069 
0.136315 0.484199 0.72804 0.224918 0.688694 
0.358624 0.712692 0.545904 0.00734274 0.361352 
0.431215 0.538147 0.710843 0.0437874 0.810806 
0.707747 0.0744313 0.0268089 0.256179 0.534881 
0.211944 0.0122839 0.8757 0.768051 0.829456 
0.63407 0.687973 0.186845 0.51376 0.67567 
0.577992 0.629421 0.718189 0.942686 0.0928648 
0.756259 0.855126 0.461655 0.102114 0.93954 
0.529548 0.326328 0.00693318 0.844198 0.236963 
0.165657 0.766925 0.953443 0.838756 0.2377 
0.278593 0.357504 0.970097 0.748553 0.43448 
0.15168 0.647497 0.740292 0.0316409 0.362077 
0.687449 0.0349036 0.412619 0.723715 0.733302 
0.0827754 0.224376 0.0493781 0.120852 0.450612 
0.103419 0.591474 0.0450319 0.493049 0.191048 
0.441384 0.0185937 0.993321 0.433201 0.484703 
0.516541 0.97028 0.372928 0.561855 0.701349 
0.721859 0.688019 0.483138 0.867406 0.621346 
0.533638 0.825704 0.981009 0.112212 0.476791 
0.198374 0.70243 0.941594 0.966953 0.723782 
0.40957 0.444101 0.698345 0.686629 0.283091 
0.993815 0.726801 0.340664 0.719846 0.440141 
0.623969 0.854786 0.614048 0.538501 0.587955 
0.708875 0.216375 0.976051 0.160685 0.0913628 
0.125314 0.27717 0.240631 0.601952 0.231978 
0.978423 0.325469 0.933378 0.99513 0.161774 
0.75192 0.995816 0.957612 0.161493 0.902322 
0.501377 0.408838 0.224128 0.0227169 0.902241 
0.794289 0.482337 0.145457 0.413914 0.0615108 
0.733323 0.544655 0.817143 0.9619 0.044066 
0.652355 0.645523 0.118805 0.987358 0.211978 
0.159653 0.261946 0.00989181 0.983331 0.25442 
0.199864 0.158633 0.172553 0.792019 0.843513 
0.633507 0.697085 0.170487 0.571784 0.742181 
0.639982 0.784219 0.462788 0.395411 0.892001 
0.375648 0.494117 0.00269952 0.878851 0.116102 
0.48543 0.333978 0.706841 0.837507 0.169697 
0.466083 0.776504 0.949886 0.394446 0.324433 
0.350461 0.157919 0.602989 0.701524 0.0947107 
0.367245 0.816083 0.903039 0.25171 0.043121 
0.826887 0.840497 0.907439 0.217612 0.824859 
0.72391 0.0863294 0.836442 0.526203 0.0465974 
0.386102 0.30998 0.484421 0.5443 0.762964 
0.361486 0.677357 0.717649 0.196694 0.486591 
0.321349 0.157956 0.259887 0.0440907 0.709074 
0.631888 0.395273 0.790744 0.503025 0.785642 
0.832581 0.706042 0.546135 0.829695 0.903707 
0.274298 0.560391 0.304724 0.997161 0.098727 
0.0949717 0.290236 0.496267 0.750765 0.806494 
0.465794 0.975139 0.275714 0.850953 0.722677 
0.245083 0.177368 0.0231269 0.873122 0.247856 
0.948181 0.853336 0.97926 0.739192 0.146153 
0.106812 0.879207 0.75099 0.433705 0.170975 
0.589613 0.9499 0.596582 0.30108 0.416558 
0.9587 0.0157013 0.446762 0.831364 0.415471 
0.387079 0.0315952 0.561556 0.773274 0.885154 
0.841524 0.248405 0.743243 0.311167 0.458275 
0.092416 0.358296 0.223466 0.280277 0.74246 
0.809532 0.973753 0.244165 0.932022 0.496909 
0.216153 0.855132 0.90067 0.140918 0.222494 
0.492742 0.360967 0.171438 0.821588 0.821939 
0.97437 0.28512 0.825189 0.991992 0.020602 
0.978301 0.719432 0.623543 0.613281 0.130124 
0.794339 0.215793 0.842672 0.729618 0.757876 
0.845319 0.95172 0.73461 0.49779 0.413434 
0.837801 0.586315 0.545547 0.779066 0.367714 
0.259536 0.13975 0.860488 0.527107 0.106129 
0.0776538 0.85171 0.956675 0.149285 0.17411 
0.124736 0.278919 0.154465 0.116631 0.338746 
0.254502 0.12914 0.810515 0.871107 0.59404 
0.978694 0.429983 0.2582 0.387698 0.716153 
0.0470554 0.155239 0.738718 0.822484 0.398438 
0.999448 0.393249 0.234147 0.0228849 0.617972 
0.357075 0.779321 0.316684 0.501396 0.852148 
0.698789 0.383491 0.486853 0.595685 0.791598 
0.382586 0.988613 0.882687 0.163551 0.611858 
0.666969 0.333508 0.352248 0.442589 0.50582 
0.191308 0.914557 0.999771 0.11433 0.669911 
0.0550935 0.707589 0.876014 0.00756891 0.792109 
0.95368 0.1505 0.0533785 0.0789973 0.972822 
0.642051 0.0684379 0.478671 0.229782 0.90319 
0.410084 0.294595 0.727613 0.446016 0.822345 
0.614858 0.141448 0.525483 0.450187 0.686909 
0.573023 0.153634 0.270659 0.93276 0.259178 
0.874148 0.538101 0.02915 0.757383 0.748733 
0.93731 0.531442 0.845787 0.995935 0.648349 
0.539418 0.015975 0.491423 0.991803 0.91572 
0.0469057 0.412522 0.969314 0.699544 0.534348 
0.00368129 0.478703 0.958701 0.92125 0.729255 
0.859652 0.585685 0.718848 0.988317 0.347176 
0.0545664 0.869679 0.535458 0.449778 0.68501 
0.731606 0.541859 0.00948883 0.633756 0.404042 
0.421072 0.955638 0.923361 0.151427 0.73461 
0.36891 0.432127 0.177942 0.613188 0.275667 
0.687914 0.70717 0.848191 0.997229 0.143541 
0.860882 0.267209 0.481684 0.601863 0.740714 
0.884041 0.629315 0.696676 0.254644 0.38939 
0.160904 0.872444 0.281213 0.74276 0.50066 
0.490314 0.0613394 0.503359 0.680823 0.231894 
0.738156 0.189206 0.542531 0.581913 0.408775 
0.611754 0.442433 0.400372 0.819516 0.239705 
0.469496 0.641561 0.614936 0.17482 0.459733 
0.904235 0.822814 0.842472 0.146742 0.934573 
0.820859 0.780474 0.973646 0.118665 0.210175 
0.169934 0.907194 0.813132 0.761294 0.216936 
0.870016 0.439455 0.584201 0.276571 0.886762 
0.163141 0.428908 0.541577 0.813717 0.81981 
0.139416 0.930623 0.13604 0.408692 0.55319 
0.202519 0.792507 0.323632 0.79639 0.462769 
0.680134 0.615646 0.6083 0.640142 0.979587 
0.0837676 0.204352 0.108526 0.146997 0.0115331 
0.102798 0.422169 0.593412 0.642329 0.847184 
0.938283 0.615982 0.171556 0.0183639 0.0959311 
0.512001 0.701617 0.302845 0.147014 0.210146 
0.764118 0.165159 0.635653 0.491746 0.706575 
0.128037 0.360314 0.0299456 0.708453 0.763605 
0.370069 0.0560475 0.332678 0.02337 0.493153 
0.307476 0.393647 0.962152 0.904936 0.646573 
0.0146258 0.506865 0.573749 0.747506 0.968888 
0.0481632 0.577344 0.562046 0.627849 0.119277 
0.853785 0.801628 0.726052 0.901581 0.434172 
0.674797 0.313511 0.56789 0.782747 0.93439 
0.404499 0.986651 0.238071 0.509232 0.00163749 
0.46843 0.704395 0.524725 0.791854 0.227432 
0.0814624 0.609313 0.926776 0.752909 0.0966288 
0.661441 0.527074 0.407547 0.533499 0.652057 
0.393276 0.053906 0.207603 0.733646 0.418479 
0.846727 0.96005 0.754763 0.637713 0.0894331 
0.40725 0.731319 0.953393 0.900959 0.227301 
0.873488 0.562929 0.718979 0.715537 0.915384 
0.584884 0.464671 0.310219 0.28538 0.743552 
0.37585 0.659055 0.700201 0.929765 0.483082 
0.129626 0.901194 0.253535 0.869964 0.531013 
0.252841 0.577466 0.518583 0.286599 0.559493 
0.961275 0.0448336 0.865819 0.812464 0.291134 
0.966958 0.948798 0.213311 0.565097 0.332846 
0.658744 0.263238 0.429785 0.544165 0.245535 
0.737668 0.761679 0.137421 0.650018 0.545343 
0.972039 0.835292 0.370712 0.50597 0.461806 
0.596485 0.426126 0.568001 0.832301 0.955028 
0.850444 0.0429481 0.1209 0.532009 0.216418 
0.949434 0.36563 0.806572 0.347039 0.270193 
0.390751 0.260293 0.468383 0.302042 0.786711 
0.235176 0.948396 0.935886 0.361 0.0132566 
0.0556392 0.242377 0.197252 0.250479 0.612235 
0.835547 0.594171 0.735734 0.553335 0.0413006 
0.439581 0.68477 0.355158 0.429374 0.462843 
0.246695 0.281889 0.457943 0.924349 0.764898 
0.826823 0.0556595 0.740524 0.41214 0.137669 
0.451308 0.879928 0.154917 0.305406 0.557939 
0.105048 0.132623 0.642846 0.882451 0.172602 
0.177433 0.154229 0.122462 0.662671 0.24801 
0.638017 0.695147 0.0163408 0.446951 0.713905 
0.975057 0.320277 0.744224 0.755955 0.459289 
0.123177 0.249009 0.780938 0.56917 0.777156 
0.672663 0.221521 0.96112 0.44506 0.770486 
0.717506 0.206768 0.406712 0.945229 0.445758 
0.568259 0.253412 0.392364 0.560192 0.871539 
0.686982 0.0508078 0.135963 0.841455 0.238812 
0.419101 0.777726 0.651025 0.657225 0.292799 
0.106109 0.814745 0.250506 0.336907 0.481338 
0.533983 0.241288 0.478745 0.314703 0.0851984 
0.899549 0.0828909 0.0078138 0.43302 0.246321 
0.380047 0.367282 0.226634 0.0502378 0.682382 
0.780197 0.947618 0.498948 0.497033 0.364794 
0.0669117 0.484214 0.907143 0.860067 0.382981 
0.842886 0.610535 0.40243 0.569261 0.494502 
0.445525 0.286996 0.261331 0.540324 0.114432 
0.41591 0.340252 0.503875 0.490841 0.111287 
0.385948 0.101541 0.872329 0.131197 0.709962 
0.971392 0.0708487 0.645066 0.237269 0.149392 
0.61512 0.0422553 0.201557 0.900297 0.246979 
0.560794 0.11015 0.272814 0.632975 0.704855 
0.857077 0.160959 0.33833 0.0628364 0.57926 
0.856439 0.795759 0.592147 0.341527 0.166933 
0.86511 0.776047 0.986621 0.538017 0.268384 
0.824892 0.249187 0.593419 0.856783 0.238036 
0.30478 0.183576 0.626779 0.182658 0.992191 
0.545708 0.204071 0.713615 0.168375 0.171769 
0.743752 0.669413 0.75347 0.356999 0.445291 
0.985283 0.102739 0.753758 0.731224 0.562698 
0.841715 0.421097 0.0132449 0.137218 0.666654 
0.34327 0.221491 0.113439 0.381264 0.304237 
0.781317 0.894977 0.491325 0.810471 0.921894 
0.0991529 0.693012 0.379197 0.930778 0.585637 
0.225411 0.615242 0.320315 0.890004 0.0767631 
0.437358 0.422606 0.447808 0.864475 0.45789 
0.00648646 0.350395 0.360997 0.821 0.687116 
0.692084 0.719176 0.244536 0.336519 0.111033 
0.63491 0.594372 0.23733 0.901753 0.408385 
0.191838 0.866089 0.959153 0.586008 0.0892655 
0.0937129 0.150442 0.780815 0.834761 0.423516 
0.438589 0.420695 0.706575 0.42091 0.768007 
0.0825749 0.141968 0.970175 0.42134 0.845424 
0.605575 0.655203 0.553593 0.185565 0.9918 
0.244291 0.284823 0.113169 0.0362924 0.629146 
0.936664 0.657247 0.526468 0.101451 0.63998 
0.518762 0.0404813 0.547956 0.157441 0.626204 
0.373017 0.211505 0.0373796 0.537922 0.49492 
0.70356 0.718794 0.128327 0.758227 0.243322 
0.66254 0.725962 0.712437 0.0705744 0.790326 
0.545741 0.963963 0.0723766 0.578933 0.900637 
0.520608 0.378865 0.565628 0.0705704 0.415978 
0.950284 0.435494 0.880434 0.683576 0.417517 
0.176696 0.416115 0.818516 0.602032 0.434531 
0.0120971 0.911347 0.154368 0.18014 0.940505 
0.452769 0.314299 0.362578 0.763919 0.66435 
0.62032 0.227707 0.25664 0.745247 0.196773 
0.329317 0.946893 0.18484 0.394958 0.0925882 
0.0974616 0.245588 0.718267 0.412583 0.748989 
0.754949 0.425219 0.032252 0.423278 0.976543 
0.990036 0.135624 0.240364 0.125918 0.0681525 
0.650423 0.839341 0.898454 0.681106 0.717234 
0.0034117 0.321338 0.732093 0.269419 0.375959 
0.651028 0.874186 0.7052 0.17719 0.389355 
0.268385 0.0906161 0.379455 0.148778 0.872034 
0.69641 0.713875 0.385517 0.62127 0.720511 
0.160118 0.801416 0.543151 0.146678 0.751055 
0.762481 0.0090569 0.917509 0.655104 0.872539 
0.824707 0.939245 0.794549 0.94976 0.515443 
0.571255 0.289873 0.920061 0.917146 0.583768 
0.786704 0.970916 0.182832 0.0949961 0.643738 
0.37909 0.841849 0.677326 0.113961 0.667704 
0.972409 0.563162 0.132743 0.54768 0.220897 
0.150546 0.322407 0.362198 0.355295 0.116265 
0.285101 0.41407 0.461395 0.418319 0.109209 
0.199879 0.881277 0.295839 0.694421 0.0540158 
0.753919 0.724559 0.795955 0.093456 0.0686121 
0.245433 0.28665 0.712429 0.425094 0.84008 
0.851011 0.817733 0.74538 0.264362 0.0526098 
0.456395 0.16886 0.210261 0.611243 0.676326 
0.47728 0.869521 0.984739 0.225095 0.78242 
0.93163 0.149513 0.107795 0.200594 0.288802 
0.388387 0.254711 0.634658 0.116217 0.202862 
0.778931 0.483775 0.578529 0.735525 0.679127 
0.515493 0.807476 0.882269 0.953296 0.30149 
0.507847 0.380488 0.625476 0.345753 0.887411 
0.882874 0.225243 0.345686 0.409468 0.629342 
0.633164 0.733277 0.853722 0.712263 0.469756 
0.25325 0.998362 0.259019 0.0201246 0.0192238 
0.921989 0.595636 0.159789 0.351594 0.808036 
0.384264 0.456641 0.805614 0.62369 0.731147 
0.932834 0.388686 0.945274 0.588989 0.258088 
0.508059 0.891412 0.00177475 0.876638 0.493992 
0.067098 0.241897 0.686263 0.554921 0.645299 
0.710671 0.181959 0.668135 0.619201 0.169776 
0.735924 0.115668 0.602691 0.197142 0.0605983 
0.631839 0.0700807 0.747376 0.187475 0.587871 
0.478583 0.373496 0.471731 0.91292 0.568364 
0.246696 0.162289 0.034547 0.811481 0.319971 
0.768514 0.803572 0.244112 0.186494 0.393147 
0.892973 0.450972 0.510519 0.328898 0.896831 
0.387978 0.400324 0.248745 0.672678 0.934845 
0.296799 0.247878 0.395845 0.554164 0.177058 
0.00147793 0.509413 0.524188 0.149535 0.36768 
0.0890228 0.458555 0.934702 0.67726 0.0583958 
0.553261 0.0278061 0.418622 0.860233 0.437274 
0.86241 0.62065 0.68809 0.365463 0.420183 
0.431437 0.918957 0.358596 0.387001 0.279167 
0.625263 0.514927 0.877457 0.683503 0.369786 
0.793653 0.147641 0.595419 0.908458 0.24941 
0.77589 0.0216711 0.718536 0.0455792 0.750935 
0.869924 0.813828 0.631883 0.922816 0.921587 
0.0177772 0.29342 0.80254 0.702015 0.903961 
0.402775 0.611688 0.749416 0.12403 0.0927475 
0.221098 0.536208 0.973032 0.11926 0.170098 
0.111959 0.326626 0.40569 0.392816 0.932183 
0.156948 0.100919 0.506475 0.292001 0.399129 
0.559879 0.508172 0.518046 0.0748386 0.148555 
0.859011 0.0593207 0.859251 0.578738 0.214451 
0.618801 0.708904 0.291937 0.455226 0.240092 
0.662097 0.785646 0.458861 0.426516 0.82975 
0.277284 0.150717 0.0492959 0.314585 0.183814 
0.689791 0.496875 0.732144 0.867163 0.00130975 
0.553294 0.93017 0.968263 0.502773 0.812093 
0.488984 0.0725268 0.603941 0.361056 0.433584 
0.0444098 0.0293004 0.140827 0.847378 0.59359 
0.702726 0.339479 0.0910869 0.689223 0.64323 
0.501966 0.687096 0.655206 0.83202 0.999332 
0.101653 0.14996 0.60152 0.849338 0.829664 
0.559513 0.271271 0.0533802 0.402593 0.212014 
0.660754 0.784604 0.706978 0.150104 0.761213 
0.413977 0.250222 0.234763 0.0630082 0.587543 
0.215302 0.640067 0.296872 0.376793 0.561155 
0.40588 0.643672 0.433755 0.575838 0.402501 
0.946375 0.389164 0.443892 0.369597 0.839463 
0.0398835 0.785933 0.494797 0.0126054 0.963409 
0.667113 0.267107 0.6974 0.655761 0.355122 
0.358482 0.917128 0.280914 0.0324296 0.379533 
0.907911 0.725637 0.741694 0.439921 0.0946014 
0.513705 0.107035 0.435558 0.325325 0.603612 
0.756512 0.504533 0.550581 0.586741 0.214236 
0.0967152 0.513559 0.134786 0.101053 0.536602 
0.361614 0.789841 0.753876 0.487449 0.953099 
0.259771 0.0868639 0.134933 0.910434 0.903362 
0.658816 0.583966 0.837896 0.0113537 0.100949 
0.539207 0.311175 0.70622 0.69654 0.410287 
0.275793 0.648473 0.255047 0.588185 0.129453 
0.457063 0.181413 0.79187 0.0471196 0.335723 
0.572996 0.670736 0.735592 0.118552 0.523322 
0.690874 0.0464516 0.552101 0.25599 0.653392 
0.113962 0.425659 0.486112 0.558716 0.289825 
0.300354 0.311112 0.432042 0.981584 0.919164 
0.87281 0.584886 0.46133 0.684989 0.0330788 
0.86295 0.443814 0.0309002 0.278917 0.721468 
0.414477 0.432522 0.169961 0.387809 0.576355 
0.670238 0.981489 0.321113 0.541015 0.26673 
0.768489 0.745898 0.955667 0.842722 0.120249 
0.649325 0.712277 0.088826 0.762293 0.933664 
0.746375 0.791215 0.0281165 0.995825 0.534533 
0.257156 0.602889 0.136385 0.40335 0.575176 
0.828343 0.571243 0.0880972 0.0648273 0.531032 
0.0885548 0.631748 0.446971 0.599159 0.989924 
0.765654 0.563679 0.675756 0.536088 0.0688043 
0.0578611 0.4966 0.416923 0.310031 0.603001 
0.173513 0.73519 0.224303 0.185187 0.0824058 
0.27249 0.0595057 0.102652 0.40301 0.728317 
0.330527 0.375321 0.912231 0.686667 0.271311 
0.71423 0.14026 0.905699 0.0855908 0.63004 
0.778367 0.198366 0.0500558 0.711888 0.938665 
0.892075 0.524274 0.224433 0.674773 0.833425 
0.807642 0.55793 0.7994 0.122525 0.79665 
0.760605 0.868051 0.182286 0.331102 0.1683 
0.824525 0.553997 0.175975 0.358734 0.895106 
0.243161 0.167737 0.72981 0.860485 0.808167 
0.992495 0.916397 0.112784 0.971717 0.0325289 
0.73349 0.927075 0.790888 0.361734 0.725443 
0.456705 0.302812 0.673057 0.80677 0.296488 
0.0902561 0.0114805 0.396617 0.308455 0.15697 
0.502339 0.815238 0.209354 0.956785 0.2012 
0.422933 0.228175 0.240415 0.133218 0.0758565 
0.948829 0.263267 0.318622 0.120083 0.194578 
0.747786 0.390408 0.769265 0.422345 0.166559 
0.714386 0.737725 0.593066 0.326029 0.701647 
0.484329 0.0943883 0.312615 0.659834 0.725813 
0.761008 0.362387 0.880745 0.137789 0.317092 
0.741337 0.0860583 0.461566 0.247245 0.191448 
0.0545635 0.0246473 0.691014 0.851679 0.125653 
0.195188 0.62745 0.124196 0.743312 0.6943 
0.328195 0.183906 0.635723 0.338227 0.206064 
0.289737 0.303811 0.933161 0.489591 0.84253 
0.384134 0.117045 0.473001 0.475849 0.336099 
0.207031 0.176182 0.22288 0.102438 0.360244 
0.31838 0.319152 0.656595 0.304992 0.485043 
0.1034 0.991475 0.726861 0.0171327 0.596335 
0.268333 0.169343 0.0483862 0.072626 0.0639632 
0.822703 0.673299 0.594707 0.527194 0.916385 
0.764854 0.826824 0.654915 0.596055 0.549666 
0.982285 0.0338904 0.435212 0.34193 0.928952 
0.0274888 0.912542 0.416704 0.0710609 0.341779 
0.370269 0.363795 0.219688 0.929844 0.0245561 
0.495464 0.400148 0.740113 0.895465 0.54085 
0.137321 0.0486734 0.984597 0.204493 0.236689 
0.651862 0.084119 0.0780036 0.00922112 0.630326 
0.220811 0.299041 0.95566 0.395225 0.209133 
0.247856 0.878467 0.676685 0.551895 0.0412866 
0.485508 0.818044 0.440599 0.758022 0.860467 
0.586391 0.0346567 0.318454 0.00148383 0.251149 
0.312336 0.47518 0.229058 0.320901 0.0610784 
0.4542 0.452773 0.305022 0.74339 0.0161667 
0.448101 0.0898206 0.82553 0.330247 0.367054 
0.681467 0.392995 0.997292 0.338173 0.705237 
0.315976 0.788088 0.155279 0.436283 0.0191283 
0.455535 0.811469 0.187439 0.158519 0.343328 
0.035515 0.782157 0.308491 0.0573124 0.689513 
0.133511 0.126154 0.598669 0.100353 0.146804 
0.862569 0.647245 0.659613 0.052306 0.832697 
0.457501 0.635972 0.0495328 0.627527 0.559845 
0.19503 0.552784 0.876114 0.146058 0.715835 
0.720425 0.369039 0.686141 0.656057 0.91651 
0.412875 0.57122 0.939264 0.958495 0.46784 
0.850164 0.167187 0.639059 0.411842 0.268305 
0.801955 0.115786 0.235693 0.0249118 0.570078 
0.584089 0.0580347 0.11282 0.278011 0.437204 
0.511427 0.17451 0.97187 0.799377 0.159729 
0.129646 0.822638 0.635879 0.670848 0.750696 
0.387514 0.499873 0.947751 0.333414 0.790861 
0.39527 0.419456 0.745064 0.260203 0.401291 
0.289143 0.879849 0.154245 0.686989 0.549889 
0.471887 0.684036 0.705673 0.921889 0.0281328 
0.0200855 0.290775 0.880645 0.4482 0.696762 
0.415591 0.599396 0.182869 0.710666 0.879429 
0.601542 0.844648 0.597353 0.822594 0.507148 
0.139159 0.917064 0.450625 0.540745 0.156393 
0.249857 0.499937 0.0693438 0.44933 0.235313 
0.95751 0.57652 0.577215 0.507185 0.76246 
0.177889 0.0756371 0.191202 0.595952 0.410618 
0.973842 0.31813 0.891176 0.68385 0.17394 
0.268204 0.961889 0.962259 0.0803169 0.817481 
0.676509 0.665159 0.536526 0.139055 0.750021 
0.615812 0.725724 0.808417 0.589522 0.265487 
0.553657 0.423607 0.0520237 0.990848 0.224887 
0.376299 0.264171 0.0799192 0.193479 0.706153 
0.701205 0.722542 0.333433 0.907299 0.385645 
0.184422 0.700188 0.499058 0.0461668 0.6801 
0.332405 0.640699 0.411888 0.358318 0.498851 
0.287536 0.796489 0.789845 0.752695 0.240451 
0.287769 0.956079 0.266448 0.611415 0.771035 
0.716915 0.188023 0.373495 0.373812 0.932877 
0.509817 0.475301 0.170423 0.596112 0.705117 
0.565009 0.661466 0.40135 0.992655 0.573349 
0.477365 0.992173 0.792656 0.240449 0.608749 
0.129625 0.430421 0.70522 0.0119195 0.372685 
0.357453 0.551261 0.756741 0.598847 0.400476 
0.193009 0.375386 0.648445 0.544743 0.961132 
0.874173 0.52864 0.0168399 0.544744 0.34387 
0.827599 0.913763 0.0196545 0.957671 0.902251 
0.581766 0.656559 0.395704 0.55302 0.522284 
0.997991 0.0116387 0.170029 0.844907 0.537344 
0.355565 0.261258 0.901676 0.791604 0.592685 
0.864214 0.0729745 0.622519 0.447934 0.0818607 
0.130367 0.323988 0.196065 0.734275 0.597007 
0.221085 0.207329 0.0658341 0.687474 0.342995 
0.728896 0.965057 0.757179 0.743907 0.717042 
0.842111 0.358954 0.241712 0.697851 0.286255 
0.330705 0.213709 0.19882 0.606106 0.909751 
0.57544 0.594727 0.580666 0.294669 0.771783 
0.701753 0.963572 0.624627 0.493883 0.162082 
0.662108 0.177988 0.701467 0.376183 0.907869 
0.136662 0.170739 0.664703 0.304169 0.536317 
0.830066 0.841293 0.189862 0.234487 0.0294354 
0.275722 0.494796 0.571019 0.82198 0.117065 
0.739873 0.177239 0.0842095 0.735754 0.236991 
0.470922 0.296475 0.150374 0.287198 0.0871333 
0.979081 0.0435026 0.260567 0.875325 0.587066 
0.754767 0.351125 0.739858 0.286447 0.241967 
0.386428 0.873687 0.809745 0.513386 0.67423 
0.724682 0.45342 0.845858 0.288921 0.558314 
0.879436 0.965377 0.120774 0.897327 0.904814 
0.633623 0.544661 0.713243 0.545646 0.479063 
0.929737 0.339239 0.485524 0.628101 0.768451 
0.821213 0.222241 0.694279 0.0347565 0.604441 
0.570617 0.299136 0.342578 0.461016 0.106095 
0.148018 0.804753 0.852677 0.404888 0.720711 
0.603362 0.416593 0.850215 0.434752 0.799198 
0.1014 0.0282803 0.730143 0.843701 0.673695 
0.696424 0.63999 0.0664732 0.307551 0.181254 
0.409556 0.970136 0.249904 0.180974 0.0261666 
0.115368 0.371972 0.107358 0.636722 0.113217 
0.0148787 0.760056 0.818935 0.211928 0.775908 
0.19947 0.736507 0.880142 0.89575 0.54472 
0.130515 0.8291 0.983974 0.508238 0.520484 
0.587126 0.0191304 0.829981 0.63856 0.180495 
0.15058 0.275035 0.266892 0.943001 0.493205 
0.346603 0.234512 0.850714 0.299604 0.810097 
0.316748 0.597231 0.694487 0.203138 0.711287 
0.922129 0.800744 0.282959 0.635277 0.768366 
0.493416 0.26141 0.288638 0.107252 0.930503 
0.545112 0.0156224 0.631425 0.0815122 0.310315 
0.344171 0.734755 0.809371 0.502506 0.846854 
0.459987 0.546905 0.381723 0.56303 0.745846 
0.905372 0.358422 0.0326474 0.48125 0.550638 
0.830879 0.541085 0.64272 0.933925 0.466981 
0.892499 0.80491 0.828561 0.0121703 0.806248 
0.626553 0.985308 0.00739875 0.790653 0.418856 
0.669196 0.542924 0.210685 0.268988 0.69157 
0.855334 0.771295 0.963881 0.873812 0.355403 
0.114649 0.167662 0.384551 0.97895 0.370994 
0.753168 0.387362 0.494165 0.097888 0.0459056 
0.440135 0.400551 0.977924 0.00615946 0.127255 
0.17356 0.454795 0.546213 0.568971 0.533194 
0.85101 0.964583 0.435362 0.013355 0.132499 
0.565065 0.501846 0.562819 0.876291 0.0714837 
0.756275 0.693823 0.0901326 0.263347 0.181479 
0.906323 0.518347 0.502152 0.707178 0.685681 
0.749648 0.989666 0.474172 0.258449 0.0475345 
0.423286 0.47917 0.194757 0.514273 0.288267 
0.228059 0.410621 0.629851 0.559997 0.208243 
0.25042 0.392902 0.164934 0.278154 0.696294 
0.293448 0.71439 0.2395 0.179721 0.00836351 
0.181723 0.247054 0.995218 0.659754 0.274959 
0.589898 0.395108 0.0632727 0.221894 0.23886 
0.752212 0.883008 0.607991 0.0383654 0.542494 
0.683605 0.58426 0.858139 0.764313 0.243448 
0.697773 0.268604 0.137681 0.798459 0.445118 
0.315644 0.264284 0.253696 0.962602 0.335671 
0.34205 0.493947 0.429297 0.0569347 0.271912 
0.811989 0.330378 0.895641 0.259265 0.384065 
0.204699 0.795996 0.193735 0.636449 0.572169 
0.243354 0.821532 0.401316 0.273943 0.366945 
0.777905 0.431525 0.611734 0.0393787 0.241222 
0.419815 0.880073 0.209489 0.986825 0.783018 
0.848051 0.692648 0.185457 0.428482 0.451168 
0.711824 0.206512 0.49277 0.25581 0.681339 
0.322974 0.22528 0.637728 0.783663 0.11609 
0.251054 0.111589 0.761541 0.777409 0.321291 
0.0429949 0.613048 0.131697 0.332007 0.521293 
0.864632 0.122995 0.166967 0.708956 0.755771 
0.144056 0.166578 0.255989 0.785048 0.564288 
0.961052 0.98948 0.20163 0.203702 0.875561 
0.86127 0.334717 0.485741 0.822685 0.00372248 
0.523857 0.00585471 0.575398 0.781832 0.280754 
0.733879 0.803991 0.599574 0.170589 0.892984 
0.834453 0.0907521 0.506551 0.212905 0.436817 
0.588435 0.841778 0.00581047 0.809654 0.580165 
0.56778 0.457046 0.842652 0.247251 0.155463 
0.524354 0.430452 0.340343 0.507649 0.712073 
0.566286 0.462905 0.770494 0.348325 0.791471 
0.623429 0.941053 0.697902 0.167513 0.12156 
0.228009 0.49913 0.823125 0.782881 0.983789 
0.555956 0.118286 0.670239 0.149696 0.0774081 
0.824828 0.208545 0.44887 0.742456 0.254284 
0.537809 0.348499 0.932192 0.966278 0.902854 
0.566659 0.305334 0.451738 0.72512 0.29966 
0.437714 0.93486 0.59946 0.850399 0.300199 
0.767321 0.584541 0.662507 0.921895 0.735772 
0.781083 0.416073 0.285262 0.756471 0.965969 
0.851033 0.963962 0.104926 0.793266 0.0316197 
0.676027 0.959036 0.972945 0.179968 0.214921 
0.491075 0.277824 0.618422 0.977353 0.674736 
0.89516 0.762568 0.151622 0.918208 0.674417 
0.56172 0.348208 0.593556 0.23192 0.673443 
0.27876 0.0649845 0.0035147 0.868413 0.181051 
0.885584 0.247846 0.17836 0.974981 0.419438 
0.807294 0.597675 0.520197 0.674198 0.651086 
0.078868 0.662004 0.592765 0.31348 0.407116 
0.387534 0.530187 0.87119 0.120712 0.782774 
0.622105 0.46058 0.168309 0.0348091 0.980402 
0.29589 0.505471 0.639196 0.885968 0.585685 
0.364932 0.90848 0.916252 0.084101 0.00891093 
0.631408 0.316822 0.312765 0.479287 0.588631 
0.908482 0.829271 0.471558 0.132058 0.425049 
0.156665 0.145487 0.956116 0.986777 0.415701 
0.444167 0.698683 0.846216 0.691775 0.486754 
0.674937 0.432628 0.974056 0.181885 0.677219 
0.161356 0.00425576 0.495579 0.185277 0.251917 
0.609771 0.386308 0.915301 0.394418 0.92694 
0.251179 0.226906 0.14131 0.480659 0.123935 
0.632972 0.477135 0.424264 0.0874898 0.558549 
0.572386 0.129821 0.127895 0.0116544 0.0559707 
0.848104 0.211046 0.380533 0.994444 0.37911 
0.591853 0.38603 0.444966 0.864545 0.727483 
0.417878 0.919981 0.892772 0.468767 0.253443 
0.815135 0.514615 0.138741 0.450531 0.532484 
0.229223 0.334797 0.155953 0.957777 0.243341 
0.481346 0.45942 0.177088 0.589039 0.725877 
0.989035 0.862778 0.541232 0.62946 0.213647 
0.133186 0.326704 0.458523 0.506668 0.739321 
0.742379 0.00738999 0.41634 0.0233306 0.501706 
0.0469832 0.199675 0.698964 0.631816 0.278468 
0.109717 0.728857 0.176597 0.846005 0.410855 
0.729218 0.502446 0.661365 0.64478 0.951609 
0.290215 0.671534 0.0113433 0.623202 0.186285 
0.642322 0.781837 0.774289 0.0358381 0.968897 
0.623448 0.813032 0.937327 0.924383 0.923026 
0.557501 0.937028 0.25846 0.820577 0.0479331 
0.384132 0.105133 0.307406 0.686253 0.147392 
0.280424 0.491566 0.434535 0.800978 0.900161 
0.390848 0.507024 0.740277 0.0118398 0.702877 
0.508683 0.985473 0.273539 0.42822 0.614089 
0.378267 0.488764 0.619748 0.0558536 0.570525 
0.534219 0.533943 0.892655 0.447306 0.434428 
0.763284 0.962951 0.930567 0.237414 0.744632 
0.689462 0.113318 0.0726629 0.676025 0.303188 
0.936696 0.886367 0.168491 0.501611 0.144704 
0.22087 0.211694 0.751528 0.63412 0.888682 
0.442437 0.571585 0.481035 0.753776 0.595377 
0.841856 0.494521 0.223729 0.498563 0.477986 
0.0971592 0.607533 0.189636 0.260409 0.905866 
0.302198 0.945062 0.77969 0.694116 0.873044 
0.725274 0.274168 0.762768 0.429291 0.272103 
0.216873 0.624428 0.957739 0.122419 0.964941 
0.256499 0.407543 0.48013 0.505429 0.0246451 
0.248716 0.416252 0.0705311 0.0123628 0.425612 
0.583679 0.737962 0.560747 0.591753 0.667242 
0.577951 0.848876 0.735803 0.580102 0.490796 
0.130736 0.91272 0.022688 0.285444 0.334052 
0.55647 0.367328 0.742355 0.107704 0.723516 
0.197301 0.862192 0.748503 0.71135 0.866481 
0.694294 0.721568 0.658406 0.575062 0.280851 
0.436743 0.278807 0.924174 0.804935 0.100482 
0.64247 0.326244 0.639837 0.217606 0.0172678 
0.00527625 0.607083 0.859078 0.906992 0.76538 
0.109794 0.72058 0.640157 0.817661 0.242332 
0.745051 0.0748548 0.371092 0.988108 0.409712 
0.585622 0.0670204 0.732004 0.0672499 0.409604 
0.30312 0.288088 0.140647 0.601085 0.737153 
0.567185 0.0514998 0.836338 0.881873 0.398188 
0.364356 0.508792 0.506988 0.291969 0.236909 
0.249735 0.99394 0.182866 0.949285 0.0840846 
0.609288 0.375855 0.297874 0.738981 0.345532 
0.669085 0.228472 0.0264609 0.730846 0.469119 
0.982989 0.327179 0.0799017 0.932447 0.117407 
0.987711 0.381178 0.211344 0.52773 0.408828 
0.994115 0.682098 0.538426 0.374491 0.661782 
0.531086 0.218361 0.733826 0.22453 0.247289 
0.137479 0.752811 0.243933 0.912 0.648893 
0.220944 0.656548 0.441833 0.859949 0.872254 
0.965108 0.495933 0.740463 0.294825 0.999722 
0.440288 0.0993743 0.240277 0.811733 0.44034 
0.227016 0.679326 0.636941 0.321308 0.961882 
0.612116 0.804363 0.336866 0.0118109 0.986894 
0.93064 0.64842 0.214802 0.607347 0.158244 
0.407085 0.0499474 0.878252 0.342791 0.103419 
0.295052 0.273769 0.543065 0.701694 0.872253 
0.392917 0.817712 0.817177 0.29876 0.221646 
0.755313 0.123081 0.718997 0.5433 0.581 
0.330619 0.374354 0.0437256 0.997238 0.198903 
0.375896 0.791198 0.964812 0.359732 0.947201 
0.15904 0.833033 0.696493 0.844176 0.294456 
0.30366 0.0553557 0.367822 0.152633 0.278649 
0.780852 0.837561 0.429024 0.0790823 0.456983 
0.666273 0.199496 0.880342 0.245658 0.838763 
0.385265 0.758223 0.459614 0.904306 0.436887 
0.365801 0.908643 0.165966 0.615012 0.157699 
0.465199 0.45326 0.733191 0.0538237 0.0927728 
0.557021 0.712194 0.371438 0.696872 0.794951 
0.0627494 0.684678 0.941393 0.944679 0.288524 
0.314737 0.582583 0.482419 0.590729 0.499521 
0.677274 0.866574 0.718383 0.118694 0.221246 
0.657807 0.328166 0.68033 0.0454965 0.0659464 
0.732162 0.193742 0.761189 0.195117 0.922331 
0.232023 0.484519 0.302203 0.976383 0.93351 
0.554131 0.0487191 0.551688 0.993859 0.419635 
0.0088449 0.0897407 0.437429 0.217426 0.702143 
0.234829 0.980369 0.965171 0.207476 0.568445 
0.692397 0.629101 0.419982 0.249659 0.642652 
0.401623 0.0373279 0.840551 0.653095 0.45591 
0.405875 0.459854 0.256804 0.832689 0.220025 
0.299944 0.373142 0.770238 0.578207 0.277811 
0.483692 0.876567 0.965264 0.881467 0.64751 
0.325047 0.790897 0.402253 0.189715 0.93793 
0.331387 0.104859 0.40421 0.633715 0.197912 
0.674005 0.0861998 0.312061 0.664212 0.346786 
0.00893423 0.145289 0.945922 0.504532 0.676223 
0.034189 0.478104 0.0364488 0.797888 0.3419 
0.0826038 0.187091 0.639473 0.496018 0.919904 
0.678282 0.201613 0.0226869 0.178626 0.993245 
0.475684 0.713462 0.172669 0.373419 0.402513 
0.238883 0.339341 0.157696 0.0468451 0.114158 
0.854246 0.823296 0.689475 0.512216 0.381799 
0.220164 0.358487 0.978822 0.500885 0.608399 
0.99899 0.379712 0.159761 0.994855 0.880968 
0.850903 0.586918 0.191612 0.901697 0.109539 
0.510768 0.643294 0.767136 0.124173 0.411289 
0.366046 0.989246 0.831348 0.725745 0.647142 
0.286075 0.128591 0.000830714 0.0228216 0.848299 
0.07436 0.0353608 0.941368 0.44785 0.868089 
0.0391945 0.822991 0.382173 0.460265 0.584804 
0.363225 0.242697 0.111248 0.0872773 0.504106 
0.446527 0.67628 0.149994 0.0870431 0.976613 
0.634806 0.9145 0.828862 0.477597 0.188338 
0.826465 0.371247 0.440384 0.636369 0.823332 
0.590517 0.794026 0.833326 0.386174 0.00793899 
0.446773 0.955061 0.293215 0.780111 0.332523 
0.854384 0.936923 0.969712 0.539927 0.602095 
0.531559 0.166423 0.875789 0.730662 0.447646 
0.731208 0.689593 0.824666 0.0680128 0.121473 
0.325586 0.753547 0.226206 0.798691 0.111996 
0.539629 0.437035 0.389164 0.606502 0.728509 
0.544673 0.915117 0.431277 0.0274678 0.777595 
0.683087 0.809962 0.28424 0.78389 0.763557 
0.338287 0.02311 0.582866 0.651933 0.168225 
0.118922 0.378046 0.728668 0.422808 0.25777 
0.382896 0.518485 0.867333 0.858757 0.303758 
0.341836 0.992479 0.0594932 0.111233 0.0674715 
0.0486937 0.0748815 0.371042 0.0631007 0.354956 
0.367143 0.0160685 0.353088 0.933109 0.348065 
0.440264 0.0644294 0.860324 0.659351 0.338479 
0.509947 0.553167 0.732436 0.487085 0.0548636 
0.578064 0.294085 0.930266 0.143926 0.294644 
0.781141 0.83619 0.927777 0.914564 0.958835 
0.713993 0.647998 0.0903336 0.779866 0.962434 
0.233792 0.00470963 0.284498 0.572568 0.749369 
0.11047 0.955541 0.223798 0.86395 0.369202 
0.555375 0.675349 0.604528 0.527171 0.358027 
0.249206 0.201923 0.771078 0.598031 0.504628 
0.117201 0.454403 0.896647 0.0203251 0.781463 
0.0774903 0.697329 0.743052 0.656785 0.159846 
0.940154 0.0656458 0.575537 0.223384 0.995181 
0.638195 0.711562 0.0421077 0.577713 0.466926 
0.390925 0.878888 0.729112 0.25827 0.390284 
0.634561 0.0214961 0.310508 0.112729 0.576679 
0.189911 0.366776 0.18406 0.581176 0.757726 
0.410411 0.540548 0.877925 0.150484 0.724847 
0.672754 0.825845 0.556292 0.551562 0.335663 
0.885721 0.28937 0.643397 0.974363 0.90264 
0.53204 0.231884 0.813337 0.897598 0.302792 
0.665551 0.0144579 0.0437775 0.580013 0.352754 
0.00936481 0.133685 0.861437 0.536812 0.323612 
0.631709 0.719059 0.976596 0.229041 0.216783 
0.265226 0.826798 0.528064 0.470194 0.882442 
0.118594 0.220087 0.193284 0.643868 0.818613 
0.729505 0.119571 0.71202 0.268258 0.228324 
0.862365 0.25159 0.768163 0.774004 0.93251 
0.0193478 0.343955 0.885374 0.895035 0.615609 
0.367419 0.735049 0.231141 0.916413 0.141674 
0.217345 0.236081 0.772364 0.7329 0.171794 
0.0191291 0.104259 0.421018 0.465306 0.536607 
0.228047 0.414964 0.991471 0.255135 0.438138 
0.175187 0.498976 0.287269 0.0809956 0.15504 
0.868088 0.430873 0.121356 0.87281 0.705329 
0.5827 0.36201 0.746596 0.479166 0.777296 
0.0920513 0.632681 0.267875 0.800976 0.528534 
0.425895 0.340122 0.711205 0.397588 0.388766 
0.91823 0.610287 0.47239 0.666278 0.906325 
0.860513 0.374877 0.0777552 0.219066 0.638587 
0.560249 0.416438 0.385137 0.470513 0.649561 
0.775743 0.21796 0.152331 0.379641 0.126885 
0.257978 0.507022 0.922596 0.792068 0.723699 
0.830517 0.574183 0.356647 0.762356 0.866574 
0.56982 0.770517 0.164217 0.110317 0.624904 
0.974864 0.175977 0.728261 0.206842 0.308765 
0.74569 0.808408 0.809041 0.00784342 0.420069 
0.0575578 0.0426602 0.261272 0.767588 0.26135 
0.778555 0.0344691 0.0727356 0.546147 0.455129 
0.174385 0.179062 0.432994 0.17369 0.706964 
0.450019 0.649636 0.282178 0.155757 0.204364 
0.46777 0.844076 0.517453 0.992662 0.712754 
0.552465 0.304622 0.828833 0.761572 0.498826 
0.115714 0.148179 0.780927 0.663521 0.843896 
0.675112 0.582529 0.865096 0.408587 0.26649 
0.839136 0.966322 0.656911 0.138868 0.757723 
0.386836 0.196646 0.726851 0.450538 0.51275 
0.170373 0.472181 0.689422 0.894371 0.52018 
0.67375 0.217569 0.316207 0.478365 0.990293 
0.587494 0.0215984 0.561997 0.593312 0.832656 
0.219228 0.949765 0.039426 0.3832 0.483299 
0.819816 0.0866178 0.522897 0.454055 0.0689803 
0.54132 0.442531 0.852465 0.386245 0.863445 
0.643682 0.616443 0.594284 0.547649 0.845383 
0.0628513 0.693888 0.506814 0.868512 0.706388 
0.401682 0.266617 0.695146 0.805403 0.272795 
0.704894 0.965812 0.38643 0.61277 0.481814 
0.813531 0.321085 0.567964 0.924518 0.338797 
0.241902 0.134913 0.27077 0.672192 0.529295 
0.713546 0.292525 0.246687 0.5688 0.142473 
0.0818134 0.286183 0.209716 0.903115 0.128783 
0.257526 0.999409 0.605728 0.159519 0.37791 
0.618387 0.905954 0.952336 0.22328 0.849678 
0.928352 0.124956 0.07547 0.570281 0.0218644 
0.138901 0.144489 0.715674 0.230611 0.539543 
0.587789 0.322133 0.667266 0.194228 0.545608 
0.354706 0.278527 0.242807 0.847209 0.862833 
0.898659 0.151116 0.266322 0.955341 0.27702 
0.236661 0.963892 0.652421 0.336727 0.488158 
0.996191 0.751581 0.622741 0.793446 0.833779 
0.989508 0.151113 0.658233 0.243779 0.841756 
0.745817 0.391672 0.275078 0.264918 0.919534 
0.890369 0.552343 0.547626 0.50886 0.483786 
0.303864 0.411659 0.991016 0.637972 0.772122 
0.179309 0.294372 0.745562 0.320611 0.254994 
0.105307 0.539504 0.0517271 0.758778 0.832681 
0.944958 0.789513 0.291813 0.770526 0.423487 
0.645455 0.970893 0.816927 0.769423 0.673124 
0.0293769 0.0903902 0.154828 0.434098 0.571099 
0.653138 0.482611 0.511814 0.452252 0.590718 
0.696172 0.332368 0.906493 0.486728 0.606516 
0.927336 0.132016 0.896731 0.930965 0.320134 
0.273211 0.765423 0.345378 0.505826 0.203574 
0.555939 0.527588 0.157175 0.398122 0.749397 
0.254151 0.84368 0.159636 0.507319 0.660701 
0.401574 0.558435 0.641239 0.942243 0.557857 
0.00844399 0.22071 0.872527 0.720795 0.305862 
0.498266 0.845942 0.564415 0.852439 0.805478 
0.215423 0.919804 0.492272 0.62211 0.375206 
0.638505 0.177811 0.820514 0.570707 0.706891 
0.665646 0.503959 0.960017 0.430034 0.823506 
0.770953 0.775137 0.410131 0.839724 0.218131 
0.139972 0.533134 0.687031 0.643382 0.0147493 
0.890476 0.532268 0.35713 0.698624 0.439162 
0.929113 0.95349 0.00345855 0.787457 0.24607 
0.841763 0.958438 0.106397 0.762741 0.037417 
0.567055 0.924406 0.465107 0.370003 0.175665 
0.168049 0.898039 0.0501871 0.742309 0.131679 
0.957407 0.796518 0.450996 0.247906 0.376488 
0.151042 0.622055 0.0836406 0.197892 0.484934 
0.450534 0.289381 0.853745 0.592795 0.819135 
0.825147 0.612299 0.849361 0.684896 0.718091 
0.664326 0.581112 0.700249 0.201977 0.76116 
0.600532 0.85522 0.0612636 0.515706 0.368013 
0.385527 0.821882 0.0785023 0.677514 0.915318 
0.920066 0.656837 0.769911 0.708866 0.161502 
0.413571 0.270408 0.709971 0.163502 0.640947 
0.998757 0.165643 0.854868 0.545702 0.0262216 
0.587975 0.567816 0.916086 0.665699 0.38795 
0.965261 0.784326 0.154817 0.245272 0.405258 
0.664139 0.812056 0.224064 0.193652 0.175838 
0.328819 0.200368 0.00483874 0.18832 0.932795 
0.286277 0.0693183 0.899415 0.808454 0.769941 
0.607514 0.928052 0.91644 0.754903 0.746064 
0.0092508 0.274063 0.722352 0.660505 0.719271 
0.878972 0.816647 0.481337 0.00144239 0.173002 
0.366712 0.650503 0.764009 0.467899 0.594678 
0.567058 0.652575 0.819478 0.121768 0.192579 
0.709733 0.0765133 0.763654 0.539634 0.212523 
0.377139 0.789122 0.0684651 0.35166 0.61777 
0.740799 0.602488 0.25669 0.770363 0.0491006 
0.192719 0.687487 0.566772 0.680137 0.558653 
0.764517 0.895012 0.0721172 0.712768 0.0322306 
0.713294 0.955577 0.799224 0.173399 0.34366 
0.246808 0.431303 0.00518744 0.976607 0.233905 
0.810215 0.643845 0.638927 0.552936 0.680919 
0.364958 0.82877 0.143679 0.235365 0.838359 
0.800667 0.895696 0.453662 0.000986566 0.711135 
0.737044 0.937038 0.971276 0.819783 0.194654 
0.375737 0.728888 0.352026 0.350927 0.410111 
0.822608 0.940426 0.0447748 0.0475842 0.161575 
0.115125 0.410654 0.570393 0.334577 0.974405 
0.301237 0.582136 0.361269 0.50407 0.830473 
0.698414 0.889257 0.378113 0.824989 0.927348 
0.535907 0.739277 0.153903 0.17335 0.49612 
0.894927 0.137424 0.332985 0.139968 0.421725 
0.947377 0.90523 0.0251674 0.901088 0.549033 
0.878837 0.574585 0.796487 0.541111 0.226052 
0.16057 0.436677 0.922766 0.420943 0.954417 
0.101632 0.685184 0.761543 0.518879 0.873774 
0.283336 0.0638782 0.462887 0.975496 0.394703 
0.0696634 0.805644 0.735509 0.67099 0.355654 
0.0660528 0.297729 0.715894 0.0793061 0.399136 
0.959171 0.959687 0.399694 0.986867 0.0609006 
0.517426 0.576016 0.903735 0.142023 0.841743 
0.758046 0.200212 0.991027 0.0309756 0.315331 
0.111411 0.430999 0.487417 0.760993 0.428593 
0.237015 0.149294 0.892386 0.399379 0.0659007 
0.135079 0.675416 0.780133 0.407887 0.779941 
0.320026 0.893287 0.147572 0.97295 0.141485 
0.369713 0.491426 0.109092 0.225733 0.87892 
0.217055 0.673708 0.438999 0.386462 0.597533 
0.406088 0.0171268 0.670338 0.429681 0.461128 
0.402213 0.0738822 0.375897 0.165671 0.93416 
0.590168 0.854808 0.780466 0.458278 0.453475 
0.170797 0.769057 0.696517 0.305279 0.79121 
0.985693 0.300194 0.911658 0.716885 0.715731 
0.434338 0.72818 0.451361 0.489288 0.690105 
0.751653 0.271852 0.762064 0.170719 0.689185 
0.824639 0.508052 0.951649 0.0766152 0.137333 
0.535238 0.831575 0.154891 0.0789186 0.0118845 
0.548996 0.463255 0.831555 0.94204 0.150812 
0.197353 0.556575 0.317402 0.112587 0.509033 
0.396761 0.703857 0.568425 0.249426 0.00980535 
0.266834 0.250836 0.368833 0.988528 0.964732 
0.178387 0.163883 0.335156 0.308772 0.195082 
0.147431 0.571592 0.940036 0.775908 0.186526 
0.948257 0.0338381 0.491527 0.446203 0.0458528 
0.104198 0.686017 0.0921172 0.411763 0.689473 
0.583819 0.964949 0.131664 0.235458 0.648535 
0.421384 0.647967 0.0232378 0.136884 0.462923 
0.0102835 0.448033 0.0239015 0.22022 0.925384 
0.599448 0.504042 0.809554 0.250879 0.0271315 
0.492177 0.256593 0.541856 0.872725 0.943806 
0.935601 0.952922 0.280577 0.916064 0.581888 
0.568924 0.0754741 0.0104922 0.958298 0.336558 
0.189248 0.917988 0.289801 0.892555 0.319219 
0.538485 0.167131 0.873043 0.241916 0.462508 
0.776402 0.126716 0.76278 0.0380173 0.861864 
0.0867805 0.715783 0.984967 0.620856 0.952852 
0.145072 0.332421 0.688889 0.930864 0.957148 
0.131885 0.697356 0.716675 0.266388 0.79614 
0.0259558 0.702769 0.627918 0.462902 0.57342 
0.175297 0.926396 0.597638 0.221077 0.0476217 
