4600 5
0.788218 0.970952 0.55641 0.725741 0.339022 
0.729468 0.770957 0.399524 0.360038 0.467294 
0.64164 0.821004 0.16837 0.905461 0.633895 
0.309662 0.00507565 0.347514 0.0957596 0.0722626 
0.519533 0.39758 0.200126 0.156003 0.819108 
0.622376 0.814363 0.739423 0.637611 0.0297679 
0.285393 0.206013 0.0441895 0.0156371 0.270991 
0.10896 0.889817 0.984668 0.175603 0.411532 
0.193257 0.273684 0.251064 0.371028 0.392734 
0.565893 0.95318 0.728385 0.91942 0.640482 
0.665419 0.161281 0.181429 0.540662 0.954127 
0.554063 0.29995 0.33878 0.648344 0.443744 
0.81462 0.0192911 0.942191 0.245911 0.0692827 
0.642386 0.387373 0.74654 0.359353 0.478466 
0.171746 0.218953 0.528796 0.966525 0.505394 
0.758324 0.282725 0.489626 0.272567 0.312855 
0.859644 0.939497 0.290891 0.0955921 0.584347 
0.257652 0.774768 0.0937787 0.889321 0.49325 
0.12958 0.25927 0.246504 0.808106 0.421497 
0.3881 0.00802535 0.899547 0.806186 0.334675 
0.0875549 0.694915 0.0661338 0.86565 0.922814 
0.610946 0.850834 0.445431 0.382059 0.991521 
0.34288 0.803427 0.293543 0.11934 0.538999 
0.666262 0.84669 0.641689 0.259674 0.715598 
0.834703 0.865072 0.167396 0.823875 0.212224 
0.0977452 0.317206 0.374845 0.663191 0.469497 
0.394549 0.565123 0.596218 0.619076 0.772413 
0.147555 0.128256 0.635855 0.5285 0.532458 
0.0426921 0.891172 0.197118 0.63094 0.05572 
0.922329 0.418633 0.0558761 0.833853 0.182424 
0.0945124 0.173793 0.619001 0.625174 0.885071 
0.236839 0.354362 0.542145 0.156033 0.226017 
0.957948 0.716201 0.641456 0.71444 0.45149 
0.30521 0.13806 0.27658 0.649592 0.666554 
0.532547 0.0412445 0.927907 0.290169 0.150907 
0.351913 0.230806 0.676318 0.759101 0.0519798 
0.585907 0.0183926 0.834331 0.0354043 0.0754045 
0.996564 0.543076 0.95069 0.200598 0.584909 
0.801274 0.400418 0.549164 0.875933 0.856728 
0.492722 0.401069 0.22226 0.695655 0.344662 
0.721899 0.995218 0.784145 0.882685 0.620542 
0.214114 0.252188 0.458971 0.52168 0.83347 
0.133769 0.334028 0.845082 0.842646 0.0316909 
0.0173317 0.09898 0.830435 0.997193 0.72767 
0.62884 0.926306 0.00891532 0.578203 0.705864 
0.418521 0.154958 0.0655102 0.536034 0.814777 
0.746343 0.672198 0.601278 0.213825 0.33955 
0.33009 0.416025 0.693216 0.890873 0.772993 
0.737847 0.33218 0.00393789 0.980387 0.643612 
0.828062 0.18914 0.0553557 0.224796 0.433307 
0.370013 0.163305 0.75932 0.479881 0.157407 
0.451985 0.537913 0.963782 0.0816668 0.587874 
0.586029 0.790771 0.100594 0.664088 0.120624 
0.59643 0.357121 0.664838 0.420869 0.686085 
0.445116 0.513806 0.953368 0.495322 0.853726 
0.997983 0.707587 0.826284 0.345869 0.640259 
0.958582 0.423714 0.92839 0.609295 0.719131 
0.463636 0.00586793 0.528249 0.348053 0.277201 
0.248529 0.531686 0.709699 0.148916 0.0413723 
0.664771 0.773869 0.85263 0.548284 0.00819774 
0.190494 0.872094 0.552042 0.152945 0.964639 
0.737435 0.420907 0.548385 0.905503 0.121652 
0.194478 0.574284 0.367816 0.299593 0.963377 
0.348085 0.381695 0.768555 0.774351 0.853059 
0.288885 0.819302 0.949297 0.172646 0.467223 
0.882279 0.231346 0.204821 0.640355 0.411019 
0.492591 0.881771 0.585939 0.592858 0.0560567 
0.586633 0.827492 0.126919 0.0423506 0.74133 
0.986915 0.271353 0.250844 0.900598 0.333384 
0.847619 0.546796 0.634019 0.665441 0.7275 
0.404367 0.732558 0.0296358 0.916808 0.778243 
0.59066 0.725012 0.966589 0.656156 0.897857 
0.968782 0.496106 0.627028 0.558242 0.0670038 
0.197304 0.0545024 0.393116 0.405238 0.776583 
0.867518 0.605897 0.869774 0.491015 0.916724 
0.396005 0.314218 0.282578 0.601742 0.0576332 
0.711403 0.597332 0.198441 0.392193 0.786191 
0.186034 0.0672409 0.476895 0.0498097 0.0130048 
0.769663 0.525665 0.90915 0.468507 0.373874 
0.0567082 0.711304 0.726193 0.352622 0.130333 
0.857064 0.326585 0.00977398 0.817855 0.607582 
0.634347 0.123257 0.537822 0.148029 0.146768 
0.0637662 0.03472 0.0934993 0.535789 0.0352706 
0.638265 0.688622 0.806047 0.948109 0.296944 
0.912194 0.512171 0.162584 0.83272 0.938372 
0.893705 0.701197 0.213277 0.741947 0.149954 
0.296311 0.166962 0.613104 0.670391 0.0240887 
0.780233 0.898945 0.974786 0.238908 0.187369 
0.319678 0.725268 0.357631 0.839356 0.583489 
0.913083 0.422987 0.638743 0.801588 0.569575 
0.21156 0.479482 0.541379 0.782357 0.267708 
0.636819 0.0136675 0.859141 0.806685 0.78895 
0.0724634 0.71877 0.530501 0.130203 0.833799 
0.69775 0.938683 0.492521 0.377485 0.635256 
0.7943 0.0358356 0.435091 0.552062 0.809126 
0.729539 0.291692 0.652695 0.555686 0.796071 
0.953616 0.86724 0.0281518 0.290337 0.429479 
0.826113 0.0983814 0.316298 0.180414 0.323562 
0.849827 0.0974652 0.882401 0.518427 0.848205 
0.234568 0.724223 0.270618 0.845464 0.976566 
0.32386 0.467334 0.000429268 0.960967 0.542424 
0.184347 0.57524 0.200685 0.84998 0.88858 
0.501039 0.0617463 0.126137 0.905572 0.847318 
0.469132 0.889021 0.429357 0.962553 0.226816 
0.17493 0.300378 0.0729622 0.941315 0.437114 
0.988471 0.0949423 0.794002 0.293835 0.284254 
0.883292 0.61806 0.45247 0.620744 0.278505 
0.936099 0.880362 0.907044 0.920783 0.409788 
0.970255 0.104328 0.995063 0.930739 0.12524 
0.688872 0.0802822 0.0738965 0.761818 0.270199 
0.272918 0.0320611 0.464314 0.0203608 0.7581 
0.183578 0.762007 0.751689 0.48847 0.460551 
0.72986 0.284 0.666889 0.967523 0.86057 
0.389931 0.325971 0.0613195 0.19476 0.785296 
0.869002 0.853933 0.870176 0.099764 0.0125775 
0.715336 0.757385 0.726834 0.194142 0.102762 
0.659169 0.123718 0.892731 0.732754 0.965049 
0.419472 0.207498 0.564847 0.0883609 0.986721 
0.1376 0.915298 0.743415 0.42817 0.0980498 
0.684131 0.992986 0.54039 0.476286 0.847219 
0.151161 0.185208 0.179815 0.141109 0.553478 
0.388688 0.113426 0.560533 0.847268 0.501226 
0.327086 0.107367 0.546908 0.303116 0.0195403 
0.664377 0.974111 0.0529363 0.761208 0.474231 
0.39806 0.48393 0.847671 0.666705 0.94946 
0.462327 0.0515578 0.359584 0.485241 0.939959 
0.213479 0.924503 0.410829 0.840418 0.351136 
0.905736 0.0923128 0.1233 0.723382 0.233287 
0.514077 0.315858 0.612692 0.449877 0.594447 
0.926584 0.683895 0.299068 0.738507 0.345597 
0.657419 0.80267 0.361572 0.705765 0.881957 
0.469184 0.581691 0.896638 0.0722683 0.821769 
0.236392 0.604631 0.222954 0.921962 0.984421 
0.367915 0.81097 0.250163 0.306702 0.307955 
0.142071 0.541276 0.739795 0.884391 0.804929 
0.938798 0.839956 0.0911122 0.304531 0.230946 
0.781105 0.714327 0.719815 0.563369 0.0946512 
0.0728691 0.126445 0.266115 0.251468 0.793992 
0.927038 0.111402 0.877448 0.92063 0.101106 
0.797191 0.757278 0.519666 0.584836 0.0430373 
0.147332 0.570655 0.0730209 0.190722 0.650035 
0.348875 0.251401 0.423275 0.342671 0.268822 
0.288365 0.430838 0.826861 0.434004 0.199586 
0.929582 0.555184 0.733874 0.484387 0.839077 
0.885305 0.227662 0.151848 0.437186 0.703861 
0.543748 0.997595 0.358102 0.0718727 0.829095 
0.304274 0.545112 0.321732 0.569457 0.894596 
0.0568972 0.721771 0.310398 0.117986 0.48857 
0.939182 0.830055 0.973151 0.239919 0.923896 
0.794641 0.505077 0.101348 0.530256 0.17472 
0.28439 0.125147 0.412093 0.908986 0.54405 
0.144065 0.286356 0.904203 0.172044 0.8626 
0.717988 0.621888 0.939388 0.249256 0.467604 
0.986854 0.828627 0.0736985 0.231007 0.444335 
0.901211 0.483839 0.721934 0.754063 0.797545 
0.0429084 0.957977 0.17614 0.554341 0.329983 
0.441335 0.67712 0.97083 0.651522 0.268359 
0.953272 0.306215 0.577593 0.219725 0.407731 
0.634497 0.253992 0.707725 0.593977 0.334653 
0.396035 0.354205 0.374205 0.870477 0.674136 
0.824765 0.36781 0.226811 0.385825 0.30216 
0.0871803 0.393055 0.075235 0.372011 0.303591 
0.435675 0.855612 0.530259 0.932764 0.135301 
0.095815 0.154704 0.801987 0.0736899 0.722178 
0.904289 0.812151 0.968228 0.838361 0.118339 
0.968177 0.728823 0.96092 0.801154 0.725822 
0.438212 0.985821 0.102482 0.704639 0.920657 
0.660649 0.236432 0.601618 0.920776 0.968838 
0.527392 0.38019 0.950601 0.152298 0.720162 
0.27956 0.931375 0.508736 0.839923 0.0585062 
0.444287 0.821006 0.182767 0.380751 0.994386 
0.244951 0.242756 0.523679 0.133773 0.723612 
0.883771 0.304131 0.235525 0.469253 0.858247 
0.289093 0.0281045 0.287583 0.875924 0.292065 
0.17278 0.403379 0.826578 0.977354 0.0951715 
0.472219 0.952495 0.937602 0.681879 0.939953 
0.457381 0.95668 0.0622654 0.707112 0.373353 
0.45265 0.691568 0.835774 0.620738 0.197322 
0.18911 0.961923 0.670801 0.184571 0.73241 
0.22605 0.460698 0.739753 0.570129 0.0526056 
0.268575 0.0228897 0.858766 0.497717 0.451305 
0.0449522 0.123958 0.226823 0.640862 0.496189 
0.237916 0.511858 0.188971 0.849884 0.133993 
0.798415 0.735733 0.847524 0.0806173 0.50207 
0.911203 0.996252 0.196294 0.421677 0.774127 
0.57011 0.859655 0.94397 0.0507605 0.202389 
0.671618 0.899242 0.931727 0.393201 0.425559 
0.317762 0.487921 0.186152 0.149173 0.0317527 
0.251954 0.14722 0.52548 0.4943 0.755414 
0.330297 0.194618 0.871146 0.868507 0.98228 
0.877488 0.213121 0.982631 0.389307 0.584581 
0.543421 0.830073 0.34211 0.512558 0.786148 
0.544186 0.00684753 0.235854 0.55054 0.0240708 
0.067944 0.558646 0.867143 0.439895 0.875272 
0.119589 0.200853 0.441969 0.690378 0.968863 
0.377901 0.0683065 0.0343917 0.232299 0.561593 
0.911186 0.717352 0.762134 0.360286 0.401544 
0.812318 0.866478 0.781613 0.922423 0.324653 
0.752096 0.455661 0.757701 0.399928 0.0648065 
0.359972 0.543835 0.770214 0.831404 0.796675 
0.852322 0.619671 0.00505129 0.932864 0.511914 
0.709009 0.964555 0.994267 0.294189 0.732451 
0.20554 0.0106729 0.559557 0.297527 0.29552 
0.221839 0.984156 0.305074 0.0359807 0.469387 
0.5886 0.82772 0.906969 0.415754 0.799883 
0.174222 0.0772616 0.826729 0.858209 0.326876 
0.740511 0.906328 0.287541 0.732453 0.911407 
0.622533 0.778341 0.547869 0.274983 0.92026 
0.166691 0.398857 0.670412 0.653009 0.648685 
0.994464 0.136224 0.440492 0.409957 0.609743 
0.165404 0.584709 0.815627 0.577151 0.933522 
0.217358 0.67133 0.159177 0.178561 0.345354 
0.966642 0.196668 0.930009 0.963661 0.98485 
0.757439 0.184268 0.21003 0.629461 0.524047 
0.639676 0.663504 0.0353094 0.741549 0.176735 
0.25453 0.826665 0.265133 0.45878 0.0962779 
0.74386 0.774149 0.901952 0.673993 0.556676 
0.130647 0.873705 0.654163 0.39432 0.409456 
0.556044 0.366426 0.961934 0.135999 0.204162 
0.695912 0.507317 0.872453 0.159311 0.0991592 
0.529687 0.818878 0.106146 0.493558 0.345471 
0.217129 0.0190501 0.669346 0.330278 0.239993 
0.905451 0.328509 0.67381 0.926614 0.357547 
0.714511 0.0361002 0.586047 0.0405592 0.361851 
0.656875 0.77703 0.484412 0.260656 0.513323 
0.684631 0.106681 0.846976 0.75408 0.201681 
0.933086 0.345492 0.403534 0.187338 0.0201858 
0.0300644 0.1462 0.830522 0.546432 0.825527 
0.80524 0.66704 0.256847 0.0470191 0.0893916 
0.113741 0.19821 0.43649 0.112599 0.949908 
0.314551 0.553167 0.534853 0.844742 0.946783 
0.980103 0.991621 0.749069 0.253923 0.0861332 
0.778605 0.622589 0.941132 0.563148 0.881322 
0.144229 0.690113 0.0710904 0.321375 0.619024 
0.660167 0.747447 0.264194 0.847777 0.515075 
0.0996793 0.385331 0.334222 0.869343 0.98988 
0.63052 0.958337 0.709344 0.533045 0.51992 
0.0776517 0.941538 0.52586 0.303286 0.0121705 
0.125705 0.410388 0.88058 0.928464 0.311439 
0.235945 0.220867 0.410066 0.0857584 0.421223 
0.0599901 0.877189 0.438935 0.751201 0.774352 
0.664231 0.0544552 0.357223 0.99614 0.374816 
0.993129 0.751138 0.783774 0.156952 0.394486 
0.826389 0.0837077 0.623355 0.152735 0.238187 
0.0202153 0.800261 0.492912 0.913104 0.16763 
0.935375 0.989851 0.018784 0.478485 0.330228 
0.96437 0.325905 0.263248 0.319515 0.03863 
0.446627 0.947624 0.0561942 0.0631046 0.670456 
0.102176 0.952502 0.995087 0.336332 0.0557402 
0.67959 0.858261 0.076946 0.619361 0.15792 
0.21078 0.26518 0.0272038 0.450459 0.512982 
0.922425 0.750597 0.960689 0.431444 0.108653 
0.813841 0.556699 0.306241 0.167394 0.132748 
0.741469 0.798972 0.969395 0.668766 0.128984 
0.385814 0.972048 0.856386 0.769749 0.155341 
0.758325 0.793559 0.842696 0.762654 0.37908 
0.117223 0.762215 0.982344 0.305846 0.742187 
0.558236 0.212008 0.365031 0.0381118 0.575874 
0.978547 0.0685357 0.347517 0.689583 0.28992 
0.284816 0.513491 0.177075 0.389645 0.229561 
0.418889 0.380022 0.375339 0.486253 0.0240135 
0.161962 0.677843 0.643321 0.756531 0.0451512 
0.370361 0.198183 0.910231 0.0836314 0.952104 
0.910429 0.929327 0.699835 0.705513 0.753142 
0.458491 0.176103 0.836614 0.519054 0.162546 
0.233407 0.34658 0.203359 0.314095 0.17044 
0.398764 0.260809 0.585848 0.324829 0.749112 
0.402941 0.200944 0.1656 0.245437 0.899627 
0.554349 0.65148 0.515274 0.215225 0.610545 
0.0289706 0.924202 0.941917 0.901992 0.801183 
0.951493 0.774042 0.22277 0.192835 0.824312 
0.119062 0.708626 0.267902 0.662459 0.0711235 
0.348038 0.498893 0.170393 0.903604 0.586323 
0.171319 0.87995 0.450216 0.279152 0.30592 
0.447061 0.183052 0.347209 0.601628 0.643857 
0.089327 0.608145 0.336992 0.218844 0.0257767 
0.635338 0.65025 0.636051 0.386179 0.663218 
0.0499188 0.164715 0.848615 0.47552 0.368604 
0.961473 0.856367 0.844314 0.590688 0.434965 
0.171107 0.706181 0.514626 0.448895 0.617683 
0.921757 0.669066 0.545929 0.050503 0.972719 
0.482303 0.98912 0.227012 0.394685 0.443824 
0.126065 0.154429 0.0592297 0.387108 0.668037 
0.3095 0.5416 0.651504 0.535491 0.183527 
0.982425 0.701255 0.444467 0.575565 0.262358 
0.812572 0.803844 0.0837067 0.497369 0.765816 
0.952387 0.970405 0.137206 0.0490014 0.101874 
0.856474 0.854065 0.498074 0.534547 0.780778 
0.94139 0.500826 0.57945 0.19267 0.0360076 
0.946505 0.208594 0.557036 0.460356 0.696911 
0.995858 0.290207 0.677871 0.702351 0.350696 
0.639875 0.0381221 0.741251 0.237398 0.609909 
0.27053 0.85963 0.482369 0.0857324 0.270621 
0.904203 0.641639 0.356885 0.608016 0.462178 
0.109125 0.775784 0.730767 0.483046 0.669546 
0.377491 0.879497 0.0186458 0.746254 0.122018 
0.150707 0.490708 0.791477 0.889993 0.239737 
0.91761 0.201005 0.606975 0.644003 0.0431385 
0.57291 0.390788 0.242072 0.673213 0.693568 
0.0196664 0.235362 0.801079 0.815221 0.993679 
0.115311 0.717063 0.119702 0.526948 0.433584 
0.384568 0.716764 0.10898 0.606505 0.0736762 
0.459305 0.00316085 0.593395 0.569323 0.364269 
0.575404 0.559696 0.117655 0.991741 0.429896 
0.639582 0.431085 0.962656 0.669498 0.839374 
0.202108 0.886877 0.409678 0.996542 0.230531 
0.635596 0.186756 0.604629 0.345078 0.722877 
0.730169 0.298862 0.294371 0.942638 0.250028 
0.658572 0.170157 0.597521 0.220494 0.96979 
0.583044 0.849635 0.730088 0.42578 0.895109 
0.586677 0.171228 0.337471 0.73243 0.28326 
0.425918 0.642284 0.437281 0.419238 0.387929 
0.803935 0.118145 0.833585 0.372682 0.711506 
0.488149 0.630156 0.911655 0.916347 0.603589 
0.226212 0.588772 0.583779 0.692718 0.490727 
0.37791 0.831303 0.76355 0.391834 0.106518 
0.528299 0.285958 0.0349804 0.94887 0.372786 
0.479664 0.0795815 0.533011 0.230894 0.276995 
0.222797 0.312577 0.687825 0.630088 0.0672692 
0.133337 0.799966 0.674076 0.906853 0.805324 
0.456891 0.344536 0.551787 0.0689196 0.98801 
0.267379 0.107082 0.98831 0.917115 0.56486 
0.726277 0.46257 0.874555 0.8856 0.115856 
0.177098 0.6438 0.428016 0.28355 0.266979 
0.406282 0.301123 0.928892 0.761257 0.848728 
0.785438 0.505485 0.668262 0.303046 0.875005 
0.390729 0.613944 0.645904 0.171992 0.158187 
0.555076 0.319582 0.278962 0.119636 0.213608 
0.0475866 0.665229 0.827057 0.287806 0.838577 
0.678874 0.141918 0.970455 0.739323 0.32671 
0.53779 0.0767263 0.637298 0.215485 0.989417 
0.219547 0.997764 0.0696336 0.0154002 0.737321 
0.667018 0.340442 0.678529 0.357668 0.371494 
0.123096 0.926311 0.670813 0.315094 0.520663 
0.401056 0.513609 0.903998 0.408731 0.430468 
0.483462 0.0570627 0.710378 0.86942 0.671241 
0.826517 0.129005 0.290381 0.924768 0.63057 
0.839477 0.660907 0.533762 0.237652 0.220849 
0.516215 0.196613 0.557148 0.350706 0.858042 
0.280626 0.768634 0.304182 0.6943 0.920812 
0.0634318 0.863559 0.949378 0.539639 0.473886 
0.387784 0.940907 0.142475 0.649185 0.333532 
0.198272 0.0949705 0.445319 0.180311 0.211888 
0.641803 0.0632216 0.208484 0.453978 0.743984 
0.720585 0.719284 0.135377 0.447056 0.274433 
0.534388 0.445057 0.548456 0.626482 0.984015 
0.0693153 0.155814 0.86513 0.111665 0.264058 
0.0762545 0.486257 0.0700705 0.296997 0.82974 
0.69264 0.084755 0.417302 0.0418264 0.147129 
0.692984 0.0964004 0.445603 0.765099 0.63311 
0.524753 0.633521 0.900997 0.154655 0.411834 
0.896283 0.396489 0.658815 0.00528911 0.0478108 
0.581158 0.472841 0.406113 0.104037 0.92774 
0.786806 0.902861 0.160103 0.304423 0.346919 
0.529236 0.647247 0.886475 0.469261 0.215186 
0.792291 0.568853 0.599582 0.588283 0.410363 
0.797645 0.407314 0.778759 0.879079 0.808915 
0.0121711 0.809882 0.932976 0.290535 0.0518172 
0.7281 0.71211 0.324391 0.631486 0.629048 
0.356205 0.476255 0.0794737 0.858015 0.691442 
0.86839 0.371205 0.99845 0.245021 0.163553 
0.820194 0.789781 0.941263 0.683035 0.00619939 
0.748785 0.0866877 0.740328 0.118014 0.791174 
0.343883 0.721695 0.610445 0.625955 0.166326 
0.475122 0.356622 0.515383 0.120202 0.318761 
0.95963 0.545513 0.134566 0.179421 0.773347 
0.0461581 0.24748 0.440785 0.948898 0.574154 
0.00866942 0.432107 0.441591 0.961977 0.232071 
0.94215 0.600924 0.733956 0.767039 0.419755 
0.00326072 0.0289834 0.0734048 0.553466 0.742628 
0.321836 0.048678 0.679517 0.867681 0.0250737 
0.742056 0.720096 0.973958 0.262273 0.684405 
0.554396 0.173592 0.290569 0.935622 0.136537 
0.582121 0.142146 0.784189 0.652863 0.974725 
0.175343 0.099535 0.335454 0.0219923 0.489947 
0.91136 0.0721398 0.445283 0.18884 0.636942 
0.758569 0.786929 0.192401 0.708288 0.376803 
0.491233 0.600488 0.430592 0.598365 0.198867 
0.547473 0.863878 0.894688 0.522167 0.274251 
0.728297 0.701187 0.235585 0.457955 0.556046 
0.280761 0.409613 0.68295 0.136756 0.2572 
0.42592 0.44063 0.326709 0.279015 0.000871838 
0.518145 0.158192 0.165925 0.723342 0.959827 
0.2249 0.711035 0.917327 0.235539 0.763605 
0.943476 0.0419299 0.212474 0.0935572 0.197669 
0.720122 0.743222 0.110987 0.14686 0.882251 
0.195329 0.851429 0.511442 0.769981 0.975918 
0.915284 0.663556 0.766369 0.0512354 0.339202 
0.529496 0.975449 0.919427 0.345768 0.184386 
0.0712355 0.895031 0.387584 0.422796 0.890746 
0.524042 0.36226 0.773112 0.663252 0.900877 
0.0806828 0.0868261 0.300753 0.392341 0.649372 
0.663778 0.205275 0.897231 0.661576 0.0178173 
0.00036932 0.649223 0.985041 0.965695 0.112347 
0.102096 0.0663392 0.580128 0.123874 0.7892 
0.73422 0.206623 0.247784 0.00106034 0.108459 
0.351684 0.592414 0.809796 0.684483 0.0970217 
0.733779 0.831444 0.38986 0.380052 0.568938 
0.611245 0.197658 0.16227 0.485389 0.473718 
0.460817 0.998632 0.9168 0.0637296 0.5291 
0.00291089 0.295177 0.304977 0.473843 0.677442 
0.719726 0.194839 0.885689 0.744664 0.15251 
0.658478 0.489271 0.609408 0.25438 0.45317 
0.213186 0.671418 0.66057 0.990309 0.740427 
0.775497 0.436646 0.595951 0.000684475 0.589969 
0.0592453 0.29736 0.162883 0.423658 0.929362 
0.107 0.764999 0.625994 0.861255 0.212094 
0.742183 0.132948 0.555901 0.663693 0.84215 
0.906749 0.539303 0.220067 0.71344 0.45325 
0.0565046 0.422635 0.874131 0.879789 0.421527 
0.907235 0.600937 0.614678 0.375729 0.984776 
0.88979 0.420436 0.50931 0.702817 0.846333 
0.983548 0.809315 0.704586 0.968564 0.291861 
0.905975 0.789955 0.69042 0.384073 0.221012 
0.439806 0.382736 0.623928 0.0479822 0.169223 
0.853375 0.440905 0.702845 0.990379 0.91499 
0.0186807 0.401759 0.180017 0.406529 0.397954 
0.542513 0.0011631 0.75188 0.245135 0.817566 
0.304924 0.582506 0.743366 0.884811 0.862493 
0.188325 0.592864 0.477914 0.235918 0.913586 
0.928605 0.022151 0.924359 0.187442 0.1791 
0.858088 0.80673 0.0524927 0.406866 0.829931 
0.519503 0.880597 0.0493614 0.478839 0.15064 
0.207731 0.665222 0.260489 0.968261 0.325448 
0.683989 0.565253 0.818822 0.655947 0.0749253 
0.487423 0.174675 0.35965 0.570675 0.750289 
0.819368 0.72518 0.807349 0.972713 0.936314 
0.549672 0.555387 0.969606 0.0428947 0.85107 
0.579453 0.960995 0.136123 0.0615341 0.282901 
0.329664 0.0821658 0.444447 0.72133 0.397852 
0.0609319 0.0699259 0.147236 0.942884 0.195521 
0.80147 0.683661 0.844868 0.963161 0.432385 
0.292536 0.792715 0.556597 0.60698 0.857237 
0.586924 0.102526 0.55634 0.792398 0.297357 
0.119955 0.929697 0.0979353 0.248408 0.428616 
0.902526 0.0920942 0.973893 0.142542 0.555355 
0.0241266 0.286887 0.423922 0.575187 0.831075 
0.448719 0.872115 0.659116 0.988901 0.172802 
0.924432 0.499079 0.814211 0.781728 0.00776147 
0.703559 0.926027 0.221015 0.804993 0.757052 
0.551049 0.221099 0.806075 0.952789 0.789696 
0.622826 0.50268 0.842266 0.00967804 0.18875 
0.740639 0.852157 0.189968 0.915333 0.933044 
0.813837 0.563842 0.259294 0.732705 0.740758 
0.431041 0.606713 0.16526 0.601451 0.409582 
0.931774 0.931381 0.285494 0.054585 0.589889 
0.980896 0.863241 0.85827 0.409285 0.0516095 
0.504238 0.711859 0.285412 0.139196 0.81095 
0.238701 0.90393 0.429805 0.912453 0.332746 
0.287932 0.797964 0.0875145 0.398869 0.937422 
0.513023 0.591808 0.660921 0.799035 0.708025 
0.871166 0.348971 0.226895 0.823607 0.418401 
0.341928 0.907714 0.493211 0.560948 0.858828 
0.420526 0.438953 0.699662 0.944007 0.34872 
0.129332 0.316806 0.855422 0.936279 0.522423 
0.0502131 0.367542 0.228907 0.390593 0.76592 
0.66004 0.274524 0.741715 0.949852 0.984294 
0.0642185 0.90164 0.222182 0.787642 0.884917 
0.201778 0.892632 0.520534 0.968162 0.200173 
0.186323 0.419625 0.922791 0.795377 0.422824 
0.252625 0.0157081 0.165106 0.984385 0.605045 
0.146825 0.149663 0.581924 0.978119 0.732455 
0.386347 0.596853 0.452664 0.0693836 0.953269 
0.739873 0.694857 0.612445 0.712769 0.0449363 
0.883519 0.929538 0.797774 0.976894 0.796241 
0.428192 0.956318 0.300852 0.741896 0.721059 
0.560551 0.292129 0.933117 0.0314957 0.963409 
0.0805839 0.961437 0.283601 0.59363 0.138918 
0.371666 0.398098 0.0485143 0.759028 0.903677 
0.52344 0.198857 0.613234 0.329486 0.211142 
0.96954 0.663656 0.575413 0.357255 0.317779 
0.927804 0.513964 0.680134 0.665707 0.810465 
0.631149 0.893733 0.304119 0.522673 0.00943397 
0.574178 0.979305 0.965021 0.854672 0.475114 
0.220026 0.453411 0.579099 0.954207 0.840274 
0.813578 0.71296 0.0736472 0.6346 0.18348 
0.431349 0.894733 0.125403 0.0391006 0.947455 
0.445554 0.00996791 0.619045 0.135034 0.316726 
0.0468186 0.697989 0.124427 0.975956 0.0609405 
0.571537 0.121226 0.198036 0.754323 0.0825623 
0.824905 0.856439 0.781026 0.0716548 0.630138 
0.456871 0.506856 0.672749 0.0584234 0.109008 
0.959701 0.486743 0.259742 0.475435 0.984877 
0.855057 0.117717 0.245887 0.682204 0.0166088 
0.849866 0.232934 0.552223 0.605841 0.39469 
0.137568 0.216166 0.732482 0.00443557 0.706206 
0.218834 0.708108 0.641198 0.427486 0.911369 
0.676714 0.819321 0.397475 0.615902 0.68876 
0.821527 0.6735 0.131348 0.28408 0.498928 
0.940113 0.177267 0.750729 0.400675 0.632776 
0.00472474 0.573528 0.727242 0.520839 0.211874 
0.432634 0.455996 0.910101 0.618531 0.819236 
0.0448602 0.355477 0.228826 0.849881 0.0146963 
0.139919 0.347011 0.593223 0.0598826 0.448726 
0.429596 0.838986 0.999603 0.373724 0.257958 
0.942575 0.00880902 0.82352 0.47431 0.437152 
0.261881 0.217341 0.883412 0.734798 0.924535 
0.143481 0.043506 0.447079 0.733685 0.332247 
0.682476 0.247115 0.817945 0.500703 0.988928 
0.407114 0.84643 0.515222 0.168423 0.505517 
0.284885 0.648097 0.136687 0.884822 0.752191 
0.282081 0.490203 0.421558 0.537739 0.180204 
0.528666 0.827193 0.780434 0.735051 0.200191 
0.745039 0.384951 0.351046 0.850264 0.666631 
0.390698 0.445003 0.504142 0.849218 0.163237 
0.723285 0.607484 0.598013 0.687107 0.652994 
0.499624 0.924492 0.0484786 0.158844 0.419297 
0.867958 0.168857 0.401217 0.49168 0.926978 
0.594743 0.0804691 0.13263 0.515947 0.267065 
0.0506976 0.355135 0.942311 0.988472 0.825536 
0.252636 0.0204342 0.932848 0.530883 0.137525 
0.614377 0.511235 0.946934 0.304553 0.335049 
0.936949 0.671335 0.425222 0.228841 0.692183 
0.641833 0.953099 0.273506 0.80272 0.020703 
0.11681 0.412586 0.808114 0.374912 0.663359 
0.686709 0.151639 0.790274 0.304267 0.555421 
0.158937 0.370921 0.221652 0.381883 0.663214 
0.138844 0.392067 0.916566 0.366117 0.685265 
0.293461 0.102249 0.237519 0.758366 0.892215 
0.715746 0.957794 0.639374 0.877045 0.00113111 
0.769513 0.236565 0.884804 0.200697 0.511696 
0.266887 0.955432 0.49388 0.116263 0.397427 
0.513278 0.86542 0.432979 0.332579 0.898693 
0.713406 0.437488 0.596799 0.909885 0.263988 
0.331053 0.0224831 0.339118 0.920474 0.176984 
0.984535 0.94668 0.846369 0.979693 0.771587 
0.65903 0.999281 0.78402 0.742775 0.641529 
0.60541 0.105597 0.768518 0.00708665 0.686907 
0.135673 0.251197 0.137312 0.136663 0.758585 
0.549927 0.840335 0.00110966 0.290733 0.400396 
0.953111 0.0479095 0.934985 0.505677 0.678396 
0.915249 0.465887 0.0920035 0.0353776 0.354085 
0.413193 0.338489 0.236771 0.095678 0.327725 
0.47211 0.828269 0.369724 0.504827 0.23785 
0.757424 0.834933 0.536177 0.820886 0.788968 
0.683674 0.631952 0.867544 0.544395 0.60007 
0.417709 0.869933 0.968761 0.66395 0.180545 
0.562041 0.191536 0.122355 0.853479 0.382877 
0.0381267 0.787638 0.511273 0.189905 0.0743863 
0.762892 0.83633 0.101265 0.709578 0.632568 
0.554043 0.872658 0.399827 0.0777032 0.90011 
0.986611 0.35382 0.82792 0.900563 0.8032 
0.0496997 0.587563 0.187022 0.692761 0.982611 
0.619255 0.356604 0.738601 0.700746 0.229264 
0.400152 0.48952 0.478746 0.894162 0.927074 
0.473296 0.31021 0.609149 0.545754 0.402702 
0.757831 0.320144 0.781995 0.512887 0.507983 
0.273393 0.460691 0.828723 0.779752 0.446169 
0.79413 0.0998539 0.608709 0.352723 0.87438 
0.367235 0.604813 0.197339 0.122617 0.692763 
0.8091 0.138163 0.91528 0.109931 0.780626 
0.790249 0.837817 0.343271 0.780603 0.22756 
0.433923 0.867061 0.828659 0.351013 0.325891 
0.1871 0.868279 0.809274 0.0343398 0.248764 
0.0448261 0.685799 0.38671 0.279758 0.714213 
0.742467 0.804186 0.28341 0.608402 0.36171 
0.978926 0.511285 0.563101 0.792873 0.151391 
0.414984 0.107723 0.0320484 0.847144 0.0777411 
0.750506 0.159335 0.484263 0.844873 0.0794398 
0.546742 0.293627 0.0635953 0.541542 0.982023 
0.187179 0.801373 0.94774 0.28761 0.922496 
0.228851 0.341045 0.481905 0.114882 0.659141 
0.262183 0.253637 0.466186 0.0225587 0.640635 
0.202642 0.0637999 0.777201 0.591909 0.946781 
0.0907318 0.847644 0.825994 0.73306 0.179418 
0.16192 0.803756 0.904776 0.463866 0.187669 
0.0952022 0.466077 0.872421 0.369093 0.712694 
0.578643 0.407148 0.762536 0.783257 0.921359 
0.440981 0.746847 0.921586 0.735988 0.794676 
0.553011 0.542068 0.806543 0.293039 0.569403 
0.541518 0.97485 0.137061 0.936034 0.931181 
0.491305 0.260528 0.190662 0.253147 0.461314 
0.793546 0.887724 0.502039 0.621082 0.814639 
0.175686 0.219343 0.763094 0.19978 0.778453 
0.214615 0.774437 0.377562 0.00888982 0.205274 
0.90947 0.943897 0.293918 0.0421211 0.0186315 
0.686962 0.0371672 0.441456 0.610181 0.525862 
0.23029 0.487451 0.7876 0.205971 0.665572 
0.179322 0.307304 0.654819 0.40266 0.32645 
0.760544 0.372047 0.195412 0.204985 0.272868 
0.454449 0.953605 0.2724 0.12525 0.767111 
0.14834 0.332345 0.328766 0.871889 0.509961 
0.260027 0.32528 0.219115 0.117265 0.684272 
0.14903 0.426825 0.515216 0.543282 0.359495 
0.769047 0.811496 0.870162 0.644026 0.967647 
0.900782 0.946633 0.630434 0.894553 0.370938 
0.747922 0.271942 0.792489 0.137079 0.8197 
0.382806 0.129612 0.356477 0.841287 0.288371 
0.853128 0.634406 0.242245 0.875507 0.620685 
0.637824 0.182147 0.180689 0.455844 0.817941 
0.541472 0.95649 0.250621 0.717179 0.257449 
0.508155 0.135186 0.796964 0.84266 0.70887 
0.333194 0.280286 0.831682 0.339868 0.963854 
0.935144 0.317212 0.756893 0.0211413 0.673413 
0.582479 0.190584 0.341833 0.825164 0.617884 
0.709373 0.209791 0.159415 0.993466 0.918478 
0.828344 0.457117 0.430852 0.455721 0.450106 
0.26848 0.656203 0.963043 0.810013 0.577507 
0.637984 0.564652 0.821377 0.66196 0.18453 
0.395791 0.775405 0.342788 0.757034 0.737791 
0.497758 0.143704 0.0363059 0.164562 0.647502 
0.777468 0.771152 0.20002 0.158745 0.828295 
0.150146 0.386542 0.122494 0.0660168 0.0606508 
0.505507 0.602126 0.561781 0.0347851 0.0641979 
0.565121 0.805302 0.0820543 0.0125691 0.358656 
0.753241 0.238016 0.929634 0.324872 0.702393 
0.256914 0.558312 0.40865 0.474812 0.492258 
0.408366 0.0422328 0.778075 0.81616 0.933123 
0.263622 0.606558 0.0373997 0.093827 0.826738 
0.881894 0.373312 0.657499 0.292145 0.363198 
0.541975 0.719316 0.714341 0.00734486 0.240562 
0.00118761 0.251811 0.334467 0.794699 0.779299 
0.198702 0.51795 0.64153 0.95659 0.440537 
0.0985756 0.87902 0.0927052 0.339783 0.783559 
0.791191 0.00944849 0.666055 0.979145 0.158605 
0.791279 0.771496 0.858668 0.772642 0.16632 
0.385568 0.35175 0.679769 0.772712 0.377135 
0.923498 0.123723 0.588673 0.953458 0.473941 
0.959048 0.200403 0.947092 0.0385675 0.0795389 
0.299441 0.734329 0.724614 0.865364 0.822403 
0.247499 0.823017 0.294555 0.537039 0.452931 
0.797334 0.366442 0.936591 0.50706 0.113563 
0.399244 0.354775 0.498917 0.778462 0.55806 
0.71668 0.32021 0.291962 0.572961 0.901429 
0.219323 0.156681 0.948033 0.804146 0.0756518 
0.337045 0.374849 0.751259 0.130627 0.21749 
0.400527 0.87899 0.118525 0.0224101 0.338559 
0.361221 0.114947 0.909594 0.472803 0.0572852 
0.790714 0.872171 0.909366 0.956561 0.388575 
0.999952 0.819224 0.00531516 0.692211 0.0857894 
0.893928 0.0500883 0.89016 0.803632 0.827975 
0.045656 0.146886 0.236547 0.431184 0.730829 
0.0330367 0.161942 0.644701 0.40287 0.652757 
0.0229711 0.154853 0.696641 0.343497 0.90361 
0.541197 0.778503 0.0796167 0.816272 0.125863 
0.0932874 0.487661 0.958886 0.472333 0.166297 
0.637284 0.162589 0.697022 0.446898 0.871413 
0.319548 0.747047 0.386983 0.0967911 0.319631 
0.847424 0.998223 0.886141 0.528579 0.537241 
0.999429 0.868741 0.0187082 0.434177 0.938961 
0.190843 0.628264 0.274208 0.429143 0.568122 
0.291037 0.869535 0.65934 0.954879 0.0114576 
0.240779 0.268933 0.564622 0.482082 0.286532 
0.867431 0.757229 0.650425 0.663309 0.926451 
0.547553 0.704551 0.62577 0.134367 0.428441 
0.191207 0.265545 0.717703 0.640805 0.953647 
0.519065 0.575396 0.997752 0.972153 0.275826 
0.247027 0.333041 0.413602 0.455277 0.481557 
0.260277 0.370435 0.752611 0.796929 0.857289 
0.152717 0.612387 0.406018 0.273009 0.38713 
0.563768 0.0587906 0.621179 0.0980386 0.412254 
0.976423 0.74207 0.826117 0.250895 0.681511 
0.825605 0.867213 0.547791 0.137327 0.536479 
0.511138 0.169397 0.590805 0.561102 0.155815 
0.561185 0.71011 0.551301 0.628684 0.649052 
0.861234 0.135824 0.330873 0.271211 0.581196 
0.735154 0.0622911 0.737785 0.277026 0.650323 
0.491407 0.202832 0.634702 0.826822 0.0287663 
0.933565 0.0270468 0.365262 0.42771 0.293114 
0.138513 0.887281 0.430707 0.887955 0.692011 
0.106624 0.602798 0.692391 0.0100363 0.804448 
0.585882 0.464642 0.870021 0.031016 0.199367 
0.292549 0.974955 0.478332 0.0697233 0.204576 
0.289173 0.718742 0.242663 0.809442 0.14941 
0.739248 0.438573 0.542343 0.860664 0.607999 
0.946883 0.995428 0.341193 0.925146 0.537277 
0.769649 0.82054 0.787035 0.0663523 0.0808892 
0.661202 0.873641 0.593265 0.255493 0.687498 
0.771381 0.324683 0.0299635 0.392609 0.925938 
0.730577 0.642512 0.398188 0.78386 0.073632 
0.870905 0.634177 0.679353 0.941932 0.301996 
0.882638 0.616112 0.500185 0.350898 0.47033 
0.510685 0.77807 0.0548019 0.730687 0.644225 
0.415595 0.54989 0.0716987 0.403091 0.827464 
0.359115 0.521319 0.829413 0.99242 0.264892 
0.731889 0.376446 0.495221 0.519587 0.847977 
0.878463 0.959829 0.965663 0.479979 0.0661628 
0.211892 0.854298 0.274512 0.730638 0.211582 
0.226899 0.990311 0.833289 0.397653 0.705718 
0.319632 0.0203976 0.273166 0.26884 0.366563 
0.894806 0.538184 0.927099 0.886624 0.413129 
0.511557 0.942405 0.936224 0.0548809 0.832381 
0.395155 0.169271 0.19922 0.477467 0.506473 
0.457111 0.169978 0.560479 0.389922 0.294499 
0.727609 0.986424 0.620788 0.143182 0.753541 
0.223548 0.939868 0.996053 0.219985 0.103266 
0.331827 0.782232 0.619446 0.504106 0.358512 
0.386447 0.811952 0.209516 0.392277 0.994446 
0.720795 0.848089 0.52606 0.175858 0.455229 
0.483904 0.256401 0.742142 0.551073 0.544023 
0.821679 0.528863 0.177611 0.695726 0.447848 
0.737079 0.701318 0.422987 0.89081 0.956285 
0.827764 0.289557 0.42142 0.475214 0.840972 
0.14581 0.623306 0.616483 0.766289 0.127966 
0.518428 0.56398 0.885217 0.229019 0.0293192 
0.774857 0.490658 0.612249 0.368041 0.905186 
0.641593 0.662187 0.649794 0.950252 0.613732 
0.134152 0.0444043 0.823003 0.264761 0.168503 
0.877475 0.109619 0.116421 0.510111 0.508237 
0.43851 0.62428 0.2082 0.07358 0.0845748 
0.556685 0.189606 0.503487 0.220943 0.733602 
0.907271 0.919218 0.539339 0.671577 0.59913 
0.828705 0.780765 0.793427 0.299496 0.883284 
0.76986 0.915396 0.157001 0.138712 0.70748 
0.990767 0.291983 0.001945 0.445242 0.576381 
0.476637 0.248635 0.676973 0.367801 0.0293517 
0.880152 0.500001 0.132783 0.457464 0.215938 
0.794353 0.0994491 0.962132 0.16897 0.239371 
0.286254 0.840782 0.257766 0.435293 0.524904 
0.350351 0.0549806 0.437932 0.129355 0.715589 
0.906492 0.966057 0.866943 0.223275 0.633263 
0.636866 0.408946 0.0201561 0.832993 0.407849 
0.665632 0.784255 0.651356 0.728746 0.788222 
0.0407047 0.0943394 0.13363 0.681473 0.465579 
0.301008 0.325832 0.293679 0.467636 0.432794 
0.918964 0.864101 0.0884662 0.773201 0.25884 
0.868028 0.160205 0.317565 0.33846 0.370984 
0.863159 0.858471 0.3254 0.359086 0.896247 
0.194231 0.487568 0.145229 0.0642808 0.300694 
0.0897787 0.969727 0.689421 0.0321584 0.232356 
0.544192 0.869648 0.811754 0.143854 0.671224 
0.248087 0.32696 0.523783 0.693799 0.516271 
0.999645 0.51016 0.0532537 0.247572 0.714872 
0.223785 0.508706 0.352288 0.0826916 0.90571 
0.897108 0.524448 0.220097 0.192597 0.100698 
0.44519 0.856584 0.0422784 0.495335 0.487204 
0.351445 0.446941 0.261216 0.657823 0.612234 
0.565738 0.292198 0.866977 0.419325 0.248378 
0.141223 0.202343 0.895581 0.560172 0.469001 
0.693683 0.344787 0.865242 0.282279 0.837423 
0.54359 0.579616 0.979226 0.662273 0.118509 
0.101119 0.529378 0.307121 0.808386 0.276495 
0.507377 0.386707 0.155605 0.139832 0.45326 
0.0103995 0.0496848 0.748204 0.304342 0.47097 
0.164988 0.97891 0.0773973 0.822342 0.625759 
0.36103 0.822243 0.0235127 0.327359 0.456274 
0.956409 0.48482 0.410038 0.744648 0.654128 
0.0348848 0.702985 0.372776 0.951081 0.237085 
0.820609 0.278553 0.92749 0.854895 0.6582 
0.852178 0.192685 0.397996 0.15592 0.63085 
0.574608 0.64761 0.519222 0.388084 0.507981 
0.54701 0.546097 0.907696 0.333594 0.342533 
0.12711 0.248777 0.557991 0.364839 0.93949 
0.687189 0.773233 0.855794 0.873745 0.528376 
0.285905 0.530595 0.480357 0.268344 0.192506 
0.0322971 0.0350597 0.81464 0.458631 0.455128 
0.283458 0.284245 0.31326 0.22668 0.343368 
0.30074 0.632283 0.645224 0.118196 0.771107 
0.46987 0.857461 0.0162456 0.671137 0.690282 
0.18275 0.970868 0.319148 0.257462 0.385111 
0.659819 0.111944 0.149485 0.664422 0.825779 
0.0726182 0.758309 0.434603 0.225555 0.25139 
0.58319 0.246766 0.364606 0.44937 0.491105 
0.738713 0.958501 0.263262 0.320928 0.75329 
0.759193 0.168526 0.133905 0.628416 0.0328471 
0.840015 0.930786 0.405547 0.908047 0.743173 
0.952872 0.247893 0.654637 0.017619 0.635065 
0.0879394 0.57479 0.322361 0.865416 0.374483 
0.779519 0.923466 0.319523 0.382305 0.552481 
0.331276 0.925302 0.637359 0.0900212 0.508315 
0.105397 0.65659 0.167378 0.651847 0.985368 
0.160061 0.687841 0.345148 0.273411 0.0314619 
0.24622 0.559988 0.879022 0.198198 0.999653 
0.601901 0.398792 0.0523333 0.800848 0.0443908 
0.138068 0.72185 0.642226 0.843282 0.488177 
0.236125 0.0082839 0.099419 0.0223893 0.910849 
0.423697 0.284684 0.168115 0.153962 0.345943 
0.562191 0.0324211 0.271466 0.586692 0.824205 
0.980417 0.109589 0.367114 0.60413 0.89844 
0.198666 0.299619 0.312088 0.198135 0.154407 
0.00974699 0.982262 0.308403 0.822056 0.64077 
0.355906 0.155256 0.504425 0.864834 0.0643012 
0.649535 0.0601858 0.42325 0.0912314 0.799206 
0.577829 0.0192724 0.166919 0.0662414 0.548188 
0.936769 0.291932 0.409938 0.997678 0.288283 
0.698605 0.0756944 0.892778 0.552972 0.668737 
0.417172 0.636293 0.08457 0.457639 0.973544 
0.216404 0.851105 0.785031 0.0454276 0.489636 
0.0147613 0.738693 0.40573 0.707065 0.397004 
0.686255 0.132596 0.330357 0.445874 0.549106 
0.264789 0.837302 0.503239 0.390667 0.290817 
0.501391 0.70182 0.900953 0.700134 0.502354 
0.000153966 0.381797 0.630768 0.530438 0.866409 
0.696211 0.370795 0.687814 0.0450367 0.96497 
0.131739 0.559262 0.969073 0.0169316 0.681404 
0.0760153 0.923859 0.253689 0.864669 0.910867 
0.115881 0.797698 0.224873 0.431805 0.680782 
0.781109 0.301865 0.862811 0.121674 0.417191 
0.304035 0.176661 0.692097 0.566464 0.116413 
0.488332 0.555951 0.813595 0.761943 0.972229 
0.82951 0.363996 0.689915 0.444463 0.664498 
0.247477 0.0211059 0.348456 0.498294 0.588258 
0.553773 0.236696 0.80726 0.78438 0.133316 
0.736038 0.70538 0.331731 0.917394 0.793606 
0.186395 0.386969 0.748184 0.152607 0.132064 
0.549975 0.578687 0.305235 0.707126 0.913888 
0.326885 0.960039 0.515752 0.0521888 0.831534 
0.575241 0.634002 0.7534 0.955238 0.620538 
0.836505 0.766393 0.492184 0.026594 0.989528 
0.772177 0.445466 0.984948 0.64654 0.38324 
0.860168 0.0461245 0.927612 0.322315 0.235755 
0.527335 0.199342 0.931117 0.473272 0.50826 
0.264816 0.0879818 0.626924 0.180254 0.282264 
0.0707407 0.699467 0.835292 0.315826 0.664007 
0.187251 0.87064 0.542736 0.853768 0.527964 
0.515587 0.0362466 0.629823 0.790463 0.117845 
0.398054 0.73982 0.793225 0.91746 0.271318 
0.791362 0.287596 0.903198 0.433343 0.632082 
0.443125 0.760372 0.768637 0.982245 0.867967 
0.343764 0.779198 0.576608 0.862277 0.695179 
0.586328 0.671626 0.177583 0.489824 0.290429 
0.739005 0.28053 0.0598259 0.986223 0.274403 
0.961415 0.618017 0.855299 0.355916 0.706458 
0.381774 0.780415 0.140988 0.666884 0.965465 
0.227459 0.0626993 0.0164926 0.498886 0.860595 
0.392702 0.318808 0.626621 0.520303 0.401205 
0.0487683 0.0939348 0.262192 0.355203 0.350581 
0.396238 0.677156 0.457573 0.460144 0.799258 
0.58425 0.127624 0.703015 0.214374 0.0344855 
0.510433 0.4283 0.544751 0.679655 0.840278 
0.215323 0.888156 0.668323 0.559323 0.0628221 
0.326776 0.0712561 0.305777 0.58047 0.507859 
0.984652 0.927158 0.736987 0.955163 0.0915349 
0.171106 0.658113 0.539862 0.665222 0.309229 
0.578073 0.607853 0.403147 0.905713 0.858361 
0.081583 0.0323401 0.493868 0.127951 0.0283661 
0.235618 0.962334 0.417113 0.223077 0.39609 
0.550377 0.543066 0.112479 0.573581 0.394049 
0.234431 0.842969 0.0167772 0.659952 0.98752 
0.513667 0.650869 0.811061 0.858375 0.515462 
0.598028 0.385883 0.100313 0.491646 0.264489 
0.932204 0.423678 0.728959 0.194469 0.619585 
0.181583 0.191985 0.318073 0.910351 0.714258 
0.354101 0.269192 0.767695 0.523967 0.860731 
0.52572 0.990655 0.189174 0.428876 0.997177 
0.284654 0.805636 0.288366 0.403373 0.379094 
0.14366 0.322478 0.533879 0.726085 0.88526 
0.371124 0.0221174 0.157308 0.947942 0.146954 
0.771552 0.312137 0.77266 0.410851 0.261856 
0.56991 0.736248 0.366233 0.815918 0.536348 
0.10458 0.994561 0.531031 0.0202282 0.395161 
0.210059 0.538887 0.67578 0.553618 0.166345 
0.154811 0.555301 0.42828 0.781229 0.887712 
0.600804 0.430657 0.941059 0.905235 0.103085 
0.441729 0.425288 0.198577 0.552242 0.197226 
0.634399 0.909117 0.20208 0.0340993 0.749909 
0.889307 0.520366 0.0882692 0.823525 0.131549 
0.502815 0.841426 0.0790912 0.61591 0.0145649 
0.838357 0.651689 0.790414 0.686941 0.891043 
0.259903 0.709938 0.160826 0.825351 0.411885 
0.61014 0.0454567 0.902081 0.483134 0.581767 
0.562672 0.496347 0.285108 0.177758 0.188481 
0.900924 0.310385 0.0268234 0.747738 0.0754042 
0.283484 0.0392763 0.153373 0.665528 0.80415 
0.241957 0.0923305 0.647301 0.0597442 0.428842 
0.517078 0.891197 0.220799 0.556176 0.245912 
0.718073 0.388257 0.694685 0.716193 0.938744 
0.319117 0.399583 0.0478298 0.696789 0.248477 
0.00808893 0.0219234 0.998386 0.579874 0.573849 
0.232801 0.424637 0.227237 0.129067 0.0991462 
0.402054 0.28916 0.337802 0.834104 0.810271 
0.314524 0.272115 0.134169 0.964702 0.301727 
0.278634 0.133548 0.875465 0.676683 0.162872 
0.120698 0.781637 0.54382 0.273616 0.766726 
0.40892 0.526782 0.470753 0.304913 0.559695 
0.857182 0.977888 0.473731 0.65773 0.490119 
0.127015 0.364823 0.439549 0.0302927 0.439595 
0.497174 0.827386 0.910221 0.465671 0.507318 
0.280432 0.759877 0.826157 0.550198 0.4217 
0.161537 0.0381355 0.569516 0.0500944 0.549013 
0.424025 0.999114 0.479984 0.490339 0.511167 
0.579143 0.237902 0.97702 0.489901 0.859234 
0.257318 0.648053 0.482045 0.444077 0.538734 
0.463774 0.604533 0.0327138 0.934307 0.978039 
0.404403 0.00281349 0.349376 0.586669 0.241445 
0.483485 0.309396 0.409578 0.0409836 0.592172 
0.632628 0.951193 0.196091 0.514865 0.535364 
0.401409 0.421436 0.175298 0.632123 0.410172 
0.0936045 0.793001 0.217614 0.800083 0.711808 
0.132183 0.911171 0.761089 0.651998 0.547514 
0.189086 0.525022 0.591096 0.693747 0.0592443 
0.244227 0.373794 0.417989 0.523979 0.600339 
0.785193 0.702173 0.973816 0.793814 0.370392 
0.270195 0.685838 0.676119 0.0600589 0.655708 
0.0837204 0.587523 0.433067 0.21736 0.594494 
0.502728 0.632424 0.700883 0.0938306 0.80955 
0.194027 0.584596 0.466035 0.181757 0.0221065 
0.821054 0.772849 0.106555 0.116396 0.405443 
0.335929 0.702809 0.862927 0.255308 0.534358 
0.0763456 0.314267 0.363052 0.372696 0.0213146 
0.710576 0.278147 0.334816 0.365746 0.0977262 
0.57609 0.275187 0.464081 0.723744 0.32659 
0.768817 0.274475 0.66226 0.795425 0.932136 
0.0503721 0.804695 0.796739 0.977451 0.981749 
0.275955 0.0771922 0.161859 0.285736 0.0574584 
0.679972 0.357408 0.0663382 0.744363 0.267912 
0.802385 0.190993 0.0345226 0.270418 0.158121 
0.0127195 0.79234 0.509293 0.810916 0.261226 
0.215064 0.0613393 0.747441 0.985174 0.880612 
0.490479 0.900752 0.00210776 0.107548 0.629172 
0.263266 0.309654 0.585167 0.144005 0.0807815 
0.758648 0.939271 0.629489 0.322114 0.241434 
0.300399 0.144373 0.0636837 0.12999 0.889035 
0.0553036 0.0441189 0.588435 0.970039 0.937039 
0.687052 0.589767 0.394674 0.693965 0.839661 
0.302121 0.719196 0.748002 0.397945 0.82428 
0.381252 0.912851 0.723455 0.041467 0.608685 
0.702753 0.0646509 0.943704 0.844057 0.0643656 
0.238308 0.858203 0.40144 0.715192 0.484344 
0.174461 0.821458 0.26956 0.236331 0.625076 
0.649881 0.743222 0.610484 0.228886 0.776324 
0.304072 0.628401 0.263518 0.476218 0.757014 
0.660098 0.302716 0.538496 0.365173 0.510918 
0.907212 0.357004 0.368038 0.203978 0.449583 
0.699432 0.981214 0.993347 0.655236 0.447946 
0.822156 0.934998 0.431039 0.72067 0.317752 
0.566177 0.397132 0.765349 0.809296 0.398862 
0.349282 0.383331 0.509298 0.616796 0.249873 
0.214498 0.204317 0.1894 0.708203 0.904176 
0.0646121 0.661865 0.23293 0.401201 0.450685 
0.341819 0.530478 0.426565 0.685919 0.30871 
0.0728669 0.969323 0.886211 0.337425 0.783178 
0.206255 0.829823 0.12604 0.729604 0.13469 
0.121389 0.46659 0.00598917 0.0938474 0.421682 
0.119854 0.941127 0.779834 0.140529 0.995129 
0.351776 0.632175 0.843069 0.873381 0.604325 
0.732771 0.696904 0.64647 0.866026 0.485907 
0.0252781 0.173625 0.158734 0.294711 0.646726 
0.784067 0.670783 0.549417 0.611354 0.0495692 
0.93034 0.0067504 0.371087 0.957608 0.270564 
0.795449 0.490102 0.777226 0.98883 0.205389 
0.0339043 0.156238 0.741042 0.354428 0.534486 
0.37341 0.169119 0.128985 0.231388 0.946642 
0.441163 0.640925 0.302283 0.30801 0.359519 
0.108588 0.416994 0.25191 0.903279 0.00284316 
0.353466 0.980415 0.765288 0.210479 0.0277008 
0.869714 0.665461 0.183713 0.791761 0.979421 
0.536842 0.586315 0.898662 0.165616 0.990958 
0.324837 0.00791157 0.624473 0.752069 0.335646 
0.126552 0.897866 0.812331 0.237538 0.0456476 
0.969674 0.677995 0.926886 0.404965 0.081894 
0.566405 0.184154 0.673355 0.46806 0.289607 
0.220646 0.811203 0.954119 0.803047 0.0213409 
0.24428 0.892652 0.194476 0.401539 0.8727 
0.432544 0.853737 0.548109 0.281662 0.48262 
0.112263 0.0478927 0.6601 0.819194 0.134378 
0.640517 0.803108 0.504212 0.540386 0.119661 
0.147138 0.758976 0.326452 0.870882 0.198086 
0.194478 0.518294 0.792506 0.122564 0.676605 
0.07651 0.802172 0.345847 0.206516 0.324433 
0.0214313 0.400568 0.351492 0.303273 0.0667354 
0.86566 0.916149 0.714992 0.0202242 0.319084 
0.604328 0.11653 0.467714 0.457444 0.342645 
0.916406 0.923295 0.735296 0.376166 0.486943 
0.718021 0.88039 0.501951 0.842892 0.560611 
0.802412 0.325995 0.835743 0.0812312 0.702354 
0.71881 0.0107763 0.504002 0.538908 0.0654383 
0.869272 0.686727 0.941711 0.846496 0.818945 
0.752048 0.369031 0.356213 0.874191 0.829517 
0.661884 0.653355 0.695751 0.317065 0.695112 
0.0621746 0.724297 0.809831 0.753693 0.886721 
0.514395 0.24981 0.289376 0.73511 0.390829 
0.837929 0.463402 0.393736 0.769544 0.375553 
0.296592 0.391968 0.158962 0.975873 0.130492 
0.447323 0.250338 0.972607 0.0881121 0.413944 
0.648688 0.257068 0.701593 0.864292 0.858696 
0.634765 0.774886 0.216226 0.987758 0.472284 
0.131119 0.0771719 0.125876 0.21408 0.200529 
0.112666 0.294831 0.373973 0.0767318 0.0155127 
0.0171102 0.671262 0.0990963 0.112467 0.156202 
0.850066 0.346762 0.0123272 0.809472 0.840602 
0.2319 0.491181 0.110923 0.368911 0.685139 
0.68635 0.365798 0.113371 0.533533 0.239136 
0.617934 0.614419 0.659295 0.944415 0.472916 
0.169917 0.159483 0.443968 0.888959 0.175614 
0.823107 0.820266 0.620822 0.0860915 0.462518 
0.156261 0.388323 0.592332 0.740173 0.443578 
0.80887 0.523349 0.684362 0.775842 0.00786485 
0.405181 0.540511 0.204418 0.358261 0.601791 
0.128284 0.531831 0.159153 0.387456 0.154912 
0.418273 0.901655 0.343594 0.0305848 0.726312 
0.984472 0.630482 0.116964 0.101965 0.196507 
0.989634 0.118187 0.655978 0.14355 0.228476 
0.298336 0.766912 0.937398 0.930217 0.61444 
0.609085 0.929771 0.850844 0.152542 0.459625 
0.988899 0.760702 0.583579 0.700229 0.712345 
0.132204 0.709656 0.371115 0.593664 0.486303 
0.0408831 0.394076 0.258096 0.178425 0.282163 
0.629631 0.538586 0.519848 0.0862238 0.148987 
0.330437 0.295567 0.486239 0.444803 0.619214 
0.439248 0.558102 0.0622228 0.235621 0.884934 
0.527003 0.805602 0.387723 0.695686 0.623618 
0.39154 0.979979 0.241133 0.459102 0.880679 
0.54196 0.939779 0.139643 0.639929 0.458469 
0.606623 0.379978 0.0595775 0.926442 0.555067 
0.858842 0.849679 0.138671 0.386945 0.0936448 
0.771233 0.868423 0.777014 0.593934 0.760103 
0.515977 0.349745 0.77655 0.0633788 0.536782 
0.13602 0.609361 0.0323236 0.436708 0.279526 
0.856369 0.0241842 0.970087 0.281901 0.63904 
0.0338842 0.987007 0.492868 0.348087 0.353983 
0.742801 0.581184 0.474231 0.72433 0.950948 
0.064213 0.966112 0.157558 0.0179045 0.37258 
0.851567 0.234367 0.252713 0.00137968 0.915259 
0.383226 0.149929 0.121459 0.716754 0.920059 
0.365607 0.908971 0.484125 0.930924 0.245981 
0.425071 0.277544 0.512905 0.36112 0.78246 
0.282773 0.244583 0.300078 0.431951 0.0760482 
0.263929 0.108322 0.0570817 0.936257 0.184357 
0.449489 0.600336 0.665504 0.204839 0.405228 
0.1587 0.220607 0.684803 0.928226 0.924836 
0.283951 0.231462 0.998269 0.305793 0.360555 
0.607707 0.423998 0.326799 0.31801 0.211433 
0.998516 0.829049 0.713953 0.226379 0.901423 
0.301225 0.605008 0.968397 0.695733 0.87944 
0.302754 0.796534 0.224567 0.737401 0.809842 
0.118303 0.969612 0.446817 0.629587 0.723742 
0.326016 0.071057 0.408306 0.592553 0.238972 
0.0850917 0.390539 0.896336 0.764156 0.93991 
0.132175 0.431589 0.527488 0.244243 0.40195 
0.981609 0.832952 0.603216 0.81106 0.0526831 
0.570468 0.352372 0.613104 0.437603 0.9779 
0.112214 0.974506 0.283512 0.318849 0.361245 
0.464004 0.410305 0.663008 0.0548341 0.708717 
0.689945 0.652121 0.294723 0.5519 0.323842 
0.77031 0.868744 0.396979 0.593177 0.0754253 
0.180106 0.606095 0.0584737 0.321844 0.026148 
0.308511 0.127281 0.0552672 0.995807 0.438641 
0.813739 0.994806 0.19655 0.4025 0.00254217 
0.720541 0.811356 0.0721737 0.109592 0.711864 
0.0371192 0.766499 0.872661 0.0796676 0.284911 
0.574665 0.334311 0.255764 0.581054 0.450664 
0.896222 0.757484 0.984768 0.0154653 0.375405 
0.0802502 0.93364 0.550341 0.219695 0.883169 
0.249557 0.862397 0.430563 0.371886 0.604983 
0.0607815 0.393114 0.282227 0.37338 0.164442 
0.880474 0.977719 0.521993 0.00665772 0.0516572 
0.626809 0.743353 0.651358 0.754683 0.23219 
0.27744 0.373413 0.235545 0.365022 0.929522 
0.688514 0.551128 0.98045 0.777893 0.542918 
0.0419594 0.221766 0.324813 0.286782 0.580232 
0.897045 0.223255 0.379343 0.352374 0.105996 
0.0715847 0.786336 0.428661 0.328227 0.334879 
