3900 5
0.143038 0.282587 0.512867 0.25049 0.76079 
0.079037 0.34636 0.866409 0.552754 0.187211 
0.176866 0.994578 0.256217 0.973587 0.580264 
0.781744 0.344067 0.660135 0.211266 0.981728 
0.994329 0.31927 0.327867 0.312658 0.275372 
0.117713 0.329521 0.645123 0.764444 0.0281684 
0.644326 0.0939884 0.208815 0.349751 0.159562 
0.127146 0.855948 0.846507 0.363101 0.938016 
0.480306 0.976205 0.336795 0.616223 0.290617 
0.974729 0.919287 0.239566 0.159709 0.61477 
0.198668 0.807282 0.0376569 0.485619 0.943565 
0.306226 0.138679 0.440544 0.753937 0.828018 
0.989146 0.716297 0.245501 0.94572 0.156308 
0.574589 0.493295 0.969903 0.680712 0.418475 
0.341862 0.389553 0.610773 0.103881 0.437549 
0.40214 0.45202 0.546159 0.159855 0.446901 
0.507146 0.622413 0.378768 0.29313 0.347597 
0.992121 0.511415 0.939675 0.25125 0.818267 
0.3629 0.938005 0.703878 0.586023 0.591503 
0.140246 0.382341 0.143353 0.401995 0.724986 
0.241984 0.379775 0.113483 0.0791267 0.459493 
0.241461 0.610439 0.125449 0.202433 0.47003 
0.185192 0.772602 0.853924 0.720408 0.0315593 
0.724121 0.540878 0.785666 0.759979 0.944428 
0.588455 0.595619 0.660509 0.369442 0.828833 
0.929652 0.457602 0.0831646 0.21109 0.752093 
0.774232 0.687102 0.792096 0.0981308 0.0105097 
0.259434 0.508409 0.115223 0.819217 0.266488 
0.000165937 0.956338 0.204277 0.085748 0.422599 
0.0130384 0.633281 0.292859 0.858561 0.911329 
0.340514 0.272062 0.179915 0.262546 0.42963 
0.285087 0.714826 0.852355 0.494926 0.729623 
0.820563 0.252613 0.186439 0.714672 0.574802 
0.103937 0.334896 0.503505 0.113221 0.745648 
0.259025 0.885671 0.50591 0.324988 0.345963 
0.804732 0.749384 0.898221 0.0195046 0.800896 
0.71347 0.124215 0.198705 0.439465 0.434091 
0.679206 0.0453525 0.670612 0.665449 0.0803756 
0.491872 0.90531 0.0928896 0.520108 0.301393 
0.895682 0.51475 0.735886 0.0517464 0.417053 
0.921462 0.0583916 0.136624 0.859897 0.476419 
0.851552 0.124827 0.407053 0.486662 0.872459 
0.696169 0.49656 0.699312 0.478949 0.895902 
0.181009 0.469157 0.602127 0.571096 0.360351 
0.525233 0.928295 0.191334 0.261165 0.173954 
0.780563 0.707679 0.468534 0.00821519 0.675795 
0.150454 0.541351 0.440897 0.608812 0.514568 
0.60983 0.40571 0.195759 0.543233 0.386852 
0.303766 0.225634 0.146719 0.842989 0.00464667 
0.22813 0.553118 0.486779 0.857036 0.988522 
0.484098 0.691637 0.615475 0.642906 0.198216 
0.776013 0.479838 0.800696 0.379873 0.660572 
0.457658 0.0490821 0.273792 0.753983 0.195897 
0.763498 0.457102 0.856292 0.123052 0.974613 
0.161072 0.21894 0.431365 0.554213 0.380137 
0.508905 0.363797 0.360603 0.698898 0.124834 
0.178044 0.460575 0.357843 0.892406 0.0141436 
0.641613 0.559696 0.195806 0.780332 0.833237 
0.915964 0.787706 0.748286 0.214053 0.940712 
0.000898421 0.539141 0.84601 0.0244425 0.330119 
0.486243 0.76799 0.0117415 0.316006 0.185705 
0.0622309 0.254193 0.203294 0.141977 0.0602291 
0.162148 0.437112 0.911944 0.67319 0.684008 
0.484049 0.288782 0.0687652 0.237894 0.330548 
0.913843 0.342269 0.467263 0.084738 0.105375 
0.421865 0.412301 0.33625 0.554974 0.702807 
0.165854 0.723905 0.0839433 0.427488 0.332712 
0.561231 0.738207 0.210258 0.0880652 0.753967 
0.208308 0.448538 0.191585 0.517613 0.0448197 
0.289586 0.934405 0.0605814 0.386658 0.031669 
0.783486 0.0158024 0.166828 0.994597 0.402155 
0.168242 0.549962 0.977102 0.74253 0.793353 
0.654995 0.756698 0.439251 0.788032 0.88834 
0.662364 0.873989 0.509446 0.823414 0.155457 
0.844571 0.783504 0.501602 0.225873 0.454763 
0.37888 0.747556 0.0703219 0.994525 0.580961 
0.0250427 0.363439 0.960201 0.329548 0.822456 
0.0713681 0.732477 0.430803 0.907488 0.887464 
0.27679 0.194437 0.81807 0.918524 0.668789 
0.0259221 0.549729 0.125882 0.601406 0.43522 
0.0436977 0.225838 0.248187 0.307587 0.503719 
0.708235 0.670012 0.372174 0.802933 0.414274 
0.529761 0.256818 0.608141 0.739435 0.172812 
0.317207 0.783123 0.743487 0.959178 0.721639 
0.6605 0.594114 0.787068 0.849084 0.284152 
0.838308 0.69701 0.099548 0.41844 0.78301 
0.287498 0.694134 0.576696 0.837858 0.92851 
0.571904 0.971714 0.856364 0.765138 0.550292 
0.361282 0.806254 0.102767 0.136371 0.72383 
0.439895 0.30495 0.802002 0.366385 0.917033 
0.850983 0.874509 0.0451849 0.264231 0.983908 
0.389702 0.913805 0.576041 0.420507 0.439766 
0.833329 0.673736 0.552769 0.618288 0.980056 
0.0303579 0.633506 0.328553 0.359609 0.97451 
0.155583 0.976398 0.68693 0.832955 0.0900044 
0.305593 0.937299 0.444128 0.524692 0.715115 
0.427873 0.775174 0.0590337 0.575875 0.9964 
0.781215 0.616845 0.961572 0.00378138 0.944111 
0.0438648 0.382445 0.57826 0.731229 0.885866 
0.0884759 0.321797 0.992498 0.411959 0.0718086 
0.249246 0.548571 0.198432 0.415759 0.225546 
0.170597 0.0263642 0.726661 0.944187 0.736938 
0.73 0.98711 0.52902 0.63299 0.10742 
0.637467 0.205364 0.179148 0.199849 0.951962 
0.535699 0.410058 0.191048 0.575216 0.611644 
0.924609 0.236404 0.798457 0.162977 0.329069 
0.912925 0.866925 0.0477722 0.451071 0.0116825 
0.163101 0.818789 0.47116 0.489512 0.283688 
0.770346 0.307907 0.119902 0.800227 0.0168042 
0.578578 0.846932 0.0994356 0.0244948 0.14299 
0.0595693 0.975883 0.990593 0.706765 0.315022 
0.0554211 0.749487 0.998868 0.98673 0.00626895 
0.406838 0.678417 0.089901 0.959803 0.0143478 
0.463779 0.829902 0.451448 0.0684835 0.285117 
0.561126 0.0784787 0.109209 0.709664 0.0836691 
0.15251 0.291863 0.542074 0.484984 0.81512 
0.521357 0.30996 0.774101 0.776872 0.892693 
0.163896 0.945863 0.676552 0.0930086 0.519535 
0.510646 0.823535 0.838734 0.796306 0.526811 
0.712587 0.201018 0.0671577 0.506507 0.287313 
0.631729 0.39277 0.938195 0.304246 0.471799 
0.733548 0.530675 0.149851 0.691844 0.349077 
0.241941 0.815448 0.0200861 0.607319 0.233145 
0.339371 0.818184 0.830763 0.0274502 0.859667 
0.680865 0.570788 0.00757283 0.641381 0.188816 
0.606359 0.310177 0.945128 0.301052 0.631135 
0.206608 0.691249 0.831939 0.578769 0.133323 
0.0834044 0.910041 0.21882 0.212739 0.793566 
0.88696 0.488979 0.930444 0.120156 0.143268 
0.432476 0.470985 0.869426 0.199914 0.548243 
0.510032 0.0574619 0.770859 0.342276 0.450281 
0.826052 0.482406 0.0053058 0.736673 0.809402 
0.880786 0.0521454 0.781913 0.75991 0.249534 
0.0626983 0.0107487 0.310418 0.68963 0.0295365 
0.407325 0.662912 0.716777 0.624744 0.376878 
0.0902141 0.629887 0.470321 0.722136 0.598164 
0.702393 0.118695 0.18799 0.997008 0.17217 
0.514708 0.0211445 0.908499 0.872501 0.38975 
0.308948 0.354367 0.521336 0.450765 0.712052 
0.115817 0.550628 0.233288 0.835706 0.0771362 
0.813927 0.1065 0.201031 0.0955525 0.242393 
0.722631 0.112313 0.425504 0.2343 0.334488 
0.238442 0.761882 0.661671 0.570191 0.78468 
0.741118 0.191776 0.266355 0.822199 0.200072 
0.528728 0.42305 0.580358 0.267554 0.696158 
0.232265 0.555616 0.345669 0.617504 0.672225 
0.764287 0.12629 0.109142 0.493113 0.232632 
0.825088 0.753034 0.638048 0.0612616 0.486722 
0.256368 0.720523 0.841539 0.064878 0.979474 
0.683311 0.185135 0.935159 0.581006 0.407731 
0.901865 0.881802 0.77946 0.355127 0.251219 
0.806122 0.731044 0.595052 0.526318 0.457222 
0.34206 0.900323 0.416673 0.0149752 0.811602 
0.187013 0.176158 0.703368 0.352475 0.128785 
0.520085 0.263396 0.561387 0.374887 0.437301 
0.324652 0.681838 0.0779364 0.440058 0.247243 
0.762431 0.233998 0.398235 0.85384 0.302997 
0.917153 0.958214 0.835356 0.327926 0.471982 
0.836689 0.935409 0.899152 0.769938 0.125551 
0.984326 0.882848 0.876948 0.134729 0.773835 
0.795413 0.0263827 0.345504 0.376403 0.875902 
0.586621 0.996662 0.53703 0.662322 0.508042 
0.243278 0.69427 0.95462 0.0165999 0.550316 
0.292431 0.0661026 0.111482 0.772509 0.7176 
0.438806 0.768986 0.762076 0.56195 0.432276 
0.304904 0.178864 0.570337 0.610206 0.915946 
0.970673 0.668851 0.824486 0.468277 0.0645307 
0.532714 0.349649 0.759405 0.164298 0.291133 
0.673205 0.238032 0.852353 0.158764 0.896768 
0.64626 0.384787 0.705611 0.949479 0.454235 
0.897662 0.644452 0.706534 0.664401 0.504227 
0.632288 0.352236 0.0550697 0.657799 0.0811418 
0.122678 0.251053 0.534083 0.192466 0.978782 
0.944537 0.570631 0.41591 0.572503 0.325755 
0.819074 0.685927 0.375906 0.061242 0.0449221 
0.213935 0.600229 0.222531 0.0118974 0.658099 
0.365446 0.464796 0.741113 0.150165 0.558205 
0.979848 0.480309 0.174634 0.131478 0.393694 
0.644765 0.92595 0.561762 0.853615 0.87081 
0.806154 0.240014 0.693466 0.715457 0.596234 
0.974303 0.343489 0.995333 0.618685 0.512765 
0.985783 0.550253 0.230028 0.219008 0.229802 
0.727573 0.630451 0.347161 0.117684 0.965965 
0.474815 0.838289 0.772268 0.0940038 0.882625 
0.0225656 0.151581 0.868822 0.27615 0.198438 
0.606687 0.931209 0.635946 0.810751 0.585358 
0.133547 0.309461 0.344543 0.220001 0.0889342 
0.155713 0.863802 0.521236 0.440401 0.601737 
0.897757 0.553035 0.82581 0.235627 0.0279574 
0.299797 0.748239 0.0445365 0.558027 0.0378779 
0.264038 0.287626 0.0993177 0.183234 0.1552 
0.0781873 0.573033 0.544883 0.303816 0.658444 
0.609011 0.367795 0.861978 0.385099 0.672299 
0.972046 0.377588 0.1936 0.857828 0.76312 
0.452118 0.944755 0.104665 0.460707 0.717043 
0.182892 0.130591 0.520424 0.148557 0.0752683 
0.133476 0.936559 0.519059 0.787365 0.805468 
0.907995 0.0476885 0.414916 0.294786 0.381686 
0.249729 0.0489508 0.578277 0.380989 0.886872 
0.0705538 0.393706 0.921968 0.561539 0.0814303 
0.378513 0.612351 0.502917 0.42101 0.268818 
0.202961 0.937241 0.422686 0.485437 0.0118838 
0.466158 0.87837 0.518558 0.133473 0.995584 
0.872086 0.109605 0.0516277 0.222599 0.403982 
0.453742 0.748444 0.694617 0.465458 0.80698 
0.823257 0.396892 0.83183 0.938908 0.742808 
0.349348 0.601312 0.406075 0.781431 0.594606 
0.804755 0.39694 0.0404836 0.348747 0.106846 
0.355327 0.325373 0.378311 0.728166 0.668531 
0.414335 0.898716 0.221692 0.270813 0.947501 
0.684354 0.243139 0.383578 0.212849 0.548061 
0.738582 0.948895 0.587303 0.570324 0.134834 
0.314488 0.0359309 0.0491369 0.0754658 0.142243 
0.263036 0.0747368 0.714779 0.706562 0.934446 
0.0110314 0.317213 0.562274 0.995039 0.0815678 
0.542698 0.879422 0.72428 0.952172 0.982203 
0.716426 0.722024 0.657189 0.838273 0.485507 
0.526785 0.198288 0.954159 0.903925 0.751746 
0.608395 0.257504 0.36053 0.511429 0.686549 
0.134728 0.958075 0.388802 0.76242 0.584044 
0.38974 0.601806 0.613288 0.918442 0.283144 
0.712893 0.35985 0.571921 0.757692 0.229372 
0.687658 0.813757 0.344832 0.269538 0.69661 
0.880071 0.92145 0.7921 0.22026 0.408915 
0.53699 0.696852 0.896873 0.712788 0.666427 
0.679923 0.0351361 0.17431 0.544972 0.654771 
0.107325 0.876893 0.595862 0.940745 0.535621 
0.924217 0.450007 0.773717 0.280761 0.474128 
0.335528 0.456822 0.932127 0.29704 0.431898 
0.30578 0.036641 0.941912 0.784221 0.136765 
0.120693 0.154178 0.265476 0.561892 0.102441 
0.439231 0.335636 0.925503 0.518919 0.542386 
0.149198 0.981189 0.0893198 0.32507 0.350853 
0.835417 0.624066 0.448033 0.0870881 0.219044 
0.0206096 0.863104 0.684715 0.134137 0.654356 
0.281419 0.720887 0.722809 0.182346 0.812525 
0.772621 0.700726 0.559876 0.668807 0.745683 
0.525355 0.976856 0.571111 0.252118 0.746731 
0.854365 0.836454 0.0161729 0.166766 0.715827 
0.0134054 0.379594 0.933204 0.633523 0.128322 
0.483099 0.527935 0.379433 0.567088 0.0746679 
0.270205 0.474488 0.582311 0.796704 0.82414 
0.165716 0.0884976 0.797217 0.889237 0.56704 
0.739582 0.142457 0.46278 0.302499 0.855145 
0.0230577 0.371535 0.379624 0.286247 0.534107 
0.110638 0.246667 0.939777 0.588446 0.181276 
0.981263 0.720156 0.0223525 0.775018 0.638415 
0.133745 0.784068 0.737757 0.269297 0.252192 
0.802708 0.811846 0.695597 0.0806811 0.14164 
0.160567 0.297086 0.386484 0.208171 0.371695 
0.924065 0.0666399 0.152291 0.323821 0.728899 
0.479211 0.452977 0.816622 0.639083 0.19883 
0.91206 0.0280819 0.984405 0.765137 0.487806 
0.533039 0.346944 0.577481 0.933722 0.342426 
0.328465 0.893126 0.857305 0.506715 0.385601 
0.0883482 0.639814 0.0572818 0.110602 0.286434 
0.0168554 0.581738 0.000521646 0.839182 0.294095 
0.403048 0.27209 0.51893 0.797311 0.369946 
0.827598 0.0632775 0.124053 0.914633 0.512221 
0.815709 0.369563 0.726557 0.76407 0.483513 
0.455442 0.736471 0.0141289 0.732926 0.553921 
0.289097 0.166042 0.91312 0.859859 0.565116 
0.996965 0.675812 0.788852 0.370883 0.510376 
0.0138899 0.433911 0.629658 0.163556 0.352167 
0.60522 0.738447 0.924509 0.763867 0.936875 
0.608479 0.615615 0.600185 0.330613 0.0268544 
0.914194 0.888001 0.235338 0.701567 0.558419 
0.597974 0.791445 0.102992 0.265752 0.968446 
0.673262 0.0678613 0.826511 0.511643 0.12 
0.256742 0.834886 0.701655 0.618165 0.044177 
0.134098 0.71507 0.806053 0.169799 0.617383 
0.244225 0.0531555 0.609054 0.579535 0.752705 
0.313535 0.194545 0.542103 0.541628 0.940015 
0.367733 0.574194 0.0322308 0.35056 0.368302 
0.664388 0.72293 0.628479 0.019278 0.169435 
0.746126 0.523477 0.730006 0.694684 0.11896 
0.996486 0.427527 0.99507 0.948285 0.706117 
0.195869 0.521711 0.676829 0.7421 0.239744 
0.959215 0.744881 0.91843 0.649739 0.460749 
0.0747091 0.161009 0.564936 0.180983 0.622907 
0.514469 0.971693 0.276586 0.677963 0.854894 
0.838912 0.12904 0.800562 0.328434 0.119161 
0.238129 0.798004 0.617987 0.25694 0.527887 
0.467211 0.98014 0.503768 0.588351 0.494163 
0.0450373 0.0175358 0.254972 0.0335887 0.073717 
0.311413 0.179033 0.910104 0.544288 0.249036 
0.143615 0.563637 0.891671 0.699705 0.969597 
0.266911 0.495743 0.25914 0.280781 0.185999 
0.932016 0.96964 0.880223 0.641327 0.990311 
0.286966 0.626249 0.047969 0.08015 0.488893 
0.539228 0.0551127 0.63325 0.0595483 0.525956 
0.0895384 0.77696 0.389876 0.989506 0.7714 
0.708618 0.459405 0.547593 0.344476 0.12062 
0.98947 0.0464173 0.560568 0.357983 0.493945 
0.759046 0.949667 0.389073 0.172781 0.740669 
0.462198 0.64996 0.504208 0.632184 0.189836 
0.259292 0.592202 0.104652 0.390082 0.512432 
0.539606 0.528784 0.194624 0.203176 0.861955 
0.971737 0.437918 0.982195 0.0074613 0.514277 
0.447951 0.672178 0.499574 0.922375 0.725935 
0.375128 0.267522 0.304592 0.787911 0.192007 
0.558655 0.73884 0.359435 0.125812 0.113908 
0.647089 0.763757 0.781827 0.926472 0.690054 
0.204243 0.717392 0.42049 0.19577 0.695553 
0.29199 0.0582968 0.359102 0.154115 0.691421 
0.353004 0.725272 0.984547 0.214963 0.314299 
0.907034 0.328828 0.779847 0.23025 0.430447 
0.835041 0.34793 0.604227 0.679147 0.33851 
0.294394 0.50264 0.0828966 0.460197 0.84501 
0.541464 0.0222467 0.482187 0.865295 0.23822 
0.235361 0.0941803 0.714188 0.34033 0.993305 
0.16051 0.0890435 0.688762 0.412354 0.651047 
0.898256 0.216602 0.927701 0.921997 0.455755 
0.869137 0.0795396 0.842319 0.608636 0.36753 
0.11139 0.622338 0.519482 0.911681 0.434219 
0.230168 0.591516 0.239198 0.566518 0.844641 
0.641794 0.0888152 0.585621 0.465363 0.610883 
0.865454 0.397554 0.00387137 0.00577857 0.838901 
0.670729 0.154996 0.898769 0.905982 0.0297897 
0.404924 0.096595 0.63947 0.608514 0.424958 
0.795385 0.870516 0.252355 0.978637 0.623507 
0.484119 0.361658 0.0724612 0.385196 0.36229 
0.532889 0.569456 0.323725 0.122661 0.94274 
0.577218 0.50768 0.399359 0.120533 0.332866 
0.159477 0.489287 0.944037 0.801912 0.338162 
0.407512 0.111404 0.485454 0.140794 0.842237 
0.72597 0.420563 0.996411 0.693784 0.930364 
0.478125 0.985599 0.00282301 0.172894 0.790468 
0.111284 0.335809 0.493052 0.216492 0.550741 
0.420735 0.566931 0.213648 0.406214 0.0411518 
0.725014 0.00706907 0.022379 0.166465 0.440156 
0.644387 0.471239 0.00559858 0.663405 0.994217 
0.783329 0.89701 0.820216 0.427425 0.551925 
0.669004 0.997772 0.747668 0.366326 0.00489376 
0.355206 0.294023 0.991801 0.504903 0.647667 
0.340209 0.746997 0.0634127 0.424979 0.426517 
0.771571 0.22196 0.77289 0.294769 0.931049 
0.191905 0.965698 0.265945 0.106514 0.064905 
0.227847 0.200409 0.018249 0.830838 0.862008 
0.666174 0.090737 0.571174 0.63126 0.291453 
0.00769873 0.212199 0.510883 0.431683 0.867454 
0.70425 0.994694 0.827515 0.710755 0.665473 
0.846984 0.281458 0.00625111 0.185596 0.852654 
0.536393 0.511705 0.355756 0.0880337 0.170642 
0.307301 0.603498 0.209059 0.210297 0.218119 
0.0449571 0.440422 0.878642 0.799113 0.0389196 
0.728978 0.583066 0.422765 0.972479 0.455981 
0.0455185 0.696655 0.161645 0.0381843 0.533521 
0.870201 0.604222 0.881321 0.845655 0.365599 
0.120006 0.315693 0.85804 0.782485 0.698613 
0.126955 0.373827 0.144485 0.0887204 0.892126 
0.543371 0.0468109 0.190016 0.404629 0.519908 
0.774057 0.66097 0.992314 0.677088 0.182593 
0.763618 0.633028 0.3294 0.508472 0.986947 
0.896805 0.695899 0.26069 0.816881 0.16214 
0.586887 0.258426 0.812931 0.174823 0.750406 
0.249968 0.214796 0.655029 0.453402 0.269071 
0.361116 0.227985 0.0323413 0.587272 0.64962 
0.770641 0.143719 0.124109 0.386533 0.814136 
0.50786 0.86388 0.672833 0.942593 0.0399044 
0.647022 0.458697 0.789196 0.601037 0.794003 
0.614549 0.292143 0.26362 0.304309 0.0789129 
0.637386 0.730998 0.709647 0.995011 0.96471 
0.697554 0.704982 0.686564 0.129482 0.532675 
0.538303 0.480209 0.333313 0.864301 0.37637 
0.0335088 0.416259 0.0708981 0.651067 0.703242 
0.512095 0.45465 0.967551 0.725333 0.358382 
0.0906852 0.15632 0.577111 0.50958 0.80362 
0.269669 0.792981 0.731788 0.21677 0.752918 
0.617744 0.758196 0.469635 0.320173 0.72027 
0.179611 0.544105 0.84726 0.201369 0.461542 
0.144642 0.0184222 0.886112 0.501494 0.472559 
0.10687 0.705496 0.667607 0.0570163 0.920016 
0.942495 0.975346 0.269322 0.190493 0.317384 
0.610089 0.161177 0.284638 0.197232 0.804264 
0.99402 0.397221 0.553434 0.282802 0.0215759 
0.256998 0.840131 0.951717 0.192041 0.345592 
0.555733 0.653666 0.68731 0.744006 0.793102 
0.490331 0.554153 0.416625 0.429883 0.891209 
0.865401 0.025524 0.399588 0.31969 0.596657 
0.674702 0.491202 0.730114 0.484198 0.265071 
0.684629 0.118527 0.629934 0.227754 0.213204 
0.517238 0.603952 0.500209 0.125927 0.154207 
0.195789 0.0350274 0.708686 0.016212 0.10978 
0.901924 0.944687 0.636857 0.505993 0.348405 
0.953388 0.728754 0.919946 0.385158 0.572697 
0.964515 0.140685 0.744415 0.690563 0.419836 
0.858076 0.860683 0.327151 0.353062 0.778984 
0.0147361 0.568019 0.290304 0.34543 0.224673 
0.599312 0.330419 0.193392 0.911564 0.578344 
0.378777 0.808164 0.638428 0.814535 0.380292 
0.0277145 0.979141 0.374311 0.580092 0.472009 
0.157069 0.811063 0.692454 0.744585 0.754203 
0.424965 0.715558 0.648365 0.423837 0.321602 
0.612868 0.884019 0.37253 0.183476 0.118523 
0.501706 0.333699 0.6422 0.491878 0.804404 
0.171396 0.0525925 0.0800973 0.214488 0.250794 
0.619189 0.190354 0.512114 0.558451 0.513127 
0.498354 0.165808 0.527671 0.226306 0.329822 
0.0390847 0.988026 0.911108 0.538089 0.17877 
0.0959584 0.536579 0.456503 0.889414 0.0924892 
0.123901 0.324255 0.476215 0.959166 0.0879587 
0.368486 0.960288 0.560622 0.327571 0.692532 
0.755935 0.73494 0.467113 0.858264 0.360292 
0.678242 0.511655 0.841391 0.639601 0.65026 
0.321815 0.991447 0.826273 0.894623 0.203621 
0.642737 0.632744 0.0403656 0.657128 0.419545 
0.536668 0.909866 0.0951873 0.477521 0.856979 
0.0934043 0.928354 0.880377 0.108919 0.980556 
0.178121 0.925634 0.496254 0.107011 0.463126 
0.0336775 0.219911 0.647854 0.409634 0.696989 
0.512607 0.140971 0.627944 0.946031 0.547153 
0.414084 0.770737 0.306985 0.842939 0.187412 
0.818491 0.578573 0.920023 0.882118 0.0605492 
0.777297 0.636017 0.691077 0.965189 0.39362 
0.91004 0.363384 0.433387 0.293071 0.663597 
0.138993 0.0681677 0.988561 0.100354 0.304976 
0.589077 0.0719868 0.848486 0.874364 0.7213 
0.942942 0.924993 0.696108 0.585652 0.754992 
0.49874 0.0558562 0.669255 0.960502 0.163321 
0.798008 0.248495 0.851277 0.652723 0.235887 
0.114307 0.431289 0.0685853 0.547469 0.989218 
0.581853 0.134677 0.124518 0.785133 0.773889 
0.302281 0.853699 0.564271 0.390383 0.00849234 
0.338452 0.0852563 0.673184 0.661283 0.0156965 
0.873152 0.201272 0.589807 0.980784 0.180076 
0.404328 0.15446 0.264923 0.49964 0.047639 
0.22715 0.0610124 0.403627 0.482493 0.532724 
0.130576 0.638814 0.824328 0.267181 0.490695 
0.901967 0.438802 0.922928 0.84871 0.807283 
0.484045 0.779199 0.918954 0.805973 0.0817981 
0.556688 0.305161 0.964127 0.966947 0.0913534 
0.108733 0.610384 0.0485514 0.0383801 0.649117 
0.310217 0.0523086 0.977332 0.30404 0.284954 
0.711434 0.0332223 0.495382 0.658566 0.156499 
0.139128 0.152386 0.00649695 0.565606 0.822207 
0.093851 0.435009 0.709181 0.667255 0.732624 
0.892419 0.298843 0.49193 0.281819 0.37492 
0.778477 0.905239 0.472701 0.614584 0.894516 
0.106605 0.246976 0.712408 0.885102 0.354897 
0.0745089 0.394235 0.901418 0.465719 0.493416 
0.284873 0.080296 0.0527401 0.0679113 0.899356 
0.0841225 0.141394 0.394865 0.318858 0.0176499 
0.920995 0.987103 0.923639 0.745615 0.117391 
0.83313 0.616981 0.658512 0.474765 0.435005 
0.536757 0.0570719 0.842038 0.563446 0.986902 
0.156101 0.477589 0.0290161 0.237108 0.238343 
0.386264 0.489144 0.829478 0.48635 0.128349 
0.785631 0.612786 0.797269 0.79776 0.75658 
0.104574 0.494991 0.953929 0.195893 0.200312 
0.894558 0.819427 0.557387 0.513294 0.69609 
0.487407 0.150236 0.496721 0.432426 0.718754 
0.255066 0.23627 0.735417 0.993399 0.945533 
0.617414 0.957542 0.909988 0.798672 0.386742 
0.933936 0.755521 0.888409 0.911297 0.968643 
0.85371 0.534715 0.702979 0.417361 0.555997 
0.598585 0.0126725 0.737234 0.70551 0.401323 
0.775111 0.11341 0.759658 0.0117014 0.599778 
0.193209 0.94686 0.190499 0.894847 0.189794 
0.813706 0.742429 0.554956 0.261689 0.690886 
0.516368 0.589755 0.508554 0.920041 0.313944 
0.45193 0.354244 0.872058 0.494519 0.956907 
0.96061 0.143761 0.875188 0.845804 0.173554 
0.823367 0.522926 0.996435 0.657647 0.722732 
0.35237 0.154142 0.0361989 0.582848 0.368191 
0.69876 0.648544 0.184737 0.622081 0.95181 
0.684632 0.628634 0.12492 0.30346 0.519209 
0.56632 0.13118 0.958 0.391909 0.132773 
0.900488 0.804333 0.0612992 0.785252 0.233899 
0.472463 0.086395 0.615799 0.928911 0.142953 
0.295357 0.989524 0.519428 0.976256 0.0573515 
0.68214 0.174903 0.641998 0.0250881 0.979292 
0.0309797 0.60332 0.701137 0.527425 0.672012 
0.539011 0.501951 0.414014 0.514255 0.363542 
0.977867 0.00203469 0.96629 0.298161 0.102591 
0.80006 0.901319 0.938023 0.0435327 0.403566 
0.305786 0.0879143 0.278309 0.00502308 0.250574 
0.701539 0.517394 0.946633 0.556846 0.28606 
0.442424 0.407076 0.352388 0.898609 0.319737 
0.0346096 0.221488 0.233597 0.769354 0.589422 
0.703247 0.954973 0.567696 0.935765 0.262679 
0.776146 0.80947 0.284309 0.474938 0.117205 
0.884888 0.906273 0.184507 0.852111 0.86521 
0.323242 0.596813 0.950715 0.868215 0.941781 
0.926872 0.581686 0.535207 0.932242 0.691377 
0.223297 0.735322 0.561704 0.25742 0.730281 
0.423958 0.200308 0.363316 0.435671 0.458676 
0.97675 0.44648 0.294048 0.737586 0.312354 
0.361444 0.343248 0.811166 0.965906 0.511061 
0.791556 0.396861 0.419946 0.0585869 0.948123 
0.430748 0.357016 0.986741 0.441027 0.786727 
0.206197 0.581255 0.422856 0.234482 0.210417 
0.387743 0.049948 0.34249 0.742537 0.0886644 
0.39473 0.316049 0.510815 0.816613 0.697842 
0.972382 0.154418 0.134349 0.543154 0.925448 
0.39063 0.718954 0.151639 0.413758 0.504916 
0.0567222 0.0336987 0.959017 0.749713 0.0462227 
0.561216 0.955462 0.464149 0.678361 0.46556 
0.272726 0.425023 0.931269 0.388258 0.0957208 
0.123472 0.170122 0.157473 0.978257 0.819166 
0.202095 0.878675 0.536335 0.228027 0.984056 
0.435548 0.768512 0.957728 0.787149 0.861824 
0.0462894 0.449709 0.510411 0.844503 0.802488 
0.125629 0.625513 0.708668 0.811521 0.842416 
0.499841 0.0277224 0.897186 0.223593 0.367866 
0.229796 0.233312 0.264484 0.995053 0.529567 
0.377028 0.211584 0.0103203 0.60892 0.68554 
0.413559 0.615165 0.233089 0.583808 0.772639 
0.24446 0.577587 0.490077 0.652022 0.0809318 
0.975171 0.221422 0.0255645 0.190519 0.464012 
0.634307 0.54141 0.50302 0.599657 0.174706 
0.960057 0.652315 0.160502 0.93256 0.110333 
0.555252 0.871057 0.662205 0.543079 0.3329 
0.632772 0.541666 0.993316 0.85116 0.155336 
0.781625 0.178162 0.151487 0.901503 0.826126 
0.280407 0.013146 0.913815 0.0998662 0.172609 
0.247173 0.432185 0.548197 0.940169 0.0833423 
0.399277 0.5639 0.604877 0.399343 0.0544835 
0.906156 0.157608 0.436889 0.694132 0.194669 
0.213051 0.428361 0.157562 0.881443 0.987344 
0.657229 0.131093 0.741556 0.860622 0.0772792 
0.418167 0.855783 0.972884 0.348969 0.246407 
0.894775 0.361165 0.681272 0.324707 0.414344 
0.777682 0.930324 0.731275 0.0264112 0.702456 
0.845382 0.536705 0.240262 0.245423 0.678881 
0.122992 0.3707 0.396202 0.522448 0.21774 
0.268603 0.270585 0.90314 0.813018 0.972081 
0.631544 0.800838 0.390579 0.00474426 0.296044 
0.269752 0.322503 0.770837 0.56085 0.938106 
0.606596 0.292829 0.791321 0.5935 0.637399 
0.593644 0.899059 0.748975 0.474693 0.491116 
0.694526 0.935685 0.847925 0.608842 0.865598 
0.449003 0.799458 0.972854 0.801639 0.19641 
0.546074 0.397113 0.0581045 0.924647 0.919816 
0.478735 0.441705 0.409157 0.478161 0.513785 
0.457381 0.700422 0.0491343 0.536329 0.059118 
0.0795486 0.819472 0.506435 0.8812 0.738991 
0.137992 0.676433 0.880803 0.109609 0.31544 
0.158911 0.619023 0.500578 0.342444 0.0912361 
0.164115 0.558699 0.616566 0.550504 0.0595596 
0.267277 0.341075 0.879814 0.304574 0.447743 
0.667774 0.500989 0.169925 0.117383 0.395236 
0.609573 0.522483 0.510813 0.444923 0.390792 
0.311827 0.75596 0.696105 0.275487 0.078877 
0.980133 0.622343 0.567821 0.428924 0.4078 
0.33145 0.580318 0.68056 0.163268 0.0340453 
0.293159 0.0538842 0.865696 0.880191 0.37026 
0.807165 0.673878 0.777947 0.0270171 0.00607495 
0.256388 0.300551 0.271683 0.0714257 0.0268858 
0.987518 0.210321 0.500668 0.807802 0.59438 
0.0375452 0.193456 0.218776 0.165161 0.311865 
0.59804 0.355428 0.916754 0.366333 0.478832 
0.845518 0.213184 0.430161 0.0126613 0.539891 
0.328497 0.610743 0.0313566 0.455807 0.645798 
0.943824 0.562787 0.525364 0.491541 0.536979 
0.75272 0.545861 0.215556 0.937523 0.458233 
0.93006 0.548074 0.0522086 0.482535 0.474967 
0.570434 0.950324 0.38636 0.189077 0.746148 
0.213123 0.468053 0.773853 0.605784 0.922998 
0.140184 0.974842 0.733514 0.458872 0.595258 
0.809339 0.284686 0.0855986 0.99664 0.536517 
0.211745 0.43332 0.0856544 0.200727 0.914356 
0.955852 0.288242 0.0217654 0.814814 0.615331 
0.150993 0.0825764 0.0112316 0.885911 0.485533 
0.321302 0.572406 0.827824 0.19813 0.713271 
0.026786 0.873945 0.0202006 0.947395 0.080765 
0.250139 0.4285 0.709623 0.216866 0.514369 
0.0760138 0.854791 0.471674 0.966258 0.706581 
0.00625512 0.509605 0.281027 0.849776 0.774094 
0.507783 0.47395 0.221002 0.928368 0.412808 
0.197017 0.310188 0.706301 0.511266 0.218573 
0.627328 0.359136 0.657381 0.434284 0.151889 
0.294821 0.757199 0.247071 0.0479856 0.275707 
0.742312 0.131819 0.0825336 0.668917 0.194836 
0.498237 0.467561 0.236325 0.391517 0.578748 
0.745406 0.283599 0.665476 0.0750953 0.563246 
0.234637 0.337227 0.36303 0.859074 0.602641 
0.385092 0.926816 0.259894 0.857021 0.806582 
0.792485 0.10545 0.223448 0.536642 0.541331 
0.46191 0.28668 0.864552 0.661863 0.464899 
0.510365 0.379265 0.311623 0.270039 0.129627 
0.0955467 0.234731 0.197426 0.158516 0.618111 
0.0445841 0.522439 0.170634 0.688064 0.26908 
0.52849 0.302315 0.975579 0.572354 0.998747 
0.854449 0.190364 0.773066 0.641488 0.358332 
0.244771 0.83735 0.663495 0.506449 0.696603 
0.502993 0.0941419 0.291522 0.423856 0.408101 
0.0812204 0.314104 0.468282 0.676158 0.257357 
0.13811 0.92736 0.916171 0.903563 0.715512 
0.967956 0.336359 0.576171 0.445787 0.442131 
0.0512394 0.525228 0.290813 0.277111 0.353734 
0.358636 0.808445 0.0557825 0.198209 0.250368 
0.190106 0.847049 0.998921 0.939622 0.614622 
0.449853 0.0631588 0.97288 0.427832 0.341925 
0.120906 0.301852 0.702736 0.705865 0.658222 
0.583943 0.855384 0.243609 0.743757 0.306003 
0.252666 0.144281 0.343692 0.942043 0.0393429 
0.918925 0.333168 0.545517 0.835935 0.0220981 
0.561005 0.644685 0.530727 0.559212 0.166221 
0.175807 0.0769983 0.576106 0.230672 0.261843 
0.460413 0.0839978 0.695845 0.216459 0.101968 
0.0139043 0.702728 0.460547 0.431143 0.306949 
0.300748 0.899607 0.83515 0.495712 0.82319 
0.282993 0.640291 0.329104 0.718893 0.957255 
0.0582901 0.0656894 0.268179 0.775101 0.616682 
0.149242 0.480941 0.24944 0.531743 0.929037 
0.824651 0.103232 0.503895 0.541422 0.963773 
0.49575 0.65532 0.193807 0.731077 0.435716 
0.419209 0.198618 0.367402 0.891092 0.264401 
0.828817 0.748785 0.156189 0.891478 0.90991 
0.369231 0.831007 0.672717 0.74137 0.259751 
0.925173 0.522341 0.835791 0.33105 0.390923 
0.704154 0.56776 0.397792 0.742626 0.983246 
0.894028 0.238285 0.259705 0.480474 0.22047 
0.66296 0.483849 0.904794 0.874054 0.837462 
0.45576 0.230465 0.249856 0.541969 0.618344 
0.293616 0.92087 0.663872 0.526668 0.324026 
0.254197 0.236349 0.21438 0.560512 0.197257 
0.480543 0.180257 0.00540833 0.56905 0.167165 
0.466075 0.631473 0.922655 0.144201 0.456486 
0.438707 0.931661 0.582175 0.331218 0.853324 
0.779995 0.506099 0.302992 0.665627 0.384408 
0.103822 0.278879 0.909511 0.577116 0.985882 
0.939519 0.732054 0.41117 0.0609582 0.299526 
0.440048 0.0617643 0.309773 0.110702 0.963237 
0.142085 0.948062 0.185706 0.426081 0.403641 
0.527264 0.0355264 0.382557 0.591489 0.593044 
0.408485 0.935423 0.417991 0.817448 0.938639 
0.497731 0.858245 0.7789 0.606758 0.213876 
0.509231 0.65435 0.943942 0.659179 0.464334 
0.883611 0.37589 0.949201 0.615165 0.931203 
0.262708 0.657323 0.732091 0.28227 0.883557 
0.157707 0.148151 0.0201973 0.3474 0.999756 
0.802736 0.125924 0.303879 0.05612 0.0802363 
0.271725 0.775665 0.736826 0.865623 0.725288 
0.654652 0.65817 0.808274 0.456749 0.107922 
0.937 0.100442 0.997628 0.960161 0.830838 
0.156572 0.256338 0.133819 0.441255 0.780841 
0.208254 0.691438 0.57125 0.750495 0.483692 
0.345636 0.13315 0.393166 0.827918 0.498888 
0.382997 0.990355 0.876679 0.761986 0.874129 
0.831806 0.844737 0.955211 0.612537 0.0188451 
0.59843 0.638925 0.81497 0.916553 0.534534 
0.405941 0.638506 0.0223355 0.42589 0.460556 
0.518763 0.120413 0.0410014 0.460967 0.361715 
0.792241 0.261242 0.642863 0.199013 0.503577 
0.146271 0.0375188 0.882735 0.97628 0.704683 
0.294183 0.961527 0.473809 0.724877 0.47266 
0.530428 0.939433 0.162684 0.143591 0.765164 
0.49316 0.648852 0.285966 0.364407 0.530497 
0.379287 0.355846 0.812717 0.208583 0.54275 
0.73914 0.122553 0.723985 0.688587 0.182701 
0.172578 0.168194 0.263077 0.807119 0.339617 
0.404708 0.0197932 0.266907 0.593151 0.413577 
0.622085 0.459071 0.216118 0.0965401 0.850934 
0.0655511 0.748837 0.127053 0.321798 0.487409 
0.292488 0.521968 0.509897 0.434931 0.424457 
0.362302 0.771403 0.59179 0.0943002 0.423647 
0.63144 0.980639 0.831734 0.347094 0.998868 
0.988255 0.72972 0.384959 0.17091 0.903667 
0.171517 0.781521 0.196497 0.0439237 0.504048 
0.97314 0.928063 0.140685 0.0185033 0.55002 
0.470155 0.920503 0.895886 0.143697 0.695427 
0.595201 0.589791 0.724717 0.828327 0.655513 
0.0255757 0.216795 0.927827 0.313549 0.281514 
0.615932 0.77778 0.851649 0.708512 0.647577 
0.667227 0.167251 0.106006 0.0127143 0.121474 
0.331007 0.881273 0.343837 0.099514 0.131098 
0.686404 0.948097 0.749978 0.883385 0.66909 
0.951671 0.0378993 0.709444 0.3717 0.903161 
0.649675 0.764802 0.425044 0.0493552 0.396972 
0.617077 0.00600145 0.604589 0.831779 0.65794 
0.0486537 0.0287926 0.444091 0.690439 0.449044 
0.762337 0.825761 0.20486 0.804811 0.0761107 
0.999015 0.46779 0.758239 0.765783 0.603144 
0.000800615 0.0428775 0.181327 0.750259 0.379679 
0.52962 0.210798 0.769846 0.620722 0.18951 
0.545389 0.330342 0.8761 0.766814 0.865179 
0.320595 0.174955 0.392626 0.247998 0.229556 
0.00902112 0.143989 0.780967 0.199063 0.468666 
0.532353 0.472109 0.607277 0.956811 0.712841 
0.712408 0.198429 0.24525 0.803972 0.320369 
0.0686322 0.792446 0.906479 0.43358 0.560701 
0.259126 0.633813 0.541486 0.287796 0.958579 
0.965268 0.800331 0.645524 0.307307 0.818912 
0.384536 0.735024 0.852943 0.489017 0.21947 
0.278144 0.707231 0.97166 0.234233 0.476426 
0.200155 0.787281 0.646559 0.729771 0.457571 
0.279169 0.469915 0.483481 0.520962 0.243284 
0.22022 0.043211 0.37974 0.736794 0.480346 
0.544261 0.685745 0.62669 0.411612 0.752611 
0.03084 0.975783 0.663186 0.964577 0.907846 
0.631458 0.889998 0.0369263 0.466897 0.0857891 
0.750497 0.493275 0.943514 0.397359 0.759329 
0.0116219 0.319677 0.406174 0.234802 0.260354 
0.871074 0.468441 0.87151 0.393018 0.720585 
0.93087 0.361917 0.888626 0.450197 0.78039 
0.518015 0.494857 0.701543 0.639876 0.4556 
0.806479 0.283084 0.363626 0.638802 0.865151 
0.822834 0.782186 0.658853 0.615858 0.819299 
0.27188 0.242472 0.592953 0.814744 0.374331 
0.604947 0.276723 0.36286 0.116697 0.871626 
0.718469 0.48151 0.266187 0.840778 0.733897 
0.80454 0.971536 0.548813 0.441429 0.966854 
0.707525 0.139505 0.748743 0.0765733 0.836379 
0.000253158 0.313852 0.246911 0.159643 0.492896 
0.441868 0.584431 0.0816193 0.466046 0.958732 
0.281686 0.144697 0.503546 0.5682 0.953066 
0.343188 0.0375211 0.0809593 0.113372 0.439015 
0.130103 0.817143 0.0583847 0.490204 0.512596 
0.576482 0.809525 0.783635 0.241713 0.746803 
0.224421 0.880164 0.165316 0.455746 0.0420493 
0.387012 0.69556 0.445107 0.641227 0.97249 
0.546135 0.293572 0.986486 0.584116 0.74209 
0.375031 0.976355 0.104219 0.280794 0.0978623 
0.625952 0.593765 0.515058 0.980384 0.11573 
0.521916 0.493565 0.422208 0.82501 0.484988 
0.0621799 0.400119 0.345081 0.685459 0.433391 
0.667163 0.0831192 0.122874 0.433911 0.751935 
0.671268 0.0220954 0.355982 0.0506825 0.0107087 
0.156272 0.975026 0.29304 0.708203 0.940547 
0.407777 0.58271 0.518897 0.676674 0.829893 
0.198106 0.987753 0.492493 0.767988 0.435619 
0.753564 0.257861 0.647953 0.089374 0.945371 
0.193918 0.60151 0.510377 0.734237 0.790845 
0.231929 0.183453 0.776176 0.651446 0.329429 
0.288443 0.0698436 0.914336 0.0351093 0.351975 
0.343356 0.428808 0.391022 0.0950233 0.269111 
0.734638 0.00267252 0.649468 0.696381 0.141354 
0.863008 0.283082 0.632693 0.0315219 0.0508783 
0.321517 0.637305 0.454604 0.668535 0.102021 
0.659474 0.753383 0.998306 0.102763 0.594829 
0.0163865 0.930314 0.475487 0.819478 0.285667 
0.930649 0.351595 0.959233 0.329084 0.245512 
0.398127 0.0940016 0.675118 0.257771 0.559803 
0.480471 0.945223 0.65063 0.667269 0.677041 
0.147047 0.702203 0.718212 0.458153 0.906042 
0.111855 0.872806 0.00578354 0.0275246 0.294504 
0.330774 0.910132 0.304292 0.630418 0.874113 
0.256931 0.146022 0.794142 0.957547 0.226862 
0.180245 0.247977 0.264324 0.0383968 0.323977 
0.888774 0.883481 0.65788 0.740433 0.672356 
0.619274 0.67564 0.798731 0.0468602 0.11668 
0.403917 0.860739 0.454423 0.706004 0.684203 
0.598703 0.412326 0.31776 0.390601 0.929043 
0.0788924 0.746279 0.607126 0.244462 0.662015 
0.940368 0.924331 0.203867 0.629814 0.747071 
0.639048 0.319126 0.219407 0.257013 0.966198 
0.808994 0.25664 0.534 0.362839 0.485718 
0.494581 0.530352 0.664116 0.622055 0.00993919 
0.124372 0.308559 0.90869 0.927446 0.990646 
0.086316 0.987528 0.287786 0.725526 0.174442 
0.916034 0.173795 0.222697 0.560686 0.758314 
0.00437188 0.171065 0.422822 0.921756 0.226972 
0.582097 0.524808 0.595859 0.125244 0.277592 
0.00517757 0.858633 0.515279 0.575797 0.545487 
0.0636127 0.621173 0.721405 0.861197 0.30918 
0.124805 0.905686 0.0453906 0.120843 0.679139 
0.218282 0.377618 0.166114 0.897271 0.0997701 
0.594472 0.310978 0.259159 0.142 0.360785 
0.251103 0.422254 0.116836 0.162572 0.518023 
0.862958 0.204135 0.302403 0.355512 0.495432 
0.136946 0.911019 0.645472 0.806371 0.748147 
0.360829 0.0994947 0.881072 0.494121 0.64628 
0.467188 0.528661 0.469266 0.109517 0.300639 
0.250322 0.24375 0.686621 0.0564072 0.473821 
0.999168 0.200905 0.395268 0.750059 0.902548 
0.575774 0.196407 0.618377 0.751417 0.00710053 
0.752317 0.0551281 0.334773 0.683982 0.0934986 
0.51664 0.742828 0.00365285 0.41793 0.0177999 
0.640035 0.361051 0.727883 0.6617 0.609532 
0.203558 0.0432942 0.998738 0.411563 0.258728 
0.785834 0.210339 0.941388 0.967681 0.326739 
0.126373 0.723863 0.696359 0.954074 0.201934 
0.841798 0.252058 0.424444 0.131836 0.0273055 
0.97119 0.708666 0.957072 0.309633 0.862151 
0.0176312 0.847834 0.147218 0.851 0.123748 
0.533822 0.0964248 0.389033 0.601874 0.93109 
0.623911 0.141038 0.350608 0.151327 0.975096 
0.622876 0.57188 0.953795 0.137447 0.244737 
0.834485 0.300305 0.751708 0.0657153 0.337966 
0.695488 0.884703 0.759263 0.624892 0.424888 
0.799211 0.327951 0.867664 0.272893 0.942046 
0.0879809 0.737383 0.393829 0.718093 0.749406 
0.219416 0.518261 0.491781 0.661803 0.813439 
0.243401 0.365163 0.699066 0.782768 0.485933 
0.0358082 0.723636 0.930168 0.523298 0.135902 
0.451895 0.128715 0.49836 0.364124 0.705759 
0.755747 0.892128 0.472235 0.274067 0.268153 
0.0954782 0.261039 0.970781 0.606586 0.851241 
0.862536 0.354731 0.32633 0.430646 0.455133 
0.895152 0.0918606 0.463832 0.839222 0.670322 
0.124098 0.447606 0.487069 0.504113 0.0665702 
0.619695 0.192029 0.439751 0.230359 0.621568 
0.449772 0.105741 0.431698 0.584455 0.942637 
0.00817287 0.125022 0.194117 0.103321 0.226891 
0.69473 0.750578 0.210196 0.800317 0.773263 
0.733549 0.351999 0.790406 0.790997 0.738287 
0.989556 0.726812 0.115321 0.473498 0.439351 
0.532162 0.0260714 0.977966 0.244701 0.4698 
0.368716 0.784341 0.852345 0.877341 0.33529 
0.298121 0.0180223 0.599254 0.0106613 0.377827 
0.305268 0.453576 0.606401 0.0523266 0.478037 
0.320455 0.440697 0.765914 0.708133 0.852334 
0.894419 0.978981 0.894066 0.555083 0.733643 
0.173577 0.146898 0.518056 0.0572396 0.046745 
0.959913 0.215276 0.0952841 0.67184 0.0208492 
0.384351 0.968657 0.487187 0.185806 0.585512 
0.724692 0.548864 0.674521 0.273763 0.994443 
0.406055 0.667186 0.027236 0.652519 0.752472 
0.396837 0.838182 0.0694015 0.43182 0.838989 
0.366826 0.234795 0.0235761 0.123262 0.861412 
0.461205 0.583803 0.0921724 0.274049 0.816591 
0.235248 0.487949 0.803152 0.131195 0.38456 
0.309615 0.433764 0.16068 0.19189 0.596309 
0.816746 0.77729 0.335723 0.497643 0.783366 
0.578793 0.344194 0.518668 0.201142 0.868464 
0.657587 0.215456 0.636633 0.520393 0.584576 
0.786456 0.498772 0.414708 0.506182 0.353762 
0.439503 0.505984 0.506575 0.00451218 0.47987 
0.518315 0.89035 0.537257 0.985576 0.493915 
0.0472266 0.287766 0.828735 0.104727 0.136286 
0.866919 0.269543 0.541906 0.557651 0.631825 
0.970532 0.180236 0.0908308 0.846351 0.345778 
0.321905 0.0162809 0.152867 0.973097 0.522904 
0.710485 0.454846 0.586099 0.200487 0.605853 
0.616791 0.635261 0.506003 0.96407 0.907998 
0.282992 0.717123 0.188375 0.0435458 0.228701 
0.568283 0.431787 0.964247 0.634467 0.103833 
0.399111 0.168288 0.698594 0.774583 0.808744 
0.619569 0.308013 0.121004 0.566847 0.714125 
0.283231 0.142768 0.103865 0.550961 0.119856 
0.243686 0.0626108 0.446125 0.494773 0.19738 
0.289934 0.372011 0.577227 0.750272 0.256667 
0.46154 0.180294 0.230913 0.179809 0.0862905 
0.563452 0.400047 0.508442 0.971178 0.945257 
0.0300983 0.756268 0.734773 0.600651 0.977377 
0.527965 0.380849 0.146106 0.316829 0.735226 
0.64834 0.471979 0.995928 0.245831 0.263833 
0.528938 0.0482773 0.630087 0.842734 0.881696 
0.577605 0.0182511 0.406423 0.273986 0.954102 
0.63648 0.190566 0.519544 0.0457923 0.937051 
0.645313 0.455322 0.926691 0.329943 0.838581 
0.789917 0.173604 0.775458 0.945599 0.891588 
0.222573 0.208487 0.863562 0.696078 0.812766 
0.420071 0.575407 0.649543 0.422664 0.409167 
0.157246 0.702664 0.441537 0.738043 0.0546199 
0.544271 0.362541 0.514314 0.626333 0.316631 
0.997881 0.0145614 0.841184 0.913019 0.611974 
0.672817 0.115289 0.776178 0.79072 0.954513 
0.440102 0.839815 0.558299 0.0677997 0.632161 
0.401393 0.562431 0.471435 0.504706 0.59296 
0.590236 0.0498527 0.786026 0.973941 0.59944 
0.677333 0.922372 0.776398 0.0992446 0.694824 
0.764301 0.548262 0.476284 0.402155 0.0739195 
0.802384 0.643391 0.819099 0.113566 0.622052 
0.373825 0.445892 0.714696 0.747481 0.691699 
0.207614 0.400383 0.350733 0.958074 0.588707 
0.51509 0.99251 0.580482 0.910911 0.895224 
0.202173 0.0367782 0.0358261 0.951833 0.331693 
0.878074 0.290508 0.077651 0.0275494 0.145589 
0.501053 0.293865 0.531365 0.201373 0.97401 
0.496168 0.0378481 0.117185 0.0830116 0.786064 
0.0751472 0.621759 0.0256231 0.825578 0.00105202 
0.621747 0.763175 0.148757 0.249262 0.935081 
0.486695 0.707201 0.942289 0.648767 0.630556 
0.385783 0.806189 0.32014 0.559766 0.509637 
0.197026 0.528871 0.467112 0.262674 0.117084 
0.580229 0.840926 0.801895 0.846827 0.490934 
0.620637 0.916311 0.990291 0.530462 0.0385935 
0.535643 0.853841 0.450459 0.111304 0.8353 
0.760909 0.707485 0.831242 0.566872 0.456582 
0.476092 0.285516 0.825014 0.651632 0.51408 
0.314309 0.952004 0.40545 0.104263 0.0490317 
0.594902 0.0235482 0.883798 0.232882 0.996749 
0.256226 0.882347 0.667609 0.493082 0.553295 
0.00334724 0.837603 0.768146 0.518368 0.170633 
0.334013 0.0455578 0.798533 0.640249 0.597141 
0.450362 0.671585 0.764962 0.523666 0.349093 
0.797043 0.357297 0.854356 0.806772 0.559844 
0.034183 0.161193 0.407758 0.256028 0.108359 
0.446746 0.238872 0.73836 0.31962 0.520391 
0.916046 0.187547 0.264135 0.0728122 0.776175 
0.558537 0.254663 0.705017 0.387829 0.297831 
0.29846 0.944286 0.187642 0.589371 0.217686 
0.54696 0.400436 0.434773 0.462017 0.37523 
0.833657 0.973628 0.33223 0.99031 0.304212 
0.123068 0.850746 0.585185 0.66208 0.837556 
0.271553 0.261712 0.321285 0.750345 0.591349 
0.431966 0.928895 0.401041 0.706368 0.986892 
0.573409 0.535222 0.0846304 0.152637 0.882237 
0.776852 0.562263 0.635841 0.205614 0.499175 
0.920713 0.127952 0.249361 0.00273163 0.405896 
0.601722 0.302767 0.300662 0.532395 0.600573 
0.723626 0.967329 0.425758 0.824302 0.168959 
0.63498 0.393282 0.609749 0.167857 0.916579 
0.270044 0.379138 0.786513 0.702689 0.222912 
0.0355212 0.106165 0.861994 0.0625528 0.0745905 
0.430286 0.651851 0.464481 0.215712 0.874793 
0.281621 0.584692 0.598563 0.454401 0.818905 
0.881 0.195888 0.400667 0.963723 0.4327 
0.0877832 0.462505 0.0298688 0.404897 0.476616 
0.292034 0.99179 0.84836 0.268889 0.388348 
0.585648 0.776477 0.583989 0.856322 0.730663 
0.227234 0.700482 0.265535 0.508692 0.0765051 
0.942107 0.486088 0.266204 0.195762 0.560771 
0.111186 0.0171607 0.884263 0.2676 0.925823 
0.945359 0.22204 0.255409 0.808879 0.157751 
0.0644155 0.875413 0.967879 0.070454 0.0177542 
0.314147 0.00615017 0.406868 0.77266 0.549557 
0.0477656 0.0681648 0.713259 0.329663 0.734708 
0.019686 0.833625 0.914739 0.869529 0.756493 
0.528872 0.272421 0.941975 0.887434 0.925293 
0.744448 0.416495 0.24934 0.891338 0.23108 
0.131422 0.25518 0.000458186 0.369517 0.720739 
0.487629 0.918808 0.372116 0.973675 0.163227 
0.172997 0.932639 0.703051 0.566892 0.227259 
0.686454 0.482856 0.592113 0.144673 0.623513 
0.511394 0.661451 0.81523 0.21305 0.252016 
0.893443 0.019297 0.467967 0.266643 0.285258 
0.709421 0.470887 0.535478 0.468877 0.138493 
0.824465 0.529166 0.560609 0.966726 0.810349 
0.673497 0.0533659 0.186052 0.489686 0.808448 
0.756866 0.57275 0.501442 0.280087 0.201589 
0.172989 0.328907 0.698421 0.342522 0.579604 
0.100163 0.802833 0.920097 0.137464 0.391461 
0.585962 0.198273 0.835964 0.287768 0.360119 
0.639932 0.108137 0.413855 0.742629 0.52889 
0.994905 0.681109 0.520706 0.197826 0.866139 
0.285765 0.836508 0.147953 0.0905707 0.370641 
0.235274 0.843176 0.0363306 0.434601 0.312394 
0.299607 0.587202 0.293457 0.339645 0.197552 
0.795704 0.126026 0.0498616 0.299106 0.195393 
0.205402 0.412852 0.70201 0.915817 0.555639 
0.0852293 0.748656 0.977484 0.0136942 0.687513 
0.672989 0.582032 0.84902 0.357032 0.161161 
0.94623 0.858929 0.631336 0.374633 0.230721 
0.268673 0.530095 0.488197 0.659826 0.531277 
0.157288 0.949526 0.503938 0.241266 0.781319 
0.767635 0.167136 0.866653 0.0394591 0.597512 
0.784624 0.748889 0.201734 0.481768 0.988547 
0.981385 0.192486 0.983354 0.0751165 0.69041 
0.215306 0.726351 0.92367 0.157339 0.0478 
0.297119 0.646834 0.486949 0.0879571 0.0304512 
0.39689 0.838985 0.968723 0.380496 0.771474 
0.749594 0.391072 0.558638 0.419269 0.795051 
0.717162 0.424826 0.23512 0.816537 0.396717 
0.176725 0.626748 0.290984 0.242473 0.811314 
0.697548 0.555568 0.428024 0.737094 0.955131 
0.131158 0.93811 0.82221 0.620881 0.645075 
0.356619 0.0904361 0.694851 0.990532 0.0194735 
0.977277 0.269113 0.619334 0.981302 0.0609585 
0.841656 0.794942 0.081027 0.570479 0.0912682 
0.632116 0.350568 0.869684 0.127616 0.172412 
0.233029 0.797679 0.67076 0.625266 0.305193 
0.45288 0.640121 0.035671 0.862344 0.338445 
0.893643 0.667784 0.429616 0.150658 0.0410496 
0.743292 0.88746 0.158281 0.808725 0.356392 
0.152482 0.045382 0.680085 0.875866 0.185063 
0.484379 0.810322 0.452211 0.947568 0.529491 
0.233726 0.780945 0.612401 0.536127 0.394014 
0.149903 0.319642 0.497036 0.575002 0.581237 
0.426552 0.787279 0.923573 0.291096 0.649614 
0.541697 0.768463 0.942425 0.0020855 0.492817 
0.406802 0.00112412 0.834573 0.325949 0.377543 
0.458469 0.48504 0.70327 0.238179 0.629657 
0.45014 0.228689 0.894257 0.175565 0.300252 
0.176065 0.32141 0.568844 0.100781 0.209526 
0.154374 0.322531 0.515499 0.266733 0.545866 
0.896774 0.0535485 0.445757 0.542364 0.297258 
0.673366 0.220393 0.318945 0.317445 0.721563 
0.175268 0.0861404 0.123009 0.380959 0.370063 
0.145382 0.161845 0.0334217 0.600442 0.713384 
0.635403 0.45068 0.181403 0.424034 0.581216 
0.876193 0.054128 0.226955 0.845774 0.430615 
0.943584 0.783699 0.707456 0.359745 0.0524656 
0.258013 0.708614 0.330789 0.834926 0.221481 
0.150269 0.854978 0.329604 0.806724 0.451787 
0.427134 0.775993 0.485711 0.863638 0.221392 
0.577923 0.601786 0.0962423 0.94557 0.0411009 
0.817933 0.237248 0.281465 0.108654 0.494142 
0.821806 0.215534 0.420856 0.447399 0.688201 
0.41264 0.335789 0.836045 0.704852 0.19274 
0.625946 0.220688 0.0103537 0.233799 0.180537 
0.18125 0.525087 0.916755 0.865182 0.150492 
0.605331 0.389183 0.0606789 0.537596 0.773576 
0.971156 0.53432 0.23496 0.6526 0.462454 
0.442664 0.940416 0.718833 0.798097 0.587555 
0.417113 0.159173 0.46475 0.698106 0.750424 
0.961789 0.345772 0.465937 0.949017 0.839966 
0.266866 0.462976 0.731341 0.0466328 0.429322 
0.897579 0.440201 0.535291 0.496944 0.929075 
0.834361 0.26385 0.0646516 0.909313 0.314202 
0.384282 0.0827494 0.762257 0.235116 0.568144 
0.698522 0.677707 0.634719 0.03789 0.625356 
0.963742 0.308379 0.666698 0.611757 0.929407 
0.738069 0.458269 0.0668964 0.125382 0.327927 
0.627984 0.472399 0.488319 0.32361 0.0831579 
0.141066 0.425922 0.0183626 0.972609 0.525209 
0.916164 0.25006 0.0487355 0.102959 0.467673 
0.714428 0.684425 0.952223 0.949504 0.0276401 
0.385634 0.785557 0.897299 0.973469 0.203232 
0.069583 0.649572 0.23015 0.0561302 0.0646114 
0.646267 0.746375 0.164869 0.893781 0.854324 
0.517998 0.49427 0.603086 0.448924 0.710263 
0.756499 0.365491 0.961538 0.12113 0.315088 
0.724819 0.809281 0.606307 0.788999 0.5657 
0.301963 0.578781 0.206641 0.340279 0.53062 
0.000526273 0.70973 0.735406 0.846754 0.708369 
0.55343 0.188243 0.280509 0.876197 0.92057 
0.636435 0.866855 0.46904 0.335306 0.738959 
0.976497 0.184893 0.402681 0.24866 0.836627 
0.173237 0.615393 0.835147 0.519281 0.430371 
0.693268 0.455634 0.826303 0.402054 0.308087 
0.413629 0.34226 0.862756 0.592825 0.0366843 
0.467845 0.0996165 0.0246438 0.00480365 0.687464 
0.342103 0.818772 0.938411 0.889428 0.234127 
0.000763706 0.898614 0.450353 0.484888 0.745261 
0.736706 0.319362 0.46097 0.514653 0.0198754 
0.629956 0.708588 0.821602 0.368797 0.641947 
0.0140243 0.588784 0.076022 0.847295 0.439623 
0.885428 0.379908 0.91088 0.675236 0.842873 
0.117839 0.49636 0.739786 0.534342 0.607131 
0.52708 0.608064 0.100836 0.35296 0.64423 
0.472053 0.367483 0.938811 0.43684 0.998925 
0.149022 0.792248 0.713147 0.235271 0.941942 
0.497963 0.105229 0.949207 0.56655 0.333314 
0.999471 0.605241 0.883854 0.761146 0.8089 
0.623229 0.333477 0.242459 0.157395 0.313284 
0.146158 0.764663 0.112455 0.728599 0.81332 
0.366124 0.097388 0.863747 0.619422 0.313856 
0.843879 0.626026 0.474204 0.800647 0.929955 
0.825078 0.911471 0.303642 0.348701 0.623355 
0.910682 0.743004 0.395349 0.632939 0.695788 
0.100557 0.448241 0.8319 0.41284 0.889168 
0.549089 0.459977 0.778527 0.721156 0.72344 
0.512182 0.765894 0.182578 0.094458 0.166633 
0.446093 0.759667 0.415995 0.0353274 0.449643 
0.252181 0.373656 0.83292 0.484478 0.841442 
0.569438 0.684152 0.992082 0.777641 0.969592 
0.960047 0.354955 0.769082 0.278794 0.0438118 
0.608479 0.878398 0.279707 0.317422 0.456913 
0.939355 0.975515 0.147633 0.644034 0.225455 
