2200 5
0.637072 0.557258 0.335829 0.593434 0.467521 
0.21028 0.593438 0.682641 0.261812 0.447121 
0.495521 0.456306 0.310859 0.859788 0.430631 
0.530129 0.15279 0.980507 0.528568 0.655004 
0.194295 0.732624 0.451452 0.608267 0.848085 
0.359067 0.700234 0.864285 0.0682946 0.394432 
0.160999 0.139532 0.797492 0.414381 0.518292 
0.663679 0.226181 0.228285 0.888276 0.39078 
0.776417 0.177207 0.867278 0.938109 0.0538862 
0.504681 0.716121 0.842991 0.345052 0.469359 
0.375695 0.902945 0.401133 0.228689 0.523592 
0.74485 0.593587 0.274213 0.478269 0.218427 
0.49964 0.130114 0.556427 0.727595 0.26376 
0.110105 0.653791 0.853359 0.092756 0.412884 
0.963512 0.449695 0.460716 0.277386 0.872594 
0.41007 0.332893 0.853533 0.830247 0.0730898 
0.557833 0.407816 0.123264 0.339374 0.0515006 
0.511663 0.186578 0.381598 0.310219 0.839603 
0.146402 0.53682 0.862329 0.387244 0.865712 
0.510809 0.462184 0.302324 0.945957 0.903976 
0.347896 0.819155 0.499649 0.169679 0.491757 
0.848618 0.757303 0.134083 0.18386 0.946531 
0.75089 0.160895 0.0811539 0.570965 0.19376 
0.819953 0.531766 0.413081 0.939881 0.919525 
0.359862 0.808201 0.0103982 0.742466 0.674363 
0.439734 0.048989 0.934513 0.298207 0.46436 
0.995248 0.801951 0.753333 0.929165 0.897717 
0.652985 0.139866 0.356447 0.864045 0.0311552 
0.167189 0.374238 0.563287 0.880277 0.418424 
0.321408 0.779056 0.248559 0.512097 0.846329 
0.0780188 0.722263 0.35566 0.774985 0.109797 
0.240873 0.820216 0.515405 0.00554455 0.968061 
0.826905 0.0552787 0.983359 0.461455 0.52157 
0.0551256 0.899408 0.0957812 0.697821 0.755151 
0.960712 0.940285 0.277205 0.589768 0.552199 
0.878277 0.697555 0.212389 0.146735 0.234395 
0.0799286 0.29761 0.194865 0.289499 0.325896 
0.300892 0.8897 0.271095 0.671124 0.604976 
0.343066 0.0845878 0.07787 0.245084 0.626756 
0.75802 0.955462 0.773184 0.643346 0.423751 
0.742486 0.938932 0.928176 0.980262 0.383553 
0.693698 0.838174 0.667698 0.456679 0.156306 
0.564794 0.10932 0.902423 0.268932 0.0147932 
0.648273 0.381321 0.669663 0.255272 0.597235 
0.290793 0.276189 0.265396 0.240517 0.832451 
0.372734 0.713924 0.441955 0.575031 0.388074 
0.665747 0.460019 0.606311 0.796524 0.750149 
0.356449 0.409015 0.0798634 0.678605 0.845919 
0.994073 0.87407 0.0146802 0.144117 0.443154 
0.735085 0.872083 0.334028 0.300422 0.236044 
0.197794 0.710457 0.496208 0.215859 0.806659 
0.200608 0.846634 0.171964 0.939013 0.158642 
0.175698 0.445072 0.807509 0.919325 0.901857 
0.318335 0.473175 0.515987 0.963483 0.169515 
0.17974 0.387697 0.614626 0.803555 0.722641 
0.617895 0.245144 0.62595 0.256605 0.0779614 
0.619843 0.0172695 0.171625 0.948538 0.692064 
0.329576 0.621758 0.609463 0.888438 0.38891 
0.630874 0.196582 0.429097 0.540292 0.0332194 
0.471493 0.301406 0.943465 0.977225 0.480056 
0.18993 0.907708 0.0290471 0.742829 0.316795 
0.987167 0.00385349 0.0883427 0.696434 0.635732 
0.231748 0.0148596 0.249241 0.71658 0.958093 
0.986885 0.277513 0.867394 0.639819 0.818654 
0.338344 0.503515 0.0343587 0.86986 0.841859 
0.782305 0.26401 0.677434 0.661219 0.36301 
0.474146 0.651983 0.214666 0.323677 0.147436 
0.0839012 0.234568 0.0515324 0.321282 0.586012 
0.43648 0.850487 0.99832 0.164819 0.138318 
0.21725 0.326821 0.0690466 0.613478 0.843514 
0.805874 0.260202 0.74307 0.362572 0.189437 
0.437231 0.0697904 0.120268 0.912896 0.749822 
0.266733 0.0167977 0.18749 0.55112 0.30685 
0.404738 0.891679 0.241558 0.690092 0.323942 
0.475016 0.83826 0.562355 0.0556253 0.976649 
0.54438 0.641401 0.100027 0.406205 0.384203 
0.582434 0.67362 0.264826 0.16975 0.807546 
0.360021 0.212958 0.159466 0.735462 0.458553 
0.0964385 0.257339 0.889428 0.805589 0.258604 
0.962624 0.199225 0.33045 0.644651 0.139356 
0.209118 0.641521 0.938589 0.689432 0.78907 
0.83976 0.48043 0.288498 0.370447 0.272199 
0.984631 0.207795 0.0273479 0.937257 0.824827 
0.170388 0.228921 0.395166 0.815159 0.686133 
0.988505 0.571447 0.260745 0.58894 0.715699 
0.445746 0.578913 0.876082 0.187354 0.537419 
0.171469 0.249427 0.480571 0.915097 0.358371 
0.847842 0.35596 0.522011 0.126972 0.421233 
0.226018 0.381186 0.86015 0.428135 0.156423 
0.713696 0.4678 0.862161 0.62399 0.521684 
0.194015 0.175628 0.000556882 0.200543 0.024956 
0.217453 0.268056 0.706426 0.69149 0.0181098 
0.0794848 0.991259 0.980156 0.0746313 0.102052 
0.891171 0.837778 0.781246 0.777023 0.344708 
0.429248 0.261096 0.126812 0.347321 0.777456 
0.391684 0.16273 0.323582 0.54087 0.204861 
0.348778 0.498564 0.437902 0.533306 0.77444 
0.185592 0.271703 0.777033 0.188468 0.25758 
0.756148 0.452652 0.669056 0.653453 0.618956 
0.83755 0.56542 0.150211 0.784063 0.0240819 
0.0498983 0.517849 0.449156 0.180607 0.390703 
0.147489 0.611333 0.516144 0.23493 0.255411 
0.971772 0.909093 0.244267 0.00637891 0.026429 
0.128848 0.256686 0.364257 0.025386 0.152228 
0.641242 0.171147 0.823568 0.737108 0.530711 
0.388237 0.80692 0.43993 0.241743 0.95399 
0.506013 0.0369378 0.934628 0.378166 0.306334 
0.962034 0.895553 0.471121 0.4922 0.899832 
0.777409 0.753169 0.47162 0.805339 0.155257 
0.0613401 0.193755 0.324122 0.738951 0.0103314 
0.745515 0.736431 0.783144 0.745421 0.546281 
0.182287 0.34835 0.325333 0.535484 0.876476 
0.21635 0.189656 0.209024 0.720097 0.752809 
0.336834 0.627724 0.456504 0.0758267 0.363728 
0.4119 0.0030417 0.714956 0.909027 0.118123 
0.856462 0.590326 0.658645 0.441007 0.771248 
0.817098 0.130526 0.382747 0.67196 0.918187 
0.728095 0.951869 0.0697139 0.666832 0.830957 
0.60048 0.0902128 0.672789 0.43189 0.209712 
0.0190452 0.935036 0.131077 0.32832 0.290335 
0.800003 0.849019 0.892497 0.470836 0.948067 
0.475031 0.650348 0.807036 0.508754 0.381044 
0.952112 0.858118 0.180593 0.478684 0.592267 
0.725065 0.839058 0.0791147 0.15466 0.368629 
0.630107 0.458253 0.253948 0.31394 0.725168 
0.935408 0.892142 0.318292 0.834577 0.19113 
0.88199 0.241295 0.932988 0.76648 0.386602 
0.075196 0.612784 0.681258 0.152628 0.312097 
0.755275 0.860322 0.241352 0.24965 0.862875 
0.341769 0.339691 0.18614 0.443577 0.644817 
0.384785 0.165262 0.706139 0.403477 0.964698 
0.799309 0.292206 0.90332 0.973644 0.697276 
0.168355 0.610036 0.854954 0.0337622 0.399686 
0.119954 0.0532308 0.685965 0.242884 0.981978 
0.290844 0.457009 0.383016 0.555321 0.894513 
0.0209087 0.871602 0.0876268 0.906095 0.640355 
0.329402 0.201022 0.575529 0.276933 0.801136 
0.248039 0.549874 0.0204194 0.196269 0.697409 
0.839628 0.816166 0.132591 0.711525 0.62753 
0.807254 0.740013 0.127837 0.655321 0.922105 
0.489861 0.241661 0.666943 0.296088 0.49792 
0.239743 0.788116 0.230691 0.661319 0.990605 
0.297678 0.604842 0.979607 0.13023 0.150472 
0.00611282 0.953762 0.773738 0.254475 0.753934 
0.733687 0.0174122 0.624619 0.892531 0.0208215 
0.937852 0.75758 0.12745 0.733135 0.181179 
0.665256 0.0416732 0.114302 0.0620414 0.174361 
0.33977 0.425258 0.768557 0.616052 0.0915895 
0.925989 0.022783 0.436497 0.997668 0.812414 
0.46672 0.104969 0.624709 0.735041 0.884672 
0.385532 0.445222 0.594902 0.504783 0.502767 
0.955961 0.338935 0.0106143 0.487459 0.0230974 
0.230741 0.862 0.754997 0.45159 0.0442274 
0.587717 0.343482 0.654601 0.750555 0.65592 
0.996854 0.326475 0.542932 0.142031 0.329661 
0.0421277 0.792907 0.465542 0.60742 0.883926 
0.223571 0.760785 0.442386 0.979494 0.933557 
0.842108 0.830811 0.058491 0.215434 0.496668 
0.38779 0.487156 0.176828 0.683529 0.575823 
0.556563 0.832275 0.835152 0.389446 0.69775 
0.782762 0.145319 0.118089 0.335288 0.490083 
0.800386 0.379791 0.825419 0.207132 0.128966 
0.971771 0.0089191 0.913125 0.399163 0.698494 
0.328236 0.174725 0.269461 0.684687 0.277702 
0.471136 0.390433 0.285303 0.980963 0.358592 
0.254217 0.84436 0.832109 0.0852841 0.119819 
0.574441 0.650955 0.00679198 0.878665 0.783504 
0.829746 0.368121 0.462779 0.670297 0.880698 
0.281705 0.898251 0.22058 0.919288 0.0941559 
0.741862 0.473188 0.918334 0.265405 0.292035 
0.969504 0.687909 0.890405 0.84119 0.528359 
0.419761 0.285059 0.337502 0.618858 0.444716 
0.686595 0.706241 0.854838 0.110359 0.932811 
0.842592 0.115503 0.764867 0.108144 0.823095 
0.69851 0.903087 0.630098 0.81464 0.620602 
0.90883 0.233803 0.683879 0.707713 0.0453602 
0.975172 0.197458 0.00469248 0.131095 0.686018 
0.0538282 0.100712 0.839675 0.164291 0.918949 
0.486348 0.0530242 0.0146034 0.751219 0.194277 
0.907412 0.732479 0.497217 0.544097 0.222319 
0.116589 0.548075 0.397274 0.884155 0.371828 
0.77404 0.444694 0.521229 0.166613 0.792062 
0.44165 0.601211 0.0488359 0.22405 0.379149 
0.0133356 0.0515587 0.956327 0.261906 0.315311 
0.308291 0.956327 0.177607 0.965124 0.263829 
0.813541 0.089385 0.591129 0.393339 0.413911 
0.223385 0.883684 0.0612186 0.048647 0.408291 
0.114102 0.781104 0.171409 0.214127 0.219909 
0.285836 0.421513 0.611446 0.251112 0.406042 
0.624844 0.278845 0.0796326 0.153284 0.792653 
0.293332 0.560845 0.136607 0.424164 0.49714 
0.84465 0.956979 0.360261 0.447142 0.738223 
0.127201 0.404614 0.473642 0.781762 0.559548 
0.0208682 0.766223 0.0787209 0.0429025 0.526494 
0.0490205 0.521568 0.858442 0.867927 0.175503 
0.183994 0.385567 0.891676 0.628117 0.503849 
0.483623 0.981918 0.227881 0.83615 0.210235 
0.799583 0.00150222 0.284134 0.00195736 0.903793 
0.310799 0.439713 0.259133 0.888473 0.127286 
0.939574 0.612095 0.0776333 0.483926 0.177922 
0.421481 0.413252 0.444422 0.0359168 0.159345 
0.653342 0.612943 0.257831 0.634023 0.722776 
0.388234 0.319762 0.271102 0.681233 0.604355 
0.281194 0.856167 0.342785 0.681805 0.846633 
0.136947 0.344374 0.509264 0.919007 0.138071 
0.46002 0.837533 0.780225 0.491775 0.0242659 
0.12226 0.182876 0.537647 0.674626 0.344956 
0.664421 0.888632 0.169504 0.324206 0.0990268 
0.958939 0.647397 0.707357 0.613488 0.604702 
0.410286 0.922502 0.76836 0.524529 0.681157 
0.834992 0.572457 0.831314 0.143283 0.0258089 
0.361313 0.40966 0.925054 0.923289 0.215707 
0.262459 0.262997 0.329906 0.020935 0.874921 
0.583521 0.754396 0.730186 0.311903 0.776171 
0.975838 0.739186 0.639514 0.867642 0.570672 
0.317304 0.751195 0.937714 0.304608 0.539759 
0.392231 0.00626265 0.230843 0.496047 0.320683 
0.751695 0.500906 0.232015 0.483146 0.583523 
0.476125 0.847684 0.66719 0.663651 0.82486 
0.702637 0.620133 0.335432 0.427605 0.851706 
0.89317 0.987253 0.828257 0.995365 0.213328 
0.710418 0.710513 0.412121 0.635664 0.914779 
0.664501 0.862414 0.101209 0.292214 0.92036 
0.460017 0.49945 0.440418 0.581074 0.367261 
0.160352 0.877326 0.580408 0.682251 0.262673 
0.846543 0.416976 0.000843337 0.723954 0.941249 
0.153151 0.222691 0.234713 0.545698 0.115905 
0.374943 0.770912 0.414832 0.387871 0.420595 
0.994397 0.330267 0.614346 0.275253 0.984235 
0.475007 0.639802 0.247105 0.821452 0.774996 
0.690941 0.440754 0.989332 0.0500934 0.130791 
0.459085 0.350593 0.571721 0.262351 0.725038 
0.221358 0.90805 0.791656 0.891865 0.554824 
0.866668 0.956332 0.680498 0.107577 0.421367 
0.631041 0.840958 0.474094 0.51169 0.582333 
0.604076 0.72412 0.263903 0.165188 0.202064 
0.0851178 0.765997 0.0037759 0.533625 0.406373 
0.566486 0.945162 0.839288 0.10416 0.205184 
0.81249 0.653349 0.884262 0.346311 0.513278 
0.492202 0.108492 0.212247 0.0365885 0.406337 
0.220729 0.58842 0.68241 0.390505 0.590231 
0.143509 0.241464 0.803617 0.774833 0.534365 
0.0792198 0.0683816 0.585024 0.294716 0.942921 
0.797426 0.608703 0.303775 0.218521 0.572503 
0.741034 0.518399 0.63529 0.336065 0.153565 
0.820036 0.0990172 0.7928 0.518124 0.137667 
0.0748317 0.482424 0.742266 0.238668 0.362179 
0.0363577 0.724469 0.930908 0.240991 0.0546367 
0.295469 0.744693 0.577503 0.765792 0.458421 
0.0257119 0.329296 0.53865 0.756881 0.377079 
0.95594 0.363349 0.457814 0.773354 0.792774 
0.260974 0.0983429 0.787049 0.4818 0.0149728 
0.849761 0.386333 0.468479 0.689372 0.96806 
0.994915 0.908802 0.967187 0.153685 0.453073 
0.501998 0.329619 0.491161 0.400417 0.782522 
0.869193 0.186287 0.492763 0.856243 0.724221 
0.334885 0.8917 0.520757 0.200559 0.580175 
0.127626 0.388091 0.324404 0.39386 0.31117 
0.0719718 0.055776 0.0910667 0.295225 0.242058 
0.460237 0.0707835 0.103051 0.601831 0.571635 
0.448427 0.622835 0.684021 0.151948 0.20495 
0.833703 0.190359 0.505046 0.538819 0.800249 
0.716893 0.385448 0.240463 0.421429 0.113793 
0.606345 0.238822 0.766816 0.600625 0.426517 
0.529041 0.456312 0.579865 0.647471 0.0705336 
0.743292 0.173958 0.713163 0.469949 0.40396 
0.584387 0.347026 0.222417 0.701296 0.859905 
0.527052 0.563988 0.053842 0.38024 0.330176 
0.982 0.565185 0.855842 0.269437 0.343684 
0.52006 0.228992 0.322745 0.707672 0.715577 
0.561328 0.588545 0.802401 0.626455 0.478178 
0.424142 0.342693 0.260842 0.983608 0.822151 
0.901387 0.759096 0.162996 0.912845 0.761407 
0.66186 0.260274 0.77221 0.511174 0.779752 
0.155213 0.966602 0.102627 0.298858 0.00267135 
0.271237 0.631398 0.168292 0.7215 0.456831 
0.526515 0.74999 0.828694 0.797137 0.403655 
0.894699 0.0136435 0.316237 0.566476 0.807254 
0.389845 0.407942 0.737322 0.885896 0.0468073 
0.281258 0.489969 0.710587 0.21792 0.834666 
0.831244 0.0505047 0.902521 0.77044 0.441118 
0.292899 0.30752 0.0849446 0.000264293 0.181747 
0.229374 0.135378 0.546559 0.0709157 0.503514 
0.441551 0.156136 0.911099 0.380605 0.28485 
0.735559 0.518021 0.707163 0.104179 0.406523 
0.512328 0.808827 0.0308094 0.45364 0.96764 
0.0931682 0.35874 0.490079 0.820619 0.977934 
0.742578 0.895707 0.656046 0.160106 0.0145321 
0.051677 0.651339 0.606605 0.390618 0.547845 
0.165138 0.741269 0.570996 0.102595 0.790333 
0.0275515 0.791072 0.510346 0.830192 0.107612 
0.506556 0.0143888 0.0812267 0.0252973 0.730022 
0.215198 0.602212 0.68746 0.241169 0.312959 
0.202602 0.256683 0.560109 0.660111 0.930969 
0.851758 0.725198 0.888985 0.806746 0.198816 
0.463835 0.0752319 0.971834 0.608205 0.584322 
0.710917 0.266755 0.693267 0.949929 0.968545 
0.358365 0.256605 0.997894 0.557057 0.107699 
0.426988 0.472834 0.470005 0.158194 0.544283 
0.258899 0.310655 0.440436 0.320105 0.0445885 
0.582927 0.943155 0.832292 0.318119 0.372956 
0.767626 0.0240963 0.399443 0.207134 0.452095 
0.535176 0.897258 0.375826 0.368415 0.0516258 
0.443334 0.179213 0.692799 0.603874 0.394157 
0.316217 0.573862 0.503568 0.660837 0.264049 
0.468964 0.0762569 0.190026 0.151993 0.531071 
0.987254 0.929185 0.0856225 0.945911 0.10133 
0.28748 0.940374 0.920501 0.0694482 0.132179 
0.122348 0.518901 0.0928695 0.274237 0.724288 
0.866599 0.918118 0.943491 0.604169 0.531809 
0.461664 0.0949684 0.18198 0.00502697 0.0826543 
0.954449 0.773591 0.848941 0.78496 0.270199 
0.631283 0.965973 0.315729 0.236245 0.357827 
0.32266 0.846031 0.408576 0.77073 0.244458 
0.85066 0.479791 0.206673 0.210966 0.831874 
0.986333 0.918917 0.499067 0.189626 0.00349349 
0.000941652 0.235744 0.366293 0.112131 0.717122 
0.484782 0.111399 0.365133 0.99317 0.670297 
0.13693 0.883517 0.186559 0.626569 0.663892 
0.848242 0.00193337 0.491137 0.526023 0.915483 
0.206651 0.854495 0.520576 0.83528 0.857092 
0.850687 0.158722 0.102781 0.107818 0.967931 
0.0495931 0.649186 0.800319 0.0653011 0.898168 
0.00601669 0.626664 0.380262 0.0773795 0.0888078 
0.0664833 0.886995 0.751681 0.999975 0.00280423 
0.246302 0.763711 0.771298 0.789512 0.796245 
0.707834 0.891983 0.789612 0.982656 0.112904 
0.822183 0.966985 0.725078 0.778328 0.932186 
0.911469 0.446661 0.185439 0.742089 0.242642 
0.209035 0.0796966 0.766676 0.0226483 0.418796 
0.133577 0.0628294 0.496983 0.532736 0.814873 
0.910625 0.380929 0.789108 0.203049 0.615942 
0.682438 0.55794 0.720023 0.587182 0.610708 
0.549347 0.881238 0.999926 0.400993 0.450727 
0.390568 0.758865 0.952783 0.0420056 0.983787 
0.544084 0.167501 0.502151 0.821643 0.423841 
0.868214 0.52312 0.710816 0.844577 0.945314 
0.450536 0.773213 0.508087 0.249523 0.144698 
0.907844 0.0455241 0.657789 0.0207304 0.249014 
0.199515 0.434819 0.0803502 0.249647 0.129661 
0.827384 0.138898 0.11966 0.0971817 0.950972 
0.452561 0.598967 0.478654 0.980463 0.0692111 
0.639943 0.249369 0.765175 0.107278 0.553986 
0.13218 0.282295 0.122299 0.984289 0.785134 
0.349367 0.0174929 0.860632 0.316924 0.0857738 
0.544444 0.950735 0.535119 0.0521989 0.919748 
0.288038 0.133685 0.156381 0.406171 0.799241 
0.774943 0.244272 0.943889 0.798703 0.413887 
0.132666 0.950843 0.64287 0.13443 0.997362 
0.31319 0.358639 0.0861969 0.115564 0.304863 
0.398921 0.168403 0.484263 0.548582 0.796596 
0.986868 0.0770935 0.776864 0.697309 0.987209 
0.114857 0.658813 0.934275 0.281647 0.961284 
0.328719 0.533411 0.969446 0.10637 0.214334 
0.117115 0.800923 0.144169 0.0491539 0.0224475 
0.368627 0.8374 0.24515 0.197004 0.574743 
0.0675048 0.11941 0.226869 0.30534 0.909333 
0.43901 0.88993 0.569129 0.992088 0.501039 
0.567733 0.292314 0.29377 0.57274 0.472139 
0.249572 0.587078 0.34317 0.31455 0.361373 
0.913414 0.851537 0.5075 0.92556 0.536309 
0.00499057 0.202275 0.351439 0.319983 0.0608983 
0.00694044 0.53663 0.442724 0.829373 0.113807 
0.420187 0.657703 0.0195895 0.90181 0.81731 
0.799071 0.535427 0.421763 0.534507 0.00943108 
0.520396 0.6168 0.664877 0.91446 0.737942 
0.764516 0.488809 0.175325 0.931649 0.245612 
0.240687 0.676541 0.625298 0.40077 0.458442 
0.747661 0.609495 0.345683 0.980528 0.0185232 
0.454876 0.990367 0.0715988 0.453522 0.13976 
0.826411 0.440834 0.28078 0.413338 0.981889 
0.245148 0.945143 0.698063 0.877787 0.356887 
0.729355 0.550061 0.0930678 0.571315 0.691223 
0.47148 0.867199 0.971746 0.166077 0.05692 
0.93758 0.186961 0.384706 0.0242832 0.0603952 
0.432344 0.858282 0.0543688 0.148911 0.0684597 
0.806233 0.0870444 0.853408 0.077835 0.911618 
0.87237 0.23125 0.488372 0.522764 0.993232 
0.909083 0.921946 0.447473 0.626849 0.0884812 
0.399812 0.283798 0.13405 0.391613 0.471756 
0.943504 0.201315 0.777374 0.192712 0.920939 
0.957342 0.539815 0.271481 0.764995 0.14571 
0.397119 0.730214 0.764443 0.954551 0.0431383 
0.613814 0.396025 0.740639 0.0525113 0.992755 
0.152488 0.256082 0.803768 0.325444 0.580878 
0.104816 0.594132 0.828564 0.116068 0.889309 
0.688247 0.876447 0.163246 0.702048 0.611314 
0.203398 0.374354 0.199114 0.91594 0.337382 
0.185391 0.335112 0.342786 0.134083 0.558465 
0.0354596 0.936751 0.175659 0.988572 0.507151 
0.510635 0.665838 0.438131 0.0298757 0.713515 
0.1066 0.824518 0.291792 0.788715 0.48501 
0.407829 0.098151 0.315046 0.668792 0.296829 
0.225866 0.677181 0.168137 0.577176 0.420181 
0.601523 0.567645 0.521253 0.356072 0.888946 
0.00658491 0.0575104 0.171318 0.97969 0.605419 
0.255657 0.963445 0.727763 0.00359216 0.609666 
0.24969 0.385101 0.295414 0.889328 0.358617 
0.888753 0.839217 0.225045 0.497493 0.947893 
0.362174 0.362361 0.67066 0.811747 0.723194 
0.638152 0.199913 0.106501 0.772738 0.63821 
0.826208 0.483703 0.368184 0.130357 0.848884 
0.247267 0.126427 0.828256 0.972443 0.747907 
0.251309 0.265957 0.562981 0.247374 0.631347 
0.603353 0.616363 0.222718 0.785476 0.833756 
0.248724 0.745189 0.481514 0.522043 0.474088 
0.539381 0.0790662 0.469771 0.794104 0.70595 
0.528835 0.792474 0.592795 0.754118 0.203746 
0.861179 0.0928643 0.711935 0.0131414 0.0850499 
0.910457 0.165617 0.248909 0.39802 0.386444 
0.906512 0.232589 0.372476 0.806865 0.776522 
0.209904 0.116305 0.568908 0.444494 0.212407 
0.196427 0.665438 0.642247 0.357709 0.49887 
0.325442 0.170889 0.347747 0.828613 0.481148 
0.752754 0.954421 0.558758 0.0184499 0.333437 
0.27139 0.235776 0.76273 0.764572 0.544399 
0.888677 0.883337 0.400095 0.727787 0.957386 
0.447976 0.0518906 0.0326227 0.115879 0.547906 
0.273153 0.930491 0.453871 0.199513 0.00546373 
0.64211 0.738603 0.989789 0.806808 0.239011 
0.471133 0.314679 0.672572 0.692816 0.103673 
0.190998 0.885095 0.57928 0.154044 0.100879 
0.535799 0.746884 0.512416 0.0135905 0.891833 
0.932065 0.591392 0.070904 0.995144 0.255521 
0.429478 0.466915 0.669117 0.36837 0.27494 
0.608333 0.795902 0.167245 0.909162 0.441518 
0.208613 0.634344 0.860605 0.945027 0.216361 
0.507915 0.743434 0.260374 0.657692 0.223935 
0.18699 0.100819 0.451892 0.313559 0.303699 
0.678558 0.985227 0.871031 0.547943 0.339197 
0.667252 0.196981 0.535572 0.544471 0.151556 
0.423629 0.439217 0.826459 0.410335 0.951698 
0.888826 0.887715 0.821437 0.301261 0.934732 
0.779531 0.693624 0.884136 0.789323 0.4831 
0.601433 0.124303 0.599906 0.105823 0.465929 
0.684171 0.145288 0.469836 0.267926 0.189533 
0.824816 0.601393 0.600292 0.604815 0.463334 
0.961194 0.773169 0.889914 0.681647 0.650141 
0.762648 0.650088 0.479608 0.705662 0.399657 
0.888488 0.70645 0.245903 0.920211 0.72881 
0.279795 0.271669 0.746567 0.489249 0.726105 
0.0291721 0.967923 0.0695589 0.71035 0.824551 
0.471657 0.910225 0.915988 0.321831 0.582212 
0.53074 0.571458 0.0949075 0.844482 0.79586 
0.928423 0.994044 0.925485 0.183092 0.638234 
0.99626 0.984559 0.458268 0.71779 0.306128 
0.754198 0.704159 0.767888 0.0471302 0.762782 
0.157881 0.916299 0.500615 0.876441 0.0552137 
0.474743 0.87697 0.331807 0.563253 0.79722 
0.799085 0.853988 0.588614 0.0161209 0.714275 
0.705122 0.711812 0.986437 0.702818 0.870975 
0.74507 0.244703 0.241158 0.848152 0.339458 
0.907671 0.999678 0.448716 0.277755 0.970713 
0.780686 0.33478 0.506696 0.706902 0.472115 
0.0610629 0.842941 0.254151 0.00163015 0.915866 
0.456316 0.635805 0.378468 0.119965 0.357016 
0.867269 0.779086 0.611899 0.0709415 0.819449 
0.94965 0.0375772 0.754462 0.524611 0.0214435 
0.841689 0.370227 0.759319 0.109017 0.37072 
0.28922 0.780035 0.971175 0.289636 0.104762 
0.416225 0.0102224 0.191135 0.563495 0.916904 
0.880401 0.842303 0.3688 0.621254 0.589936 
0.667478 0.474451 0.480502 0.550736 0.0492781 
0.189666 0.229611 0.24524 0.101269 0.650598 
0.680322 0.0607629 0.035277 0.248344 0.633353 
0.874538 0.38169 0.500861 0.691368 0.130293 
0.00456954 0.510892 0.649101 0.905934 0.86292 
0.64411 0.226357 0.0387924 0.853094 0.289921 
0.831437 0.616222 0.172704 0.530818 0.30214 
0.387192 0.758459 0.89815 0.0364151 0.146001 
0.279712 0.162068 0.749123 0.390974 0.683215 
0.138632 0.164229 0.439563 0.381398 0.390453 
0.867858 0.420404 0.790618 0.543494 0.074049 
0.604082 0.0568664 0.881289 0.641113 0.997874 
0.723041 0.253588 0.900011 0.881305 0.0657325 
0.733834 0.569309 0.402535 0.55778 0.213577 
0.0745223 0.365346 0.0471046 0.483994 0.0571001 
0.495042 0.998011 0.581492 0.185307 0.324366 
0.738857 0.051337 0.53833 0.719865 0.118404 
0.937035 0.0347012 0.224882 0.0885896 0.579182 
0.406406 0.554854 0.696122 0.24171 0.222321 
0.348016 0.688015 0.311169 0.912737 0.547804 
0.636389 0.127595 0.430855 0.949387 0.131775 
0.931185 0.122396 0.710947 0.809724 0.779095 
0.469637 0.580136 0.0543624 0.584182 0.962045 
0.808484 0.326512 0.0669257 0.207177 0.894448 
0.0733414 0.00243279 0.0571868 0.419226 0.716866 
0.830806 0.877224 0.0980442 0.516808 0.830512 
0.133902 0.396931 0.469791 0.791327 0.346881 
0.945351 0.287951 0.763047 0.221157 0.310589 
0.0672175 0.273708 0.199328 0.247764 0.637856 
0.599619 0.591307 0.741102 0.175806 0.917343 
0.218649 0.619763 0.265281 0.526195 0.962908 
0.952615 0.955578 0.517509 0.605189 0.0826222 
0.301914 0.65278 0.738348 0.248508 0.15312 
0.128058 0.219077 0.218159 0.963055 0.545894 
0.972379 0.60989 0.912019 0.44784 0.323741 
0.434637 0.16113 0.0494729 0.910931 0.10158 
0.444937 0.891677 0.989759 0.732306 0.181137 
0.376177 0.870478 0.389966 0.795501 0.619173 
0.257455 0.0601477 0.456461 0.400942 0.341049 
0.608296 0.682177 0.871977 0.0922265 0.559825 
0.260101 0.690061 0.850933 0.612952 0.733488 
0.111506 0.251046 0.813241 0.0299716 0.42332 
0.573734 0.123359 0.831551 0.0142208 0.295996 
0.537824 0.333837 0.0360435 0.699871 0.221633 
0.765833 0.25886 0.540279 0.671391 0.920725 
0.903608 0.330477 0.319479 0.27204 0.996412 
0.0938794 0.880948 0.551397 0.932895 0.185676 
0.135664 0.745084 0.261669 0.855505 0.938829 
0.896087 0.132351 0.0525196 0.978286 0.575223 
0.0168324 0.0694231 0.219046 0.835327 0.664898 
0.135227 0.668355 0.102447 0.147803 0.708352 
0.803417 0.510692 0.173528 0.6662 0.158743 
0.865309 0.508224 0.405169 0.806021 0.585329 
0.136536 0.581093 0.0805895 0.415414 0.798407 
0.160198 0.956478 0.618013 0.925615 0.44493 
0.444362 0.720043 0.28293 0.448682 0.982695 
0.939483 0.869836 0.206297 0.466703 0.740816 
0.0973126 0.0240819 0.460846 0.7469 0.726494 
0.892602 0.237738 0.786442 0.995239 0.733047 
0.393626 0.415377 0.29059 0.154918 0.147662 
0.625277 0.707354 0.732673 0.778633 0.437027 
0.62988 0.129651 0.723139 0.147342 0.364382 
0.911011 0.680274 0.161993 0.40764 0.726713 
0.311396 0.6285 0.308916 0.0522816 0.730304 
0.592225 0.0945527 0.431611 0.689382 0.129467 
0.689403 0.785811 0.660775 0.926725 0.986933 
0.939638 0.458518 0.253081 0.61264 0.293944 
0.729783 0.984045 0.0251341 0.466628 0.83118 
0.25474 0.350086 0.663631 0.0607663 0.472526 
0.991818 0.70884 0.0592288 0.266474 0.718236 
0.212517 0.506438 0.292598 0.27622 0.128542 
0.751264 0.177441 0.471463 0.488255 0.365647 
0.701629 0.0876354 0.371255 0.42549 0.614215 
0.35349 0.338306 0.882134 0.556565 0.138365 
0.419035 0.275646 0.377009 0.999308 0.934625 
0.775516 0.622824 0.493972 0.080078 0.0282311 
0.224826 0.0561044 0.0946745 0.870037 0.490163 
0.364876 0.765366 0.136985 0.893375 0.505897 
0.732704 0.721242 0.622444 0.492377 0.133529 
0.0464341 0.209291 0.0884691 0.0398611 0.673679 
0.117091 0.57097 0.743264 0.138413 0.261805 
0.0276161 0.847584 0.135807 0.753399 0.545202 
0.95308 0.570943 0.981669 0.552883 0.615899 
0.783639 0.397061 0.287549 0.00985861 0.823938 
0.464073 0.679849 0.87941 0.971354 0.149265 
0.0771156 0.323786 0.802509 0.188844 0.134955 
0.748567 0.552516 0.41556 0.416505 0.514404 
0.57514 0.708194 0.579219 0.33323 0.857755 
0.653766 0.789911 0.959169 0.355442 0.580891 
0.130109 0.17594 0.119289 0.112611 0.726887 
0.715622 0.459381 0.146485 0.356384 0.496477 
0.675991 0.881942 0.427856 0.782451 0.0951516 
0.964856 0.381623 0.0793662 0.576551 0.669842 
0.0184806 0.87721 0.807184 0.170647 0.607173 
0.717306 0.146818 0.934197 0.78193 0.380298 
0.620686 0.0889433 0.114624 0.537477 0.417998 
0.0925218 0.929438 0.0240397 0.116822 0.548415 
0.481544 0.623124 0.901569 0.616499 0.667342 
0.650836 0.83877 0.592466 0.329748 0.971074 
0.788469 0.351124 0.474953 0.868588 0.827718 
0.179401 0.206805 0.206831 0.303164 0.579286 
0.172335 0.0236951 0.141909 0.224069 0.634759 
0.733821 0.216491 0.200771 0.81705 0.160247 
0.332407 0.24319 0.964731 0.351975 0.686078 
0.715629 0.876063 0.156557 0.855168 0.442574 
0.489939 0.742468 0.626333 0.787313 0.662548 
0.266078 0.498684 0.867854 0.4842 0.56981 
0.554004 0.818043 0.769379 0.258441 0.695076 
0.22661 0.956274 0.86305 0.0478471 0.510225 
0.69276 0.655859 0.824026 0.250414 0.928406 
0.972307 0.836421 0.361535 0.19876 0.244891 
0.905976 0.0878004 0.884445 0.725353 0.903892 
0.213102 0.360267 0.00765019 0.482409 0.452515 
0.515675 0.407877 0.0795198 0.0498757 0.459591 
0.900138 0.963503 0.59527 0.0698954 0.515779 
0.147035 0.791994 0.366449 0.114625 0.561581 
0.223354 0.250415 0.413072 0.866834 0.700715 
0.504134 0.166319 0.842497 0.391031 0.456754 
0.0472181 0.226983 0.856398 0.010696 0.224227 
0.095554 0.13975 0.963652 0.785558 0.319078 
0.668804 0.262147 0.471097 0.581664 0.0422547 
0.413706 0.937819 0.196759 0.83074 0.42138 
0.705536 0.544861 0.332002 0.0306787 0.642936 
0.088898 0.248457 0.251247 0.291799 0.0137028 
0.757762 0.620472 0.763061 0.323368 0.511668 
0.0606093 0.302063 0.698751 0.0853475 0.22442 
0.687815 0.547838 0.0747825 0.711711 0.431602 
0.589788 0.0159487 0.190147 0.950301 0.00840934 
0.128274 0.926591 0.111905 0.516722 0.50853 
0.7065 0.808636 0.737113 0.395686 0.113503 
0.200001 0.0963921 0.48636 0.159045 0.26232 
0.368432 0.637762 0.221214 0.134218 0.582858 
0.517302 0.605375 0.676626 0.0226459 0.123128 
0.162284 0.525733 0.556121 0.888479 0.569601 
0.680669 0.761396 0.101118 0.494828 0.351456 
0.683015 0.0403997 0.0873094 0.705055 0.587968 
0.324002 0.891517 0.999824 0.662291 0.0543551 
0.839527 0.124025 0.049234 0.428696 0.476155 
0.260437 0.485623 0.8796 0.00480332 0.569206 
0.0028665 0.418733 0.34288 0.074254 0.0438996 
0.361393 0.680539 0.440239 0.0878725 0.989055 
0.119972 0.773075 0.5389 0.691111 0.288997 
0.391192 0.644826 0.553751 0.745422 0.429172 
0.930329 0.35461 0.213872 0.125253 0.803242 
0.0951852 0.19075 0.463445 0.120995 0.843233 
0.52084 0.31729 0.203745 0.618565 0.782825 
0.139958 0.47594 0.4316 0.519579 0.798857 
0.298717 0.956314 0.619192 0.850016 0.143077 
0.108655 0.994518 0.341019 0.839736 0.290548 
0.418364 0.364238 0.267814 0.506874 0.714806 
0.182242 0.331236 0.467063 0.699484 0.861237 
0.289997 0.753635 0.268348 0.411539 0.727119 
0.774066 0.245026 0.956685 0.822331 0.961913 
0.804742 0.526399 0.57974 0.463029 0.0590147 
0.206324 0.35576 0.205662 0.741788 0.228598 
0.540123 0.849184 0.811868 0.710946 0.370478 
0.900477 0.622516 0.865646 0.409372 0.656851 
0.947527 0.116917 0.924321 0.383147 0.345959 
0.445566 0.641619 0.752994 0.576693 0.777645 
0.328669 0.761965 0.835686 0.324668 0.0942372 
0.667859 0.970717 0.559364 0.298787 0.395672 
0.772878 0.0959801 0.688118 0.129016 0.946945 
0.12056 0.796242 0.822765 0.0787779 0.112143 
0.0235394 0.50611 0.990553 0.857715 0.657722 
0.721251 0.651753 0.790474 0.0148351 0.591039 
0.351505 0.17371 0.769525 0.374164 0.888753 
0.615006 0.447775 0.516312 0.482125 0.531776 
0.747437 0.625493 0.0253012 0.923171 0.552836 
0.358983 0.963487 0.187167 0.439021 0.244291 
0.0860546 0.650217 0.410098 0.660178 0.624565 
0.184345 0.269513 0.703678 0.884994 0.355596 
0.0997739 0.00562786 0.352978 0.961869 0.706923 
0.149822 0.0359674 0.0249163 0.00640151 0.398865 
0.00069314 0.509134 0.196236 0.320448 0.652315 
0.386068 0.535519 0.533054 0.82489 0.617209 
0.398004 0.0424432 0.211016 0.533301 0.944722 
0.654157 0.455432 0.607939 0.980722 0.500925 
0.674594 0.588348 0.381905 0.661218 0.0970579 
0.129932 0.226325 0.656231 0.933358 0.671957 
0.596192 0.624828 0.592028 0.392525 0.934062 
0.128705 0.812867 0.795462 0.720718 0.10801 
0.758412 0.360886 0.513812 0.635139 0.319928 
0.553002 0.614051 0.951109 0.90662 0.311609 
0.875599 0.737578 0.0115046 0.199642 0.88422 
0.968757 0.749795 0.994457 0.57616 0.636163 
0.897376 0.726459 0.227493 0.638511 0.087417 
0.888371 0.786197 0.845625 0.582979 0.497576 
0.192841 0.683294 0.36007 0.731964 0.414866 
0.547756 0.687268 0.76174 0.319121 0.725839 
0.685482 0.675115 0.560094 0.652068 0.0950226 
0.670091 0.954626 0.433439 0.723412 0.305354 
0.354485 0.733929 0.750391 0.18713 0.113419 
0.771562 0.713079 0.450198 0.429413 0.244792 
0.802759 0.159643 0.806183 0.885018 0.137526 
0.363372 0.645805 0.264911 0.576106 0.644638 
0.807024 0.473814 0.580686 0.803661 0.263855 
0.412517 0.786653 0.903993 0.459238 0.351619 
0.533653 0.916487 0.100088 0.450253 0.132532 
0.705336 0.472886 0.803157 0.23639 0.933361 
0.457022 0.536637 0.592987 0.40669 0.839925 
0.955797 0.726578 0.237055 0.497507 0.963892 
0.806895 0.357309 0.844729 0.0733187 0.18729 
0.668731 0.850939 0.150288 0.77449 0.799188 
0.51312 0.529688 0.633422 0.954124 0.218545 
0.253008 0.174906 0.236042 0.089163 0.440147 
0.992034 0.657253 0.888778 0.79252 0.846648 
0.941287 0.551583 0.746775 0.883787 0.0124088 
0.852713 0.508796 0.326202 0.441504 0.417612 
0.365668 0.370577 0.275071 0.51769 0.406211 
0.507229 0.581064 0.575782 0.755156 0.313656 
0.323836 0.651323 0.590183 0.742209 0.620803 
0.971598 0.0789413 0.0808007 0.856778 0.850334 
0.770848 0.792081 0.731719 0.910783 0.300397 
0.506835 0.437128 0.135086 0.283757 0.730802 
0.650081 0.704985 0.603231 0.0909717 0.0272511 
0.893695 0.761626 0.102198 0.502942 0.932346 
0.015051 0.119349 0.908749 0.728978 0.0829906 
0.337283 0.314928 0.239575 0.0496667 0.474687 
0.377941 0.588613 0.974424 0.268287 0.711159 
0.0459949 0.744742 0.624423 0.662874 0.414968 
0.117564 0.615817 0.779237 0.19887 0.0784701 
0.968829 0.0765868 0.210843 0.969503 0.192639 
0.557335 0.146827 0.377322 0.810405 0.760969 
0.291676 0.399984 0.844357 0.254122 0.631142 
0.736001 0.475285 0.193331 0.690321 0.113801 
0.785085 0.0433848 0.0257545 0.409526 0.949041 
0.0550468 0.704289 0.484517 0.225901 0.671418 
0.608677 0.71015 0.438458 0.442931 0.747535 
0.595417 0.255849 0.262478 0.23066 0.59003 
0.125064 0.882084 0.101523 0.8664 0.623728 
0.880378 0.789261 0.0114079 0.739607 0.43237 
0.71806 0.945097 0.818547 0.18411 0.49345 
0.0917802 0.662678 0.57042 0.680146 0.442876 
0.722264 0.46357 0.345046 0.442692 0.470893 
0.889955 0.704275 0.0543252 0.29061 0.341596 
0.28414 0.61782 0.587106 0.527754 0.101926 
0.97722 0.0355806 0.761013 0.632973 0.540693 
0.226153 0.656627 0.408316 0.975895 0.123536 
0.451423 0.309296 0.116094 0.281829 0.85427 
0.173478 0.312844 0.102752 0.899481 0.031311 
0.635609 0.577364 0.214031 0.528056 0.474547 
0.991755 0.658455 0.656846 0.289223 0.942717 
0.23538 0.269243 0.780674 0.854742 0.381598 
0.801625 0.962894 0.865594 0.705482 0.917024 
0.0831373 0.781622 0.00712136 0.914045 0.741135 
0.0601345 0.7821 0.87255 0.975053 0.28254 
0.210815 0.739661 0.887651 0.313916 0.478212 
0.206273 0.368582 0.506194 0.571895 0.294811 
0.5289 0.645647 0.12023 0.354571 0.721168 
0.866147 0.336746 0.0888682 0.682203 0.141518 
0.636823 0.943593 0.501897 0.618938 0.344487 
0.366342 0.939313 0.60966 0.369026 0.729069 
0.931585 0.955345 0.486893 0.663671 0.0663329 
0.173162 0.273686 0.945442 0.194336 0.352401 
0.214831 0.0923466 0.733449 0.328513 0.567522 
0.105385 0.630257 0.59343 0.302941 0.894675 
0.515307 0.924751 0.862717 0.889567 0.226009 
0.533819 0.764943 0.275328 0.658643 0.278809 
0.603095 0.344011 0.892943 0.334111 0.826935 
0.761202 0.224158 0.526493 0.243084 0.480046 
0.347456 0.665895 0.202798 0.130339 0.188002 
0.777138 0.586522 0.860375 0.620809 0.923037 
0.0669945 0.0384351 0.239203 0.222225 0.829477 
0.104247 0.543118 0.257552 0.466482 0.816844 
0.717364 0.544407 0.788185 0.652134 0.91037 
0.39582 0.898663 0.43989 0.403286 0.287837 
0.340876 0.775543 0.901639 0.546869 0.179131 
0.979003 0.881354 0.344004 0.107795 0.874034 
0.723326 0.775847 0.106454 0.271545 0.944083 
0.0029014 0.964126 0.4293 0.228064 0.708366 
0.0729593 0.635993 0.390678 0.870769 0.269757 
0.288282 0.421046 0.224566 0.793353 0.569337 
0.310012 0.480623 0.0483988 0.601879 0.0578915 
0.288943 0.0574364 0.70848 0.259467 0.294661 
0.0153823 0.881425 0.0751809 0.766723 0.607218 
0.723082 0.840994 0.212563 0.678881 0.350479 
0.269214 0.498355 0.99939 0.170525 0.490238 
0.580573 0.657522 0.83898 0.121678 0.335089 
0.33519 0.59223 0.0652361 0.738339 0.195804 
0.120983 0.984245 0.457178 0.169908 0.682799 
0.223156 0.837 0.0900659 0.969647 0.660965 
0.0116107 0.158812 0.645254 0.914073 0.212656 
0.327023 0.0705503 0.429855 0.346767 0.578299 
0.484817 0.709887 0.71878 0.388591 0.0122201 
0.418993 0.116578 0.120707 0.891289 0.378034 
0.737647 0.863794 0.00511988 0.518196 0.432589 
0.372154 0.658261 0.0444048 0.108763 0.816663 
0.799486 0.665166 0.83292 0.216003 0.8886 
0.678931 0.0203396 0.196157 0.0803601 0.862877 
0.505722 0.523424 0.239143 0.357759 0.329646 
0.382987 0.98174 0.564591 0.389755 0.787173 
0.88434 0.635506 0.638993 0.578524 0.411445 
0.8502 0.469986 0.569505 0.663399 0.139227 
0.176461 0.492344 0.75081 0.799285 0.35983 
0.69108 0.551475 0.51671 0.890842 0.741688 
0.227896 0.0114446 0.901102 0.418739 0.50806 
0.72405 0.621176 0.35287 0.978992 0.379034 
0.574748 0.40601 0.772905 0.140396 0.0243301 
0.610307 0.683795 0.197148 0.0709158 0.768244 
0.420443 0.42425 0.466735 0.62032 0.663222 
0.742181 0.669895 0.00284969 0.875068 0.290679 
0.890973 0.331911 0.833237 0.162724 0.404901 
0.332209 0.279267 0.808154 0.452281 0.861715 
0.0581607 0.878232 0.673698 0.758475 0.459327 
0.112641 0.26368 0.326879 0.748348 0.34041 
0.0485956 0.161503 0.0850202 0.868008 0.827259 
0.834268 0.174847 0.762588 0.0660636 0.454441 
0.811923 0.248041 0.416358 0.361975 0.450486 
0.56686 0.330632 0.527098 0.912393 0.571669 
0.526616 0.910197 0.854645 0.723243 0.416002 
0.900552 0.614529 0.0952302 0.921883 0.391107 
0.910362 0.517338 0.591089 0.105536 0.612576 
0.366002 0.129341 0.426501 0.472423 0.201158 
0.0854606 0.0175056 0.440127 0.420871 0.715908 
0.100403 0.0160734 0.158912 0.102914 0.552045 
0.678638 0.910996 0.349977 0.779779 0.0282374 
0.605539 0.465309 0.354544 0.678769 0.111828 
0.994182 0.305859 0.103119 0.989457 0.248394 
0.153943 0.661635 0.815726 0.545234 0.29377 
0.352984 0.155724 0.476524 0.820519 0.272545 
0.774995 0.120395 0.540821 0.567647 0.105927 
0.20671 0.605659 0.386807 0.699865 0.0766378 
0.357156 0.492513 0.818738 0.673536 0.515017 
0.309143 0.0266788 0.805871 0.348054 0.928306 
0.545449 0.170446 0.176076 0.721889 0.943686 
0.0948403 0.697442 0.16202 0.831713 0.815152 
0.0855511 0.300577 0.12249 0.252644 0.999891 
0.877634 0.56127 0.00820432 0.505956 0.109572 
0.186951 0.435774 0.181329 0.143811 0.412063 
0.823364 0.666908 0.970515 0.907785 0.0178119 
0.795134 0.703228 0.857728 0.748406 0.720174 
0.917665 0.318684 0.944147 0.269008 0.497395 
0.382073 0.984758 0.0467152 0.196246 0.304756 
0.777379 0.412331 0.334039 0.457513 0.516944 
0.632801 0.187074 0.617246 0.21676 0.562925 
0.14703 0.574483 0.349073 0.829029 0.943058 
0.471577 0.390024 0.614096 0.622743 0.850242 
0.414797 0.751938 0.813279 0.532587 0.44703 
0.0683364 0.332097 0.828252 0.965353 0.122937 
0.962917 0.669332 0.589369 0.934925 0.29474 
0.651467 0.0112996 0.586887 0.858333 0.642275 
0.150188 0.0580713 0.222474 0.807819 0.383913 
0.590768 0.650102 0.802768 0.0627205 0.843895 
0.466486 0.55584 0.573067 0.721264 0.83805 
0.666399 0.812171 0.937356 0.40799 0.643044 
0.261603 0.540976 0.471555 0.129192 0.700603 
0.398281 0.769589 0.565184 0.836314 0.989488 
0.804446 0.822804 0.734222 0.736873 0.416348 
0.268192 0.534101 0.845068 0.054566 0.0647519 
0.373048 0.633922 0.942482 0.915378 0.392778 
0.263709 0.0420518 0.994266 0.010843 0.53964 
0.8816 0.671399 0.426697 0.381282 0.68259 
0.297546 0.930541 0.347725 0.405769 0.0210762 
0.948161 0.500657 0.930186 0.38112 0.368175 
0.235717 0.394017 0.191865 0.721163 0.552868 
0.0328047 0.250778 0.531443 0.993674 0.767155 
0.462333 0.556967 0.269675 0.887072 0.519155 
0.808752 0.0677473 0.753393 0.832135 0.26873 
0.371895 0.885451 0.801462 0.308859 0.523863 
0.723446 0.901522 0.922701 0.419654 0.234523 
0.879026 0.0217023 0.634809 0.0572391 0.472648 
0.979701 0.456647 0.322739 0.482733 0.559959 
0.155378 0.0624149 0.625892 0.518772 0.439446 
0.760186 0.526605 0.776987 0.0409026 0.217052 
0.944424 0.779284 0.209619 0.617949 0.777388 
0.532805 0.00206484 0.396783 0.990349 0.399242 
0.93206 0.955125 0.394945 0.295409 0.289991 
0.400454 0.559638 0.828673 0.857337 0.930009 
0.590686 0.592833 0.947465 0.723694 0.654724 
0.479365 0.261906 0.639809 0.484599 0.729921 
0.305783 0.550234 0.597186 0.534678 0.327087 
0.186264 0.686907 0.628667 0.648389 0.840024 
0.199936 0.585075 0.612157 0.456016 0.683057 
0.0360395 0.5664 0.522452 0.339141 0.497178 
0.7462 0.660795 0.485431 0.852601 0.449616 
0.68421 0.173338 0.317743 0.870981 0.734912 
0.618644 0.510908 0.69986 0.226983 0.504486 
0.930164 0.408372 0.285141 0.127246 0.824919 
0.199845 0.623822 0.610709 0.0346599 0.197874 
0.335023 0.0291607 0.289291 0.684186 0.0807842 
0.185635 0.205498 0.223282 0.785707 0.973662 
0.708404 0.317299 0.981474 0.756764 0.477352 
0.327027 0.794363 0.0625785 0.774689 0.950959 
0.713776 0.01405 0.822107 0.443491 0.61588 
0.72096 0.0493425 0.881327 0.330281 0.698726 
0.26459 0.930325 0.227082 0.156497 0.196744 
0.667356 0.334672 0.71299 0.136764 0.584519 
0.413896 0.842547 0.171627 0.0580234 0.823599 
0.512255 0.767194 0.817076 0.568986 0.887512 
0.985389 0.399392 0.101685 0.887282 0.9835 
0.564294 0.189108 0.852603 0.607836 0.589489 
0.0329702 0.976769 0.183484 0.119187 0.0150154 
0.380354 0.63519 0.0461524 0.138161 0.582692 
0.403732 0.819525 0.504649 0.932878 0.71318 
0.784363 0.595968 0.323468 0.263722 0.903273 
0.150674 0.822836 0.0748259 0.671902 0.714059 
0.528601 0.599354 0.24517 0.301983 0.313803 
0.224298 0.39365 0.383591 0.355447 0.677406 
0.50323 0.807997 0.32698 0.10474 0.442891 
0.408327 0.0862164 0.325753 0.14698 0.316168 
0.35359 0.659425 0.124204 0.433646 0.837135 
0.296354 0.694319 0.201309 0.68681 0.915742 
0.88021 0.557901 0.574025 0.632218 0.652328 
0.993917 0.953859 0.633113 0.237727 0.537889 
0.439805 0.417419 0.183339 0.889153 0.928073 
0.796431 0.57524 0.242304 0.902486 0.885714 
0.215422 0.736064 0.698792 0.441413 0.43624 
0.920632 0.452846 0.374919 0.347375 0.0172658 
0.0386002 0.739682 0.91751 0.420077 0.310352 
0.883019 0.191976 0.31823 0.0340011 0.204334 
0.0729093 0.345671 0.10589 0.632473 0.848023 
0.464307 0.793643 0.430925 0.473509 0.584228 
0.786122 0.861478 0.728563 0.885325 0.670777 
0.668598 0.345133 0.43775 0.981342 0.0776665 
0.493102 0.404056 0.954723 0.484984 0.284789 
0.273765 0.463247 0.595916 0.791247 0.49847 
0.491619 0.913636 0.283956 0.973965 0.161912 
0.99563 0.522833 0.0953702 0.230011 0.884089 
0.262564 0.321835 0.724449 0.438085 0.111051 
0.701466 0.986326 0.596537 0.54486 0.868722 
0.0975881 0.693594 0.161693 0.780618 0.583969 
0.925633 0.837936 0.617911 0.291974 0.572167 
0.510418 0.389126 0.0298568 0.372655 0.119252 
0.529435 0.670835 0.127608 0.655194 0.651217 
0.620356 0.277895 0.625314 0.495998 0.373465 
0.436552 0.713206 0.371803 0.82341 0.0207994 
0.57514 0.386961 0.544248 0.257289 0.0469003 
0.386966 0.57253 0.41264 0.559874 0.123556 
0.0757666 0.712209 0.127054 0.0297168 0.306351 
0.165807 0.614073 0.332266 0.291185 0.403336 
0.202789 0.924821 0.333328 0.0676547 0.442019 
0.248331 0.71882 0.385204 0.997817 0.824034 
0.0184542 0.059562 0.367772 0.210837 0.900717 
0.217002 0.666968 0.671635 0.639165 0.919672 
0.76481 0.506837 0.735347 0.117931 0.0790731 
0.271633 0.584032 0.350503 0.654159 0.326618 
0.397554 0.61991 0.74498 0.532318 0.212868 
0.787566 0.188644 0.635461 0.571559 0.0124001 
0.954151 0.43315 0.763916 0.404473 0.571734 
0.970417 0.869276 0.284233 0.557365 0.309156 
0.104864 0.88281 0.739484 0.805439 0.874591 
0.813297 0.141908 0.508774 0.801063 0.768402 
0.255738 0.658132 0.646665 0.0310267 0.913469 
0.104935 0.551002 0.656948 0.618149 0.282986 
0.606145 0.902894 0.964217 0.559676 0.830687 
0.894223 0.817352 0.969278 0.398256 0.975715 
0.5699 0.587676 0.489257 0.796076 0.534345 
0.762245 0.443582 0.599311 0.0285275 0.655683 
0.853035 0.828525 0.620148 0.0977366 0.0200366 
0.966653 0.0810324 0.467821 0.164397 0.122993 
0.443953 0.617569 0.386184 0.453833 0.813778 
0.523648 0.781886 0.478035 0.761312 0.115107 
0.799315 0.888169 0.560717 0.389613 0.913089 
0.124907 0.378818 0.0954906 0.687272 0.195482 
0.124856 0.384551 0.899449 0.0491714 0.081741 
0.138349 0.872137 0.485061 0.236967 0.875987 
0.759098 0.903049 0.0258923 0.353019 0.153177 
0.384389 0.0219621 0.309842 0.409804 0.66826 
0.0569336 0.150247 0.732542 0.350646 0.0851434 
0.37517 0.186085 0.261407 0.697848 0.845183 
0.876266 0.24282 0.222147 0.293387 0.187633 
0.835829 0.471072 0.943516 0.244406 0.771983 
0.568387 0.645242 0.637279 0.835879 0.184158 
0.258093 0.93097 0.115296 0.676003 0.111894 
0.900445 0.19653 0.0460229 0.0358805 0.345675 
0.882472 0.126339 0.734561 0.513183 0.464223 
0.510469 0.14235 0.517563 0.244488 0.0265286 
0.125676 0.732064 0.188228 0.604301 0.0630305 
0.896364 0.952669 0.489161 0.367293 0.442072 
0.113594 0.9478 0.853814 0.674152 0.253365 
0.266473 0.861042 0.174266 0.0299169 0.537681 
0.203829 0.640966 0.941629 0.485146 0.993951 
0.000150182 0.471947 0.456652 0.895001 0.79757 
0.857391 0.577007 0.708056 0.268451 0.913092 
0.914523 0.105321 0.331875 0.503432 0.252542 
0.42133 0.454727 0.164839 0.32248 0.70238 
0.682435 0.619795 0.426878 0.528255 0.167802 
0.626527 0.753585 0.643029 0.602213 0.857561 
0.182862 0.923189 0.132383 0.751283 0.238952 
0.0916887 0.623949 0.41792 0.00657813 0.47206 
0.403497 0.932512 0.522124 0.140075 0.173802 
0.490255 0.18968 0.693538 0.969604 0.0379822 
0.00339717 0.544438 0.685959 0.702678 0.166607 
0.734616 0.0290523 0.51417 0.373442 0.389642 
0.671481 0.739051 0.347028 0.382386 0.870146 
0.465442 0.53237 0.93793 0.956642 0.17999 
0.824859 0.613242 0.12216 0.992944 0.450583 
0.909873 0.928237 0.0163338 0.273678 0.554541 
0.655705 0.718276 0.0726009 0.842346 0.889466 
0.764445 0.716901 0.686728 0.880492 0.222246 
0.663469 0.950958 0.747726 0.273459 0.313015 
0.106371 0.861558 0.558968 0.53705 0.0147231 
0.136151 0.0992812 0.982097 0.993499 0.916639 
0.162789 0.846067 0.0743343 0.666313 0.932297 
0.422149 0.487429 0.635967 0.78533 0.908496 
0.988175 0.20168 0.470022 0.973877 0.458647 
0.57409 0.417254 0.990997 0.670876 0.488451 
0.269752 0.638994 0.968666 0.0726328 0.719918 
0.506597 0.306864 0.947095 0.156671 0.973714 
0.917595 0.264714 0.739401 0.158964 0.33883 
0.310445 0.489729 0.129807 0.53144 0.6594 
0.662572 0.147299 0.818283 0.640575 0.364767 
0.270027 0.175766 0.714594 0.905298 0.276061 
0.825128 0.887348 0.360105 0.228573 0.319234 
0.862936 0.0838588 0.982275 0.297647 0.298549 
0.261698 0.907484 0.384478 0.599006 0.337422 
0.376924 0.22348 0.376553 0.951348 0.975414 
0.316435 0.0260405 0.167704 0.887582 0.110338 
0.59068 0.535057 0.120346 0.379186 0.761666 
0.370088 0.492307 0.985984 0.80057 0.0340666 
0.831746 0.0986509 0.217688 0.107691 0.374627 
0.564056 0.33504 0.879028 0.501053 0.992326 
0.417619 0.621072 0.402452 0.450522 0.132528 
0.102417 0.412587 0.202708 0.00728098 0.603759 
0.343563 0.770464 0.320651 0.628082 0.0307489 
0.681131 0.853559 0.9166 0.702078 0.601313 
0.0347217 0.590155 0.801608 0.862574 0.620307 
0.81741 0.199544 0.605442 0.201612 0.56134 
0.707412 0.977361 0.0676567 0.480564 0.408945 
0.912738 0.466569 0.539689 0.157278 0.802488 
0.925741 0.971348 0.755719 0.399093 0.684566 
0.497242 0.779462 0.965944 0.802731 0.533988 
0.0924381 0.357185 0.607624 0.269709 0.168553 
0.866875 0.387197 0.679374 0.572241 0.210117 
0.0102312 0.56135 0.770929 0.152902 0.752894 
0.376709 0.388542 0.855422 0.907127 0.833349 
0.398464 0.58532 0.0148396 0.600695 0.485813 
0.339418 0.300859 0.0530932 0.556939 0.279239 
0.0401636 0.0355866 0.64003 0.337344 0.0386288 
0.340211 0.544388 0.880511 0.455141 0.415297 
0.155662 0.0656666 0.739938 0.5173 0.594007 
0.25079 0.51261 0.493394 0.550389 0.669226 
0.55709 0.355531 0.188244 0.510168 0.050492 
0.453395 0.664615 0.178404 0.0572579 0.530999 
0.635352 0.0921097 0.962531 0.76368 0.0305242 
0.888303 0.857197 0.961178 0.152477 0.812174 
0.478209 0.46331 0.0186599 0.297069 0.285455 
0.81525 0.157823 0.492094 0.273674 0.195716 
0.038327 0.241462 0.674486 0.0922092 0.931712 
0.798461 0.481751 0.769194 0.69214 0.930882 
0.658382 0.445836 0.522837 0.143935 0.195619 
0.237923 0.670553 0.522688 0.484949 0.605403 
0.99492 0.827783 0.677963 0.658257 0.110355 
0.462948 0.2495 0.814865 0.983376 0.12619 
0.508798 0.791087 0.652286 0.434969 0.285952 
0.444737 0.564866 0.40581 0.245209 0.640539 
0.857562 0.337188 0.784629 0.248562 0.591 
0.260203 0.304337 0.542276 0.679519 0.20686 
0.506158 0.0977341 0.467472 0.160512 0.960231 
0.324267 0.469108 0.0819978 0.958627 0.795019 
0.075774 0.793099 0.885059 0.831187 0.769016 
0.370944 0.703313 0.108511 0.103752 0.111103 
0.673518 0.576317 0.312453 0.828822 0.0535604 
0.160555 0.552043 0.0328138 0.132177 0.196054 
0.196248 0.873701 0.372686 0.252574 0.0138476 
0.996416 0.721632 0.446571 0.207124 0.717376 
0.703903 0.771157 0.0356182 0.677179 0.342957 
0.856747 0.316543 0.919219 0.725827 0.305318 
0.637269 0.609928 0.0962569 0.468367 0.515767 
0.570366 0.710291 0.235003 0.501332 0.886018 
0.38729 0.526012 0.0102698 0.649594 0.510075 
0.722526 0.327435 0.889692 0.380722 0.204936 
0.723286 0.360893 0.457273 0.0177431 0.776291 
0.28573 0.539673 0.34068 0.64684 0.111845 
0.138613 0.261925 0.170024 0.0833403 0.114548 
0.861674 0.301813 0.717454 0.232563 0.104361 
0.995431 0.362176 0.370769 0.870576 0.461375 
0.0644244 0.24244 0.34818 0.774965 0.438426 
0.215787 0.208441 0.927276 0.00272397 0.284466 
0.175696 0.945314 0.969347 0.947151 0.295494 
0.592153 0.148015 0.0857044 0.63182 0.999437 
0.0356851 0.375958 0.929173 0.067706 0.190838 
0.0297129 0.957674 0.611516 0.482609 0.261232 
0.00559231 0.0239251 0.2209 0.67197 0.757743 
0.665493 0.334509 0.397856 0.131296 0.698438 
0.0775109 0.46369 0.675868 0.498332 0.269971 
0.997219 0.37506 0.502809 0.786729 0.019608 
0.468093 0.0446486 0.310659 0.221255 0.709005 
0.0515088 0.562335 0.49737 0.347331 0.296697 
0.127028 0.32053 0.688072 0.751628 0.17165 
0.709837 0.970004 0.797419 0.449728 0.0322644 
