3700 5
0.446864 0.738616 0.927533 0.167191 0.0984906 
0.520797 0.271064 0.946204 0.537193 0.403542 
0.807383 0.362752 0.941302 0.413731 0.625877 
0.347952 0.297254 0.638948 0.223833 0.665176 
0.00470678 0.954006 0.775676 0.447682 0.895027 
0.837789 0.679398 0.053817 0.944053 0.248181 
0.543003 0.0156296 0.222772 0.89951 0.712137 
0.478785 0.975802 0.113952 0.540811 0.735203 
0.793805 0.459712 0.144215 0.436215 0.205339 
0.427785 0.80959 0.134333 0.848212 0.289846 
0.0828833 0.952701 0.942051 0.858008 0.614172 
0.346458 0.258665 0.00937554 0.197762 0.140541 
0.72458 0.512266 0.106891 0.545547 0.984136 
0.21447 0.864615 0.68828 0.769645 0.770514 
0.826189 0.495184 0.833513 0.995407 0.45169 
0.433593 0.274932 0.553558 0.123551 0.654318 
0.842334 0.438645 0.367977 0.887754 0.33511 
0.606582 0.896768 0.146627 0.492471 0.681881 
0.415301 0.558027 0.151317 0.628072 0.476803 
0.443612 0.71883 0.901416 0.867321 0.159956 
0.132866 0.881375 0.957183 0.919782 0.0772753 
0.05348 0.134232 0.298052 0.737219 0.0364412 
0.414417 0.0253803 0.620075 0.319713 0.912212 
0.852188 0.678091 0.121432 0.883772 0.834705 
0.41304 0.780699 0.3408 0.476309 0.742515 
0.175869 0.156878 0.101849 0.0061321 0.857727 
0.657134 0.388302 0.164053 0.62815 0.347936 
0.221764 0.994221 0.824794 0.460163 0.0301565 
0.36945 0.807672 0.602357 0.586164 0.994263 
0.909059 0.851678 0.856511 0.748251 0.263465 
0.864526 0.808045 0.236269 0.512851 0.946469 
0.0572848 0.400941 0.158012 0.621032 0.90487 
0.316208 0.149608 0.812986 0.1629 0.888092 
0.101444 0.350714 0.00775709 0.536054 0.856386 
0.436204 0.25858 0.845166 0.946515 0.174583 
0.406 0.709434 0.164018 0.159399 0.786318 
0.0238847 0.24482 0.358795 0.468932 0.614597 
0.426932 0.199348 0.288221 0.0867542 0.190109 
0.858925 0.118434 0.611418 0.75916 0.20814 
0.604123 0.12789 0.267284 0.450567 0.44011 
0.435553 0.882388 0.44196 0.739674 0.688536 
0.752225 0.336855 0.933592 0.0215831 0.295412 
0.566587 0.988459 0.664088 0.112499 0.768588 
0.59025 0.238514 0.486761 0.352008 0.21843 
0.883085 0.939207 0.323776 0.500705 0.926178 
0.0975161 0.318405 0.580957 0.44751 0.47429 
0.18705 0.0115136 0.799359 0.829798 0.519656 
0.558338 0.552507 0.339573 0.733648 0.845326 
0.400728 0.239041 0.85636 0.76429 0.620507 
0.871167 0.948829 0.0261823 0.420531 0.116234 
0.122237 0.282668 0.216322 0.810752 0.997799 
0.0494725 0.0841521 0.437912 0.490284 0.93004 
0.314509 0.628544 0.770907 0.365135 0.401822 
0.282592 0.0886864 0.890752 0.544079 0.984807 
0.55789 0.00916587 0.404044 0.359329 0.505744 
0.362581 0.627725 0.492116 0.925117 0.590353 
0.640657 0.896301 0.0128196 0.701174 0.790988 
0.638771 0.0739305 0.544321 0.795099 0.267183 
0.597555 0.0404761 0.242014 0.475279 0.36365 
0.366274 0.956894 0.180346 0.959995 0.057847 
0.602415 0.141153 0.745016 0.00571462 0.683025 
0.45006 0.449091 0.606237 0.00896197 0.674198 
0.670854 0.529432 0.140822 0.0409009 0.296318 
0.0620921 0.48015 0.27492 0.829459 0.98047 
0.0611259 0.718041 0.0387571 0.740471 0.97454 
0.689204 0.403239 0.174341 0.0721676 0.396965 
0.737052 0.372642 0.811914 0.288127 0.920755 
0.256448 0.644737 0.525647 0.272279 0.411312 
0.614187 0.35438 0.72101 0.485017 0.537672 
0.901257 0.296946 0.893919 0.803337 0.0496088 
0.801291 0.0252269 0.443634 0.905708 0.905455 
0.630277 0.28519 0.63942 0.994172 0.541 
0.0102285 0.642669 0.502077 0.713414 0.561021 
0.0470043 0.491561 0.928046 0.591603 0.161091 
0.0838568 0.818247 0.741306 0.56482 0.438279 
0.695911 0.86092 0.753373 0.556683 0.43219 
0.388172 0.250615 0.424768 0.523012 0.864161 
0.501028 0.44179 0.0463913 0.107326 0.6443 
0.0478709 0.518404 0.357387 0.962483 0.590314 
0.888649 0.433396 0.0693761 0.618011 0.544522 
0.592673 0.357678 0.783988 0.471142 0.167018 
0.702582 0.183965 0.0245103 0.893638 0.216513 
0.048177 0.122384 0.121198 0.484311 0.193238 
0.86498 0.131334 0.316235 0.705034 0.864641 
0.15894 0.238287 0.854086 0.777412 0.389813 
0.499137 0.0114177 0.463065 0.0512841 0.313861 
0.666175 0.757901 0.987176 0.765343 0.418223 
0.335891 0.233843 0.745489 0.905181 0.611699 
0.838326 0.232436 0.158189 0.954699 0.17576 
0.00361445 0.334253 0.763732 0.415159 0.792868 
0.542958 0.96312 0.658884 0.518535 0.654337 
0.469824 0.313286 0.429142 0.252069 0.921851 
0.90518 0.107964 0.0445293 0.52524 0.319221 
0.526624 0.0683116 0.373188 0.244398 0.831542 
0.280363 0.249249 0.0484171 0.864775 0.750554 
0.972411 0.380056 0.794933 0.939275 0.185838 
0.833649 0.124562 0.661358 0.287615 0.921794 
0.770358 0.7393 0.220372 0.174105 0.547734 
0.932159 0.271981 0.913737 0.993811 0.0615012 
0.616137 0.922587 0.677091 0.996625 0.960742 
0.752984 0.0473912 0.135954 0.164386 0.584406 
0.746407 0.446657 0.357273 0.184141 0.731008 
0.304473 0.516407 0.662555 0.748847 0.699248 
0.185147 0.156434 0.0809331 0.733592 0.296038 
0.823878 0.2481 0.38703 0.537241 0.738533 
0.57872 0.366756 0.161748 0.418985 0.569652 
0.148787 0.500527 0.42361 0.981932 0.308064 
0.233803 0.0961059 0.0713181 0.53902 0.828179 
0.884721 0.50677 0.209965 0.169077 0.959305 
0.312369 0.582712 0.737153 0.397629 0.230748 
0.764805 0.258411 0.0287935 0.568835 0.95247 
0.913003 0.478358 0.993528 0.66455 0.229569 
0.973201 0.0131255 0.223721 0.159135 0.577022 
0.312891 0.872167 0.483049 0.123655 0.885806 
0.786447 0.626135 0.629651 0.543766 0.0144939 
0.635516 0.97778 0.344202 0.492644 0.763643 
0.63172 0.669125 0.491922 0.55846 0.58504 
0.259908 0.632667 0.816925 0.949812 0.772463 
0.943781 0.077678 0.715776 0.840656 0.763244 
0.364066 0.922194 0.68272 0.482112 0.23227 
0.0068957 0.767245 0.162709 0.699121 0.427106 
0.654119 0.344574 0.0166771 0.884653 0.553418 
0.445217 0.119717 0.00248082 0.471936 0.419831 
0.943523 0.197445 0.492313 0.292273 0.0790702 
0.181117 0.083912 0.943707 0.150859 0.121784 
0.431254 0.432925 0.75919 0.0439133 0.28201 
0.656056 0.470864 0.282534 0.842457 0.850485 
0.784286 0.355524 0.843751 0.663451 0.437015 
0.75373 0.290478 0.776999 0.568611 0.255405 
0.461883 0.840187 0.125288 0.886964 0.795888 
0.356868 0.384156 0.715454 0.647502 0.716519 
0.416783 0.891815 0.266321 0.509131 0.0352936 
0.403355 0.022504 0.0220816 0.266833 0.571729 
0.684863 0.884647 0.578239 0.0344835 0.335541 
0.840763 0.840514 0.716806 0.831007 0.357992 
0.259325 0.282617 0.818963 0.765851 0.628764 
0.206502 0.880153 0.818451 0.527011 0.963889 
0.30935 0.742532 0.285429 0.419317 0.202555 
0.560344 0.583833 0.246684 0.645472 0.139698 
0.284042 0.810401 0.204847 0.661988 0.0682439 
0.629269 0.614045 0.397107 0.467432 0.86949 
0.398896 0.918531 0.482739 0.880628 0.661584 
0.902924 0.709836 0.00890709 0.565931 0.208407 
0.792674 0.900765 0.92265 0.105518 0.440465 
0.225978 0.918367 0.899258 0.948387 0.125866 
0.762813 0.108742 0.390712 0.658284 0.119306 
0.183448 0.533519 0.529425 0.123498 0.396998 
0.271962 0.556663 0.443158 0.869176 0.101731 
0.245853 0.390497 0.987033 0.801065 0.282451 
0.0062054 0.672796 0.294999 0.175157 0.0650086 
0.126713 0.970542 0.434457 0.0259942 0.13138 
0.417314 0.282045 0.951432 0.841178 0.83233 
0.502031 0.0105331 0.837939 0.298733 0.537543 
0.318891 0.41969 0.627572 0.66199 0.38645 
0.11837 0.137294 0.742567 0.708217 0.125541 
0.0149475 0.443502 0.156802 0.697919 0.666393 
0.287965 0.00138178 0.406865 0.847921 0.0139341 
0.695909 0.378512 0.880101 0.237831 0.681277 
0.178513 0.465796 0.517494 0.305525 0.242747 
0.681713 0.576959 0.258221 0.492777 0.68997 
0.46607 0.499418 0.105993 0.227153 0.790699 
0.295197 0.383862 0.668616 0.967893 0.459131 
0.46459 0.339377 0.0164334 0.601751 0.374851 
0.883803 0.484731 0.321384 0.808494 0.798104 
0.420581 0.935176 0.275364 0.257309 0.0753071 
0.160511 0.273885 0.784407 0.856874 0.66419 
0.564109 0.388811 0.273894 0.160923 0.00627169 
0.725022 0.926798 0.899318 0.129793 0.755694 
0.487852 0.959674 0.748271 0.645784 0.281628 
0.194483 0.163733 0.512643 0.44366 0.290254 
0.334851 0.0560622 0.879148 0.380669 0.306749 
0.841032 0.0811828 0.613457 0.83733 0.54585 
0.486178 0.194237 0.373109 0.854856 0.901946 
0.00294629 0.468564 0.282829 0.842904 0.322042 
0.947531 0.328911 0.369836 0.527811 0.736342 
0.651103 0.834027 0.411301 0.108499 0.452388 
0.965165 0.286368 0.727267 0.233819 0.349296 
0.0557765 0.92588 0.395787 0.110248 0.365088 
0.788763 0.970716 0.0814903 0.413132 0.727366 
0.0218767 0.745911 0.779293 0.194363 0.148228 
0.0124155 0.971144 0.372857 0.20398 0.164735 
0.851452 0.715563 0.218712 0.307934 0.236252 
0.175238 0.236774 0.831294 0.299274 0.0627385 
0.609933 0.696019 0.225899 0.610009 0.392249 
0.313611 0.696684 0.458094 0.573824 0.371856 
0.351244 0.265923 0.952362 0.50232 0.205057 
0.521724 0.288385 0.790787 0.0345633 0.115024 
0.38868 0.631047 0.0540005 0.88844 0.62367 
0.896668 0.457016 0.103355 0.651648 0.297991 
0.0352573 0.268837 0.145365 0.79077 0.581556 
0.680727 0.516039 0.434599 0.829023 0.971613 
0.838325 0.0425033 0.226766 0.205633 0.122245 
0.646042 0.669244 0.189506 0.300504 0.517407 
0.218337 0.440145 0.214545 0.0739303 0.9162 
0.670103 0.0581978 0.178405 0.74929 0.663329 
0.671627 0.729181 0.655367 0.89497 0.790882 
0.293069 0.963337 0.649434 0.293306 0.941585 
0.0813987 0.224929 0.878054 0.685695 0.703981 
0.975591 0.162076 0.873244 0.646523 0.731703 
0.167489 0.663003 0.131845 0.999147 0.830778 
0.224411 0.705302 0.987187 0.586344 0.838311 
0.662234 0.526957 0.149086 0.807143 0.686862 
0.797779 0.351804 0.468552 0.424563 0.132902 
0.355602 0.055939 0.915895 0.234248 0.163016 
0.778911 0.801013 0.0573235 0.62967 0.198586 
0.603556 0.463719 0.915983 0.397726 0.172181 
0.528798 0.814083 0.306665 0.010319 0.98148 
0.19651 0.625265 0.420593 0.0629947 0.599954 
0.168947 0.380296 0.233689 0.593554 0.604619 
0.0570688 0.567132 0.926734 0.545765 0.970784 
0.247933 0.503488 0.0743279 0.164498 0.777116 
0.29207 0.613792 0.466083 0.315982 0.655315 
0.983028 0.333568 0.299167 0.597173 0.191035 
0.701411 0.476929 0.647156 0.360808 0.795006 
0.126356 0.256141 0.103476 0.602102 0.765305 
0.871977 0.35913 0.487083 0.829081 0.0817654 
0.233236 0.409706 0.206921 0.903594 0.360387 
0.674815 0.848927 0.570374 0.626443 0.448589 
0.0846822 0.17401 0.95287 0.556821 0.603995 
0.910587 0.494644 0.809316 0.63788 0.150575 
0.496108 0.354256 0.0538038 0.613667 0.982096 
0.213893 0.175067 0.73902 0.891897 0.883321 
0.687945 0.520216 0.87728 0.444494 0.469813 
0.47815 0.573578 0.306152 0.720336 0.98182 
0.173588 0.908345 0.802033 0.812473 0.446134 
0.602724 0.665461 0.376523 0.616819 0.807215 
0.0193178 0.860738 0.945611 0.255988 0.796984 
0.807143 0.944595 0.425877 0.825676 0.826953 
0.663991 0.142336 0.876286 0.370873 0.945235 
0.20286 0.136361 0.0567702 0.618206 0.986655 
0.965784 0.346349 0.0287443 0.409095 0.761888 
0.0990986 0.461625 0.0654616 0.63133 0.85673 
0.951667 0.113666 0.937688 0.999035 0.35241 
0.386391 0.270176 0.538766 0.883733 0.84509 
0.834476 0.777385 0.313717 0.996244 0.74923 
0.762011 0.455125 0.250234 0.807963 0.630026 
0.348076 0.534827 0.276506 0.35447 0.363522 
0.503905 0.594107 0.0303278 0.536987 0.798181 
0.666408 0.850642 0.543152 0.110258 0.999577 
0.733983 0.844918 0.258234 0.0564251 0.115972 
0.444864 0.515676 0.799821 0.466344 0.901213 
0.294217 0.530875 0.544112 0.816304 0.311621 
0.316002 0.272436 0.481023 0.85707 0.307973 
0.952745 0.910282 0.980572 0.560374 0.704618 
0.621123 0.836904 0.672644 0.662951 0.333551 
0.673135 0.116849 0.219272 0.582851 0.899105 
0.1292 0.489053 0.606148 0.587808 0.893661 
0.494308 0.27127 0.454379 0.547646 0.706098 
0.533258 0.416957 0.258227 0.0755189 0.199263 
0.360013 0.51985 0.492055 0.399642 0.340345 
0.927465 0.66515 0.261187 0.972632 0.464631 
0.482174 0.390272 0.804826 0.419693 0.812139 
0.388398 0.440091 0.424841 0.933659 0.414228 
0.567053 0.317936 0.130846 0.566565 0.691987 
0.726353 0.224391 0.934974 0.411061 0.94527 
0.263466 0.177171 0.0185461 0.695218 0.732109 
0.477477 0.304206 0.022807 0.333134 0.421609 
0.251053 0.911099 0.0460644 0.249205 0.399386 
0.473153 0.436445 0.753481 0.129495 0.499323 
0.348714 0.659809 0.619167 0.00770025 0.822947 
0.474629 0.278508 0.425869 0.300277 0.559126 
0.677346 0.563129 0.0887002 0.901817 0.292946 
0.931729 0.370068 0.871987 0.944068 0.320366 
0.596672 0.954653 0.410788 0.461263 0.941587 
0.181419 0.232598 0.347545 0.0206729 0.883187 
0.0307123 0.594862 0.595439 0.0925943 0.272105 
0.84172 0.197806 0.998702 0.0390721 0.616314 
0.292142 0.275005 0.58266 0.901451 0.572987 
0.437143 0.438376 0.466465 0.977813 0.27514 
0.581578 0.625839 0.568787 0.137517 0.231318 
0.145918 0.636783 0.895457 0.902667 0.639356 
0.269912 0.00436269 0.774056 0.900579 0.335422 
0.565775 0.834944 0.392018 0.76245 0.195461 
0.66931 0.0150976 0.928012 0.656899 0.136782 
0.887767 0.28312 0.0196036 0.538176 0.272078 
0.736574 0.823884 0.708044 0.810519 0.840183 
0.365927 0.0821637 0.564565 0.0778749 0.865199 
0.193138 0.224051 0.262746 0.502964 0.153589 
0.24022 0.779605 0.760159 0.0389284 0.451177 
0.520262 0.38804 0.244363 0.0700326 0.247113 
0.639813 0.58559 0.75599 0.0923349 0.518216 
0.33143 0.493145 0.513224 0.200433 0.992427 
0.611828 0.91785 0.976917 0.642896 0.171517 
0.199786 0.679457 0.288154 0.837461 0.354158 
0.47442 0.0545389 0.599421 0.673123 0.250727 
0.193524 0.853577 0.0138587 0.0915324 0.874965 
0.218847 0.812527 0.376251 0.267888 0.895866 
0.00371629 0.584238 0.589442 0.959145 0.845035 
0.411138 0.77058 0.58648 0.780277 0.745485 
0.186506 0.986218 0.22953 0.637372 0.273163 
0.938695 0.701178 0.00225263 0.108613 0.148552 
0.0333328 0.725609 0.0115083 0.659374 0.895579 
0.732711 0.480047 0.611929 0.589397 0.447783 
0.650763 0.693818 0.662609 0.185129 0.854269 
0.97914 0.339188 0.398815 0.119189 0.742632 
0.732073 0.736546 0.675859 0.213654 0.0504754 
0.278834 0.633716 0.726742 0.262948 0.679156 
0.467487 0.17991 0.925875 0.766609 0.21685 
0.762033 0.0251572 0.256408 0.792053 0.486469 
0.214845 0.366968 0.21216 0.331387 0.0690459 
0.575083 0.479583 0.717017 0.200967 0.586759 
0.745481 0.754626 0.255442 0.0546979 0.38737 
0.794067 0.0415664 0.956166 0.925736 0.541956 
0.528301 0.959011 0.750993 0.883835 0.930377 
0.807023 0.697098 0.372387 0.891905 0.96743 
0.267426 0.156934 0.0974893 0.0650014 0.262789 
0.609439 0.719785 0.148585 0.0219161 0.561327 
0.28273 0.575245 0.607558 0.144141 0.284237 
0.686086 0.112139 0.256822 0.359862 0.932891 
0.0409925 0.814512 0.120067 0.722228 0.0893836 
0.909306 0.212738 0.56461 0.46375 0.704945 
0.178294 0.423175 0.404657 0.661831 0.768202 
0.67502 0.537463 0.674035 0.870242 0.669171 
0.973977 0.00431003 0.395978 0.706432 0.307497 
0.405078 0.715035 0.84814 0.350995 0.236384 
0.332152 0.0432144 0.952232 0.905413 0.524364 
0.652446 0.873761 0.812191 0.404445 0.961707 
0.350757 0.661239 0.796944 0.698782 0.755389 
0.78958 0.627973 0.842692 0.0585219 0.104294 
0.255433 0.500795 0.469284 0.897371 0.236002 
0.27461 0.81971 0.814962 0.449323 0.496181 
0.786251 0.641589 0.376176 0.991169 0.297979 
0.60034 0.411785 0.901892 0.0601182 0.0610719 
0.148474 0.934502 0.0629183 0.786935 0.707256 
0.147871 0.753695 0.109705 0.512237 0.890264 
0.1455 0.229709 0.456128 0.374185 0.150503 
0.903156 0.690517 0.869876 0.686431 0.496505 
0.0907441 0.423642 0.0545844 0.424274 0.991991 
0.838582 0.683001 0.180839 0.875573 0.636101 
0.302727 0.258347 0.134669 0.263683 0.378389 
0.626368 0.656795 0.298882 0.893804 0.929598 
0.599917 0.0860342 0.954127 0.488294 0.534519 
0.873879 0.404157 0.000835308 0.093287 0.756331 
0.735431 0.602392 0.480015 0.923624 0.666858 
0.253788 0.244433 0.406747 0.991855 0.807297 
0.908959 0.56429 0.814958 0.725364 0.859872 
0.141614 0.720174 0.978484 0.295263 0.00425394 
0.60414 0.672617 0.488512 0.957727 0.288356 
0.614486 0.877658 0.200468 0.494496 0.696174 
0.457318 0.0757811 0.256666 0.0421705 0.246731 
0.0806561 0.786939 0.453985 0.634012 0.608373 
0.214073 0.488137 0.726971 0.332568 0.736555 
0.277731 0.469351 0.452561 0.712686 0.634349 
0.102262 0.622363 0.598237 0.659074 0.568218 
0.524678 0.89512 0.722248 0.563345 0.606676 
0.89929 0.312629 0.998456 0.901069 0.633703 
0.75217 0.204272 0.343581 0.204946 0.935871 
0.63438 0.486464 0.63091 0.37706 0.846452 
0.758451 0.534902 0.360153 0.873649 0.222275 
0.535439 0.387586 0.472748 0.534765 0.323231 
0.918441 0.25984 0.436678 0.622688 0.96907 
0.904749 0.749872 0.766986 0.0926259 0.555388 
0.716052 0.0448852 0.457812 0.70297 0.689497 
0.360855 0.178456 0.542355 0.421522 0.601357 
0.971041 0.557881 0.319763 0.331053 0.361781 
0.915132 0.584452 0.411143 0.589343 0.752859 
0.795063 0.755496 0.53866 0.55491 0.550918 
0.111653 0.773229 0.229735 0.403612 0.99633 
0.00712093 0.685502 0.643751 0.181335 0.346683 
0.291072 0.361025 0.405968 0.147689 0.255128 
0.153996 0.181828 0.419979 0.585183 0.134861 
0.925166 0.164653 0.445491 0.249646 0.849789 
0.997558 0.331405 0.171563 0.53492 0.112402 
0.385371 0.193556 0.0486262 0.979725 0.0938554 
0.833547 0.389888 0.583663 0.203241 0.790642 
0.9107 0.543936 0.475288 0.795419 0.792839 
0.813562 0.911713 0.224687 0.747135 0.45332 
0.897268 0.386966 0.459786 0.0722677 0.703496 
0.857356 0.947089 0.991736 0.274087 0.173404 
0.980072 0.504824 0.593605 0.783627 0.988273 
0.318273 0.42125 0.780493 0.958158 0.304236 
0.0838033 0.460674 0.873368 0.628789 0.318041 
0.968837 0.709536 0.335502 0.239554 0.785656 
0.11372 0.627009 0.219877 0.514861 0.962649 
0.889066 0.617099 0.374344 0.466581 0.670358 
0.93454 0.640198 0.242177 0.161083 0.533033 
0.662343 0.854214 0.744117 0.822043 0.290549 
0.388311 0.870175 0.931846 0.859454 0.395858 
0.260168 0.569323 0.499363 0.578098 0.637831 
0.071106 0.45498 0.397155 0.640191 0.434338 
0.764957 0.37953 0.210892 0.750227 0.789423 
0.625062 0.591572 0.997212 0.49067 0.353151 
0.619616 0.956072 0.0738157 0.70791 0.313149 
0.566632 0.892403 0.0890041 0.112138 0.392211 
0.456252 0.430363 0.944314 0.966299 0.8949 
0.551208 0.365891 0.668291 0.635115 0.471245 
0.82721 0.876447 0.84345 0.214842 0.432912 
0.609767 0.264403 0.41176 0.390541 0.395699 
0.517182 0.196072 0.577313 0.467665 0.532047 
0.775923 0.156291 0.16932 0.91241 0.0927268 
0.661808 0.962393 0.365962 0.945998 0.593034 
0.564814 0.505731 0.225451 0.286572 0.348352 
0.637049 0.297498 0.0467782 0.551264 0.593134 
0.237024 0.761553 0.994041 0.305674 0.0498163 
0.379296 0.189476 0.513447 0.676256 0.643683 
0.851322 0.876683 0.511147 0.682031 0.754295 
0.489303 0.40276 0.30626 0.255953 0.771287 
0.943502 0.792722 0.0338325 0.247578 0.631734 
0.934061 0.197055 0.34796 0.860302 0.923803 
0.591239 0.153946 0.742937 0.664774 0.725143 
0.350403 0.311893 0.585244 0.395425 0.705977 
0.568748 0.121262 0.198721 0.497231 0.595987 
0.909303 0.240365 0.114467 0.966509 0.336845 
0.0853648 0.604082 0.665371 0.475426 0.88902 
0.341526 0.211342 0.113591 0.690668 0.696811 
0.214582 0.949194 0.527584 0.755354 0.138773 
0.374402 0.574613 0.568781 0.972778 0.223785 
0.923286 0.985141 0.516938 0.296326 0.328147 
0.734273 0.786652 0.777913 0.380856 0.649005 
0.423993 0.680163 0.102963 0.537757 0.883816 
0.466402 0.473145 0.679728 0.877688 0.0922671 
0.153547 0.977971 0.671005 0.957965 0.868824 
0.279089 0.0174037 0.281296 0.811327 0.819294 
0.367981 0.617387 0.784717 0.495937 0.842843 
0.111933 0.195885 0.0347511 0.902495 0.757012 
0.723579 0.87091 0.441995 0.869136 0.595459 
0.290389 0.690978 0.132531 0.707367 0.233482 
0.217754 0.0805934 0.161613 0.28053 0.80721 
0.420427 0.308891 0.626679 0.258632 0.182797 
0.49338 0.795428 0.0142202 0.185266 0.892358 
0.533011 0.602627 0.260002 0.0866657 0.697707 
0.190248 0.151581 0.997461 0.108157 0.259273 
0.556033 0.0233149 0.362919 0.982641 0.425487 
0.660317 0.492312 0.50509 0.335953 0.285934 
0.853453 0.379952 0.843522 0.040564 0.658831 
0.362441 0.439406 0.0687816 0.603085 0.949538 
0.76371 0.488554 0.490441 0.0783742 0.744797 
0.563247 0.551636 0.0148886 0.235708 0.887189 
0.0503904 0.739447 0.0499229 0.649745 0.182788 
0.661412 0.855083 0.890925 0.983449 0.586132 
0.741224 0.483436 0.195046 0.515116 0.541741 
0.901434 0.81437 0.488242 0.643062 0.0398019 
0.257253 0.0126427 0.160435 0.980568 0.661826 
0.772942 0.0860548 0.365762 0.447565 0.433466 
0.888629 0.385566 0.167473 0.106894 0.115894 
0.312584 0.934346 0.0471844 0.737231 0.0331643 
0.664167 0.627943 0.223291 0.586594 0.608792 
0.274806 0.819794 0.832586 0.929574 0.324405 
0.137001 0.0162546 0.228066 0.796299 0.241763 
0.315401 0.0666643 0.0802493 0.161473 0.255844 
0.726212 0.0218858 0.213949 0.355481 0.681258 
0.132424 0.0772955 0.0187871 0.862446 0.71457 
0.974462 0.252074 0.588897 0.409283 0.999304 
0.0004476 0.225116 0.975038 0.618757 0.683519 
0.270421 0.3134 0.884893 0.550133 0.520244 
0.561742 0.97069 0.77435 0.204767 0.857233 
0.378495 0.746931 0.49038 0.425494 0.0345897 
0.363579 0.269622 0.223262 0.421643 0.270197 
0.268729 0.533851 0.303044 0.870483 0.640688 
0.119911 0.0621301 0.07208 0.293897 0.906859 
0.0266141 0.239017 0.807255 0.935321 0.992289 
0.182338 0.814736 0.07498 0.0248485 0.983836 
0.0681845 0.919834 0.729621 0.881957 0.829244 
0.677902 0.171921 0.417718 0.626403 0.548635 
0.431015 0.172702 0.00407581 0.997594 0.697255 
0.917123 0.41036 0.187219 0.364355 0.620318 
0.00787297 0.420684 0.128025 0.702708 0.864093 
0.640454 0.550006 0.85127 0.734721 0.62258 
0.590219 0.264356 0.573016 0.156776 0.070528 
0.570143 0.0548172 0.191684 0.770855 0.368732 
0.66696 0.729097 0.147997 0.418098 0.475138 
0.220836 0.621142 0.46444 0.529004 0.423534 
0.201813 0.210653 0.91672 0.643125 0.874062 
0.47402 0.414802 0.94102 0.294645 0.99838 
0.0705806 0.240771 0.89658 0.0261597 0.681576 
0.994532 0.342297 0.0360427 0.322822 0.646375 
0.138463 0.35032 0.0762504 0.877051 0.763959 
0.47425 0.710693 0.953527 0.217561 0.582766 
0.151715 0.936394 0.867785 0.0968741 0.592689 
0.919982 0.7445 0.146569 0.232641 0.657755 
0.559962 0.810801 0.734769 0.166549 0.745983 
0.349278 0.398519 0.265453 0.71776 0.78309 
0.554949 0.420188 0.508659 0.56301 0.305109 
0.48242 0.0903155 0.632827 0.745839 0.176121 
0.173222 0.0475921 0.716866 0.956124 0.29396 
0.670286 0.684371 0.756385 0.0497597 0.474201 
0.50337 0.276362 0.32929 0.541967 0.488542 
0.315538 0.791114 0.302208 0.65162 0.207985 
0.234883 0.0278495 0.564845 0.211257 0.238507 
0.329047 0.159079 0.806699 0.742028 0.734764 
0.0381864 0.376715 0.0336511 0.435057 0.424294 
0.0020203 0.797626 0.00715359 0.368116 0.904563 
0.870642 0.276249 0.646183 0.668084 0.68327 
0.356163 0.952899 0.786218 0.2759 0.438435 
0.287822 0.794884 0.41114 0.222137 0.596894 
0.942166 0.0908042 0.322852 0.440051 0.17199 
0.0661261 0.780004 0.476527 0.271329 0.58351 
0.0598402 0.92018 0.676732 0.139562 0.2261 
0.94087 0.372201 0.909245 0.117405 0.546126 
0.699595 0.0925565 0.603128 0.446019 0.701779 
0.813405 0.496032 0.46814 0.760766 0.545393 
0.940775 0.843621 0.442305 0.307173 0.465352 
0.295716 0.820845 0.228737 0.378095 0.258312 
0.996192 0.883828 0.380295 0.488626 0.298168 
0.642278 0.554656 0.0596418 0.114263 0.611206 
0.944385 0.9945 0.253859 0.856771 0.661877 
0.811313 0.224519 0.396861 0.917422 0.113105 
0.452095 0.0905877 0.890504 0.134407 0.705236 
0.645429 0.539488 0.991086 0.0447914 0.12459 
0.828469 0.82611 0.742319 0.567857 0.337718 
0.606825 0.538932 0.937087 0.473573 0.682772 
0.642184 0.734585 0.674711 0.202121 0.405978 
0.073643 0.277048 0.698299 0.602683 0.294181 
0.211297 0.737819 0.20286 0.554054 0.802136 
0.170793 0.818235 0.0457519 0.120132 0.559485 
0.56941 0.333904 0.436893 0.58419 0.632512 
0.787054 0.0366155 0.0120042 0.452435 0.219792 
0.395998 0.348951 0.437357 0.0034472 0.0674225 
0.965987 0.0266262 0.601248 0.285337 0.912765 
0.532583 0.787801 0.709705 0.453915 0.076851 
0.191962 0.490928 0.284348 0.910506 0.315428 
0.332248 0.368001 0.0905273 0.151712 0.723116 
0.478261 0.403415 0.117596 0.925762 0.0467353 
0.943158 0.0380425 0.927775 0.12906 0.209186 
0.371948 0.629629 0.0306891 0.718022 0.230214 
0.518034 0.767703 0.283532 0.204669 0.781642 
0.835176 0.312486 0.838226 0.360919 0.318296 
0.592743 0.335027 0.562692 0.336205 0.842723 
0.233572 0.999465 0.439111 0.417851 0.618843 
0.0678504 0.595237 0.772384 0.24621 0.20645 
0.690153 0.995391 0.752457 0.75913 0.513991 
0.432934 0.851709 0.507641 0.585573 0.230753 
0.628171 0.256821 0.107437 0.875536 0.0533975 
0.136648 0.604561 0.419788 0.713411 0.923717 
0.921341 0.880104 0.565531 0.181151 0.206321 
0.993427 0.190219 0.994539 0.946709 0.0356034 
0.6322 0.845261 0.738639 0.185716 0.274981 
0.364695 0.879035 0.0829398 0.948202 0.801735 
0.0153696 0.820022 0.893796 0.823547 0.445486 
0.0205338 0.745427 0.870045 0.0236965 0.180653 
0.495477 0.487799 0.922839 0.603235 0.881855 
0.259298 0.306045 0.349175 0.771767 0.68432 
0.928238 0.647603 0.939012 0.561568 0.956617 
0.396931 0.426743 0.12432 0.631844 0.989221 
0.206502 0.0938227 0.772126 0.0424742 0.752468 
0.410864 0.98837 0.248243 0.449072 0.713027 
0.56735 0.14239 0.863936 0.459411 0.654673 
0.147783 0.788829 0.243539 0.8655 0.284353 
0.493123 0.649276 0.193221 0.228799 0.333127 
0.831736 0.892864 0.264653 0.442677 0.173958 
0.699334 0.0236768 0.0108251 0.111665 0.829116 
0.10911 0.607168 0.167553 0.0357932 0.123079 
0.884597 0.165921 0.955826 0.160512 0.905183 
0.443227 0.367647 0.447812 0.127359 0.176128 
0.869044 0.272669 0.314957 0.952464 0.609571 
0.157888 0.189438 0.342084 0.949085 0.837429 
0.314395 0.107101 0.669743 0.38907 0.381483 
0.493853 0.468157 0.208515 0.33786 0.0406844 
0.497253 0.626398 0.198635 0.515474 0.239466 
0.184452 0.566614 0.779555 0.888473 0.967173 
0.00904537 0.33762 0.348256 0.36428 0.916628 
0.200681 0.179026 0.796403 0.50444 0.869268 
0.224693 0.0118312 0.81341 0.748934 0.546532 
0.290414 0.285305 0.484438 0.470103 0.208952 
0.582677 0.153332 0.37352 0.105847 0.553814 
0.946365 0.976892 0.99948 0.123531 0.124148 
0.400324 0.226407 0.333216 0.0655828 0.836663 
0.529013 0.181655 0.132394 0.979396 0.527524 
0.856259 0.31634 0.740095 0.843877 0.603431 
0.0676656 0.532022 0.209024 0.348484 0.149547 
0.559632 0.840419 0.336687 0.942181 0.923054 
0.965658 0.591877 0.727031 0.548188 0.797119 
0.000769964 0.728872 0.86936 0.311765 0.0453669 
0.300617 0.748206 0.144285 0.0584123 0.376974 
0.494946 0.933074 0.168483 0.579276 0.699 
0.17234 0.290182 0.0978614 0.156943 0.528896 
0.111563 0.219942 0.44035 0.581146 0.858463 
0.240994 0.50082 0.973233 0.962704 0.824802 
0.662668 0.295628 0.922293 0.0100365 0.518572 
0.17289 0.319976 0.60152 0.69014 0.737439 
0.163831 0.0161532 0.618646 0.47456 0.384614 
0.450387 0.0721515 0.789271 0.1148 0.571924 
0.267635 0.481941 0.210542 0.777934 0.256196 
0.442671 0.925152 0.568793 0.992519 0.9267 
0.469322 0.0432424 0.635089 0.287949 0.159301 
0.969252 0.251336 0.349241 0.704339 0.659162 
0.296627 0.696918 0.202106 0.587973 0.592818 
0.481293 0.576221 0.656951 0.490432 0.124224 
0.594106 0.568149 0.0677306 0.862801 0.954537 
0.199866 0.78721 0.827826 0.816895 0.613282 
0.0647532 0.551705 0.259593 0.117741 0.183981 
0.430112 0.752419 0.0963813 0.122884 0.131745 
0.655063 0.494928 0.212705 0.767117 0.989723 
0.835162 0.368912 0.960589 0.872212 0.0543385 
0.523693 0.909074 0.399426 0.9444 0.911807 
0.16092 0.119965 0.913096 0.383241 0.852307 
0.697626 0.652969 0.984651 0.14715 0.458082 
0.0289517 0.063003 0.735025 0.326085 0.239078 
0.242705 0.111382 0.0975142 0.559567 0.637496 
0.951717 0.153341 0.0276254 0.606029 0.19844 
0.242718 0.29111 0.965935 0.0708019 0.103545 
0.00134817 0.864906 0.288214 0.871435 0.914081 
0.304547 0.872188 0.0275988 0.0659638 0.747698 
0.622594 0.00907386 0.844266 0.46534 0.659919 
0.311021 0.547704 0.970285 0.0777139 0.862961 
0.0651193 0.0788068 0.370447 0.344577 0.499803 
0.800495 0.601946 0.449142 0.730785 0.904404 
0.156495 0.343703 0.0197921 0.599164 0.911715 
0.816857 0.29832 0.0736133 0.207057 0.123649 
0.756331 0.564457 0.37285 0.946595 0.238483 
0.609664 0.616896 0.0198124 0.283994 0.0526417 
0.132948 0.571584 0.6054 0.506046 0.607281 
0.272623 0.487386 0.653206 0.155974 0.0608102 
0.777864 0.872085 0.16509 0.327936 0.674412 
0.43424 0.184718 0.794226 0.0384537 0.0538413 
0.895731 0.563311 0.855396 0.28368 0.336365 
0.921 0.245663 0.326188 0.998977 0.628162 
0.40636 0.803109 0.416783 0.383923 0.367463 
0.670968 0.293846 0.0859167 0.0386837 0.147046 
0.661298 0.278631 0.0580531 0.845369 0.728077 
0.0626308 0.304082 0.0513578 0.112849 0.93227 
0.252039 0.0443558 0.734024 0.00920366 0.263281 
0.62935 0.635775 0.447098 0.100517 0.0677224 
0.299744 0.759963 0.428731 0.176695 0.733227 
0.116748 0.491766 0.483347 0.823755 0.445711 
0.382227 0.287339 0.35239 0.498749 0.842983 
0.477165 0.502897 0.755245 0.56681 0.593537 
0.220676 0.468056 0.733703 0.513721 0.497645 
0.865922 0.73658 0.784771 0.0617435 0.491889 
0.00252073 0.769703 0.80714 0.270019 0.972627 
0.86217 0.899231 0.324884 0.200449 0.718351 
0.0252087 0.0232874 0.848847 0.376339 0.697516 
0.767416 0.150386 0.936707 0.139086 0.206351 
0.303997 0.407871 0.737603 0.572115 0.447582 
0.834518 0.33483 0.966888 0.205071 0.318521 
0.541228 0.130007 0.791421 0.121315 0.739066 
0.24169 0.718942 0.618799 0.506306 0.552001 
0.778691 0.0527766 0.84622 0.0150729 0.375174 
0.293565 0.317421 0.252158 0.988357 0.0626173 
0.331303 0.73059 0.452405 0.694057 0.399577 
0.279763 0.934773 0.492758 0.475343 0.565393 
0.918595 0.700976 0.653066 0.942684 0.876543 
0.910204 0.0123251 0.27353 0.476301 0.526722 
0.0601825 0.351342 0.767779 0.129163 0.447341 
0.155231 0.0148566 0.188631 0.752358 0.83986 
0.853176 0.773798 0.962246 0.268405 0.970567 
0.556568 0.773013 0.253907 0.984209 0.992991 
0.555107 0.420794 0.959664 0.858803 0.426898 
0.846894 0.618155 0.0659211 0.53019 0.0803103 
0.484365 0.099759 0.923061 0.659918 0.871122 
0.0180989 0.829194 0.16255 0.897176 0.208053 
0.819089 0.194901 0.918035 0.830682 0.984467 
0.000138077 0.383496 0.117061 0.358172 0.436855 
0.124288 0.0934411 0.884679 0.122544 0.988891 
0.827238 0.762786 0.525953 0.843767 0.0253674 
0.849764 0.0876912 0.124342 0.763387 0.260701 
0.842301 0.119616 0.812038 0.625602 0.31553 
0.915382 0.691842 0.215477 0.326256 0.0253289 
0.260178 0.406868 0.181333 0.418756 0.502966 
0.105991 0.407531 0.931929 0.0698611 0.598369 
0.794971 0.550538 0.801651 0.880491 0.530333 
0.404172 0.262376 0.968964 0.0218678 0.649878 
0.317458 0.136002 0.0319477 0.549168 0.114066 
0.153204 0.395747 0.484344 0.298613 0.265323 
0.872311 0.618611 0.525892 0.265232 0.964114 
0.856896 0.0647989 0.584765 0.0820395 0.860106 
0.828555 0.164643 0.810235 0.994677 0.238622 
0.892205 0.619944 0.279305 0.349223 0.503503 
0.602868 0.104801 0.577967 0.871585 0.13557 
0.750097 0.50981 0.895785 0.414481 0.692311 
0.887985 0.00652245 0.10878 0.792055 0.206994 
0.282785 0.456004 0.568893 0.427237 0.0903053 
0.148982 0.0769116 0.856428 0.158975 0.544053 
0.316848 0.788532 0.815815 0.00783331 0.128039 
0.632692 0.0714856 0.81832 0.337248 0.172461 
0.130347 0.232386 0.105396 0.221383 0.298124 
0.707143 0.257539 0.71924 0.441094 0.271618 
0.735816 0.884822 0.732326 0.428187 0.153643 
0.29192 0.616607 0.347701 0.190889 0.266304 
0.407893 0.521549 0.830216 0.55998 0.234948 
0.531815 0.12723 0.117721 0.0865624 0.537388 
0.209568 0.380627 0.0459143 0.738049 0.107308 
0.324436 0.930192 0.319336 0.679586 0.552224 
0.309942 0.513337 0.219095 0.313449 0.65666 
0.509169 0.0991217 0.256585 0.0485448 0.0942776 
0.164983 0.592827 0.0316435 0.293222 0.721085 
0.815127 0.399709 0.383072 0.562595 0.563207 
0.753741 0.979727 0.705859 0.786529 0.648136 
0.705627 0.398971 0.68261 0.73854 0.0790247 
0.739852 0.573927 0.424523 0.493194 0.10943 
0.951899 0.71487 0.086351 0.489147 0.846042 
0.870757 0.660049 0.689994 0.0737813 0.164737 
0.58814 0.236457 0.603397 0.0835958 0.177183 
0.969783 0.881338 0.0528066 0.881036 0.134918 
0.0148589 0.223895 0.258636 0.716273 0.598744 
0.292787 0.795852 0.253821 0.825089 0.472528 
0.936683 0.649026 0.750109 0.0438047 0.2391 
0.651116 0.0696348 0.229387 0.321461 0.898857 
0.489961 0.39405 0.555357 0.901852 0.693426 
0.0937879 0.678421 0.647432 0.818709 0.20755 
0.245781 0.55692 0.193631 0.930371 0.932698 
0.563953 0.507145 0.861146 0.0702294 0.671102 
0.43975 0.501374 0.755588 0.921825 0.785136 
0.275289 0.631705 0.435755 0.530506 0.516027 
0.93965 0.777261 0.869484 0.912317 0.759343 
0.816508 0.0555364 0.499425 0.775691 0.286059 
0.556101 0.282677 0.852055 0.668274 0.903833 
0.51582 0.570072 0.207603 0.602476 0.3962 
0.151061 0.194153 0.539957 0.140056 0.664379 
0.440275 0.64999 0.778057 0.0893379 0.136269 
0.399571 0.121363 0.898368 0.225277 0.166315 
0.446587 0.800297 0.944738 0.176674 0.860548 
0.404415 0.58922 0.77398 0.898127 0.757488 
0.0047319 0.806456 0.621138 0.971773 0.931286 
0.840113 0.829503 0.297153 0.327295 0.360377 
0.726923 0.476737 0.560371 0.32552 0.762902 
0.277808 0.710331 0.194375 0.485813 0.309244 
0.836329 0.861445 0.0170178 0.430282 0.629426 
0.141976 0.888658 0.983049 0.759003 0.626147 
0.0415221 0.391905 0.247496 0.304839 0.451528 
0.489114 0.1748 0.993754 0.922928 0.889546 
0.91202 0.0357624 0.657763 0.579146 0.10412 
0.218992 0.636752 0.153241 0.433256 0.859853 
0.146077 0.593107 0.560068 0.767957 0.0235739 
0.611843 0.688199 0.0985119 0.642472 0.954712 
0.574088 0.593944 0.7782 0.859878 0.312976 
0.247397 0.652868 0.975121 0.67434 0.811726 
0.69353 0.34897 0.697064 0.584881 0.612853 
0.0578658 0.673499 0.542206 0.214382 0.478949 
0.471077 0.67758 0.981152 0.00961218 0.760423 
0.749521 0.656917 0.774199 0.561803 0.490178 
0.379317 0.0469607 0.113992 0.401372 0.637066 
0.304059 0.501113 0.205259 0.410804 0.994749 
0.469613 0.864436 0.585487 0.257852 0.976418 
0.757854 0.462084 0.676257 0.185471 0.72529 
0.916735 0.233535 0.925694 0.172865 0.0552192 
0.772695 0.404328 0.690232 0.662513 0.948184 
0.188823 0.0249042 0.338714 0.760671 0.0555344 
0.488996 0.558876 0.738181 0.21054 0.560996 
0.292759 0.840887 0.794247 0.114439 0.245646 
0.883568 0.474696 0.632515 0.0435632 0.383034 
0.381232 0.635731 0.936969 0.388164 0.146986 
0.844787 0.657446 0.299705 0.295818 0.459703 
0.256367 0.135662 0.622438 0.874216 0.435601 
0.347821 0.376039 0.662037 0.902725 0.162609 
0.0451427 0.620056 0.111785 0.355943 0.570671 
0.541916 0.0647277 0.234457 0.0859999 0.514589 
0.464061 0.656412 0.0781003 0.555267 0.677037 
0.242376 0.306814 0.409445 0.032326 0.4915 
0.527249 0.0533161 0.720271 0.0132829 0.491973 
0.192644 0.983028 0.769098 0.245355 0.00847201 
0.940324 0.00120526 0.220098 0.112921 0.41634 
0.558203 0.0855853 0.57703 0.980115 0.542499 
0.286397 0.377556 0.257747 0.412645 0.4434 
0.11197 0.765138 0.65055 0.571517 0.477189 
0.774377 0.410354 0.80919 0.789968 0.163284 
0.735058 0.826119 0.178486 0.713314 0.780871 
0.260661 0.140266 0.0838226 0.628745 0.213763 
0.236499 0.164799 0.70659 0.0364491 0.607555 
0.0704008 0.741635 0.66279 0.207296 0.384653 
0.411111 0.806668 0.481489 0.88043 0.239753 
0.900219 0.213912 0.476765 0.5727 0.716049 
0.424119 0.414272 0.61571 0.00721776 0.947661 
0.528227 0.684654 0.129215 0.122238 0.993937 
0.535755 0.238776 0.865207 0.255242 0.0852119 
0.407008 0.278996 0.134776 0.809751 0.978823 
0.0510944 0.376146 0.00613108 0.942983 0.333419 
0.46359 0.112744 0.842129 0.722068 0.727598 
0.170985 0.805819 0.452891 0.908145 0.581356 
0.803705 0.334543 0.801365 0.615619 0.170887 
0.986594 0.1005 0.132425 0.0277906 0.793636 
0.644886 0.839565 0.322706 0.374292 0.103489 
0.369927 0.627365 0.80083 0.367673 0.70836 
0.924867 0.135188 0.749809 0.708628 0.182248 
0.658408 0.0842537 0.0284407 0.42367 0.847661 
0.895022 0.104712 0.637852 0.89784 0.719084 
0.494156 0.860627 0.92912 0.143369 0.346613 
0.936495 0.201169 0.580484 0.591815 0.416972 
0.520631 0.585744 0.843866 0.75045 0.465946 
0.0742447 0.816086 0.708702 0.277388 0.688497 
0.770553 0.67927 0.945721 0.990284 0.169418 
0.933281 0.568053 0.596176 0.700187 0.205587 
0.637528 0.341709 0.226582 0.866655 0.022679 
0.228505 0.924359 0.71181 0.0300086 0.61535 
0.84741 0.231408 0.323395 0.309502 0.0331442 
0.163292 0.819453 0.363364 0.279302 0.422795 
0.0905008 0.879489 0.657536 0.11002 0.379255 
0.561218 0.356871 0.951423 0.939966 0.769786 
0.915604 0.424628 0.735287 0.0262694 0.629075 
0.678777 0.545112 0.670741 0.732347 0.238726 
0.168093 0.204904 0.355168 0.359174 0.83537 
0.546246 0.9683 0.0597966 0.0994768 0.44279 
0.116592 0.663138 0.638721 0.472397 0.544587 
0.620712 0.170291 0.952763 0.811596 0.0832219 
0.332124 0.110485 0.178005 0.41394 0.372643 
0.977505 0.373481 0.593495 0.0474692 0.885578 
0.276662 0.716676 0.235595 0.797458 0.512301 
0.968941 0.274761 0.012674 0.78171 0.942248 
0.151153 0.0533037 0.289643 0.604583 0.622199 
0.159326 0.669731 0.896526 0.858903 0.727243 
0.505073 0.160602 0.475717 0.990525 0.405646 
0.0377985 0.528501 0.496627 0.491457 0.252388 
0.0575415 0.619786 0.188503 0.998017 0.116387 
0.543049 0.101924 0.322613 0.551469 0.172187 
0.433384 0.637533 0.925466 0.584527 0.683385 
0.762025 0.413213 0.159151 0.671704 0.580106 
0.11016 0.543342 0.717086 0.0182717 0.495039 
0.00973498 0.669988 0.0439369 0.038226 0.634014 
0.639707 0.972717 0.302559 0.939741 0.208797 
0.623057 0.467434 0.908883 0.393687 0.641778 
0.743231 0.449578 0.495677 0.279977 0.382163 
0.448746 0.998354 0.416948 0.500189 0.248864 
0.375384 0.276185 0.545523 0.483043 0.0467687 
0.378879 0.178701 0.406864 0.0608171 0.703394 
0.488836 0.00645422 0.925272 0.0634228 0.0522338 
0.126977 0.425332 0.5074 0.0698742 0.957983 
0.225536 0.0305955 0.900423 0.123321 0.997936 
0.370553 0.646632 0.0780284 0.650612 0.103876 
0.917818 0.33793 0.990103 0.163117 0.968062 
0.160038 0.965856 0.0347267 0.640084 0.923105 
0.422788 0.398799 0.420012 0.83214 0.0519954 
0.466086 0.877676 0.551147 0.275758 0.903404 
0.719634 0.258983 0.860931 0.646984 0.948861 
0.956188 0.91519 0.169947 0.0432119 0.413838 
0.532472 0.0132653 0.278587 0.40283 0.329208 
0.390047 0.911329 0.122265 0.254775 0.363345 
0.971784 0.320363 0.488045 0.205991 0.042806 
0.665576 0.607575 0.371663 0.389422 0.564151 
0.248079 0.0570046 0.473894 0.569433 0.82364 
0.423184 0.83023 0.940402 0.0285596 0.90897 
0.64202 0.657576 0.49177 0.773446 0.896452 
0.466866 0.884059 0.449965 0.72304 0.0630601 
0.970695 0.812249 0.177724 0.518519 0.341332 
0.363676 0.658639 0.461153 0.183629 0.903808 
0.432132 0.329656 0.675723 0.181481 0.473536 
0.221259 0.178305 0.613272 0.672651 0.0474059 
0.621588 0.540433 0.903341 0.60898 0.504661 
0.303222 0.387348 0.945865 0.684615 0.317477 
0.290098 0.93353 0.056003 0.979945 0.768171 
0.0542024 0.67429 0.900453 0.84148 0.345812 
0.945363 0.361013 0.282119 0.526605 0.858479 
0.403351 0.879043 0.62526 0.667078 0.00761874 
0.876716 0.414682 0.547206 0.0900843 0.868053 
0.478062 0.298895 0.383055 0.249127 0.226898 
0.842431 0.949951 0.540789 0.499706 0.191286 
0.0974892 0.914038 0.671524 0.94029 0.146418 
0.315803 0.099659 0.272337 0.261114 0.154349 
0.998737 0.841891 0.929537 0.967386 0.880862 
0.250081 0.0638043 0.605143 0.25794 0.0733703 
0.433115 0.644459 0.00581315 0.567701 0.310571 
0.646072 0.584564 0.968831 0.124016 0.392568 
0.133612 0.514648 0.846578 0.304883 0.0420038 
0.487978 0.522081 0.340783 0.346807 0.156741 
0.629368 0.468242 0.0135482 0.189665 0.212752 
0.579319 0.87062 0.7616 0.641976 0.600981 
0.756422 0.953625 0.480449 0.580572 0.630276 
0.718297 0.704244 0.301952 0.795346 0.730466 
0.877794 0.233505 0.735194 0.804169 0.979611 
0.897847 0.503506 0.142705 0.960202 0.553058 
0.225112 0.425594 0.445886 0.87978 0.996788 
0.691125 0.070108 0.784467 0.623646 0.00667621 
0.578543 0.929096 0.938311 0.290359 0.00405609 
0.901469 0.655368 0.19844 0.357501 0.0922662 
0.645776 0.538118 0.94204 0.182443 0.752537 
0.552828 0.473246 0.605003 0.138086 0.699808 
0.434004 0.847963 0.755222 0.170863 0.0584208 
0.686254 0.860306 0.366654 0.444464 0.732077 
0.0527624 0.401459 0.909327 0.919393 0.769772 
0.789057 0.402422 0.65839 0.0456161 0.487173 
0.0889235 0.844826 0.345925 0.139669 0.309195 
0.0140346 0.93149 0.55978 0.931667 0.137205 
0.386329 0.370165 0.0688046 0.189337 0.199482 
0.696265 0.832744 0.725893 0.283485 0.221795 
0.801694 0.308443 0.539944 0.0934587 0.31501 
0.984376 0.349804 0.45405 0.00665088 0.985821 
0.00508222 0.557719 0.75421 0.399667 0.0504876 
0.351603 0.51112 0.294175 0.0711339 0.571186 
0.625031 0.955951 0.924155 0.838758 0.618325 
0.434799 0.292703 0.322747 0.281546 0.591512 
0.644729 0.0770631 0.270565 0.871899 0.12533 
0.889736 0.0810926 0.306541 0.782581 0.196472 
0.89159 0.233845 0.323533 0.455616 0.161183 
0.818343 0.489236 0.0930201 0.0779438 0.892047 
0.556589 0.150087 0.631771 0.80698 0.499078 
0.310751 0.731053 0.416391 0.0105793 0.387383 
0.831327 0.439507 0.426391 0.851555 0.673949 
0.277254 0.895848 0.469773 0.178247 0.769172 
0.0528771 0.510058 0.427642 0.161264 0.30861 
0.215802 0.43288 0.0443032 0.435232 0.863495 
0.834843 0.285955 0.546376 0.328229 0.561844 
0.775504 0.969452 0.573067 0.669195 0.0497413 
0.0358092 0.329627 0.436628 0.686333 0.89967 
0.792993 0.459804 0.0870117 0.753724 0.408494 
0.762099 0.00955756 0.508535 0.4437 0.0848913 
0.268216 0.344202 0.331283 0.513269 0.953991 
0.470688 0.698524 0.824328 0.911182 0.920512 
0.218394 0.702961 0.0247421 0.397857 0.337734 
0.511145 0.288657 0.753638 0.732426 0.575785 
0.42411 0.52885 0.433964 0.933443 0.656372 
0.53199 0.360224 0.82479 0.409554 0.478083 
0.00984864 0.300409 0.4047 0.270466 0.564572 
0.392456 0.969125 0.807032 0.558172 0.310446 
0.128144 0.439597 0.675273 0.217149 0.553989 
0.78046 0.691356 0.613167 0.189526 0.158119 
0.333395 0.694876 0.740189 0.299676 0.719738 
0.547786 0.559365 0.0322284 0.344522 0.832744 
0.768399 0.136827 0.768257 0.258642 0.755244 
0.394297 0.770522 0.720984 0.781757 0.218633 
0.712437 0.505758 0.999519 0.490803 0.188851 
0.541823 0.296246 0.0542554 0.362709 0.577589 
0.559808 0.0881253 0.583952 0.0147994 0.22061 
0.357463 0.462547 0.338472 0.220513 0.358786 
0.763534 0.825871 0.568688 0.205949 0.288061 
0.129777 0.43852 0.449124 0.893459 0.375279 
0.907172 0.159736 0.533392 0.325326 0.70625 
0.503982 0.790672 0.916207 0.471568 0.519656 
0.370321 0.724668 0.528178 0.645984 0.0777664 
0.0690841 0.119396 0.859951 0.694562 0.895781 
0.334778 0.991422 0.164423 0.335517 0.0136915 
0.869227 0.0347242 0.723212 0.164847 0.272857 
0.438402 0.642139 0.134065 0.0798621 0.365644 
0.882916 0.722713 0.93604 0.976342 0.203121 
0.729604 0.267953 0.0313746 0.381007 0.937671 
0.859967 0.839332 0.895848 0.664396 0.613055 
0.486947 0.0147127 0.642991 0.0160289 0.0490415 
0.924518 0.703359 0.568847 0.836445 0.571499 
0.833395 0.965132 0.574196 0.180156 0.4176 
0.373778 0.166821 0.656194 0.22497 0.325674 
0.0673662 0.270754 0.167646 0.343659 0.810844 
0.702991 0.357001 0.0280222 0.239261 0.531436 
0.512351 0.860967 0.00390388 0.888737 0.10895 
0.516906 0.822047 0.415868 0.170147 0.589458 
0.3378 0.403852 0.872835 0.0100051 0.79994 
0.608052 0.58762 0.72113 0.813101 0.4917 
0.708237 0.649169 0.35429 0.732039 0.426938 
0.581814 0.158156 0.705008 0.332639 0.253019 
0.556649 0.454336 0.303532 0.365317 0.0677109 
0.618959 0.227024 0.1846 0.42572 0.260608 
0.297336 0.590043 0.745466 0.89072 0.483857 
0.0593514 0.426947 0.376123 0.196634 0.850169 
0.1895 0.732663 0.551994 0.164039 0.129464 
0.470478 0.352599 0.457372 0.772372 0.485758 
0.963192 0.138678 0.267875 0.00303941 0.740716 
0.9065 0.306673 0.21029 0.115872 0.958846 
0.546814 0.928186 0.543603 0.144 0.876386 
0.448566 0.883178 0.826785 0.994485 0.12662 
0.910669 0.606224 0.461544 0.747217 0.291991 
0.341245 0.612934 0.611555 0.665149 0.0139839 
0.755913 0.957074 0.0819607 0.332932 0.09046 
0.101549 0.491709 0.110843 0.846802 0.21578 
0.783086 0.233933 0.777579 0.993849 0.26597 
0.481624 0.295451 0.153575 0.0378167 0.0880397 
0.795566 0.299623 0.807309 0.268898 0.303641 
0.798117 0.903113 0.926083 0.22402 0.302814 
0.787944 0.470748 0.864852 0.683108 0.733181 
0.113008 0.573001 0.865718 0.0829632 0.021108 
0.417661 0.566796 0.00326176 0.814435 0.136802 
0.943306 0.0851946 0.890477 0.202787 0.329163 
0.784034 0.0305947 0.469001 0.923422 0.594806 
0.183023 0.537107 0.614487 0.694363 0.411926 
0.724414 0.12161 0.530305 0.417073 0.552319 
0.226618 0.445381 0.70689 0.570679 0.4241 
0.399976 0.168088 0.31517 0.0103923 0.914385 
0.301748 0.0458786 0.0888231 0.856061 0.450114 
0.356658 0.873989 0.3948 0.14472 0.604522 
0.603357 0.43934 0.0140968 0.928721 0.539383 
0.874445 0.496776 0.212635 0.834648 0.770534 
0.313504 0.451535 0.882705 0.578681 0.828027 
0.400639 0.736359 0.215951 0.533246 0.932511 
0.136957 0.640011 0.0187353 0.638741 0.193508 
0.467354 0.3709 0.378566 0.123964 0.453901 
0.997371 0.851832 0.068023 0.921239 0.0779762 
0.382677 0.87943 0.60106 0.953616 0.118712 
0.0655614 0.144528 0.65371 0.537373 0.963603 
0.343539 0.734628 0.560064 0.46506 0.800089 
0.257369 0.810781 0.714679 0.0128814 0.0837667 
0.850462 0.72365 0.876745 0.831695 0.0360848 
0.520856 0.614623 0.552161 0.54608 0.150274 
0.452684 0.617958 0.763328 0.48773 0.353898 
0.438074 0.465021 0.332601 0.48918 0.899752 
0.936796 0.150845 0.116139 0.591637 0.942405 
0.638748 0.34954 0.782168 0.188406 0.0247868 
0.941622 0.569755 0.212349 0.639091 0.657719 
0.121672 0.0413448 0.66393 0.757235 0.979235 
0.954462 0.0582778 0.184667 0.250195 0.498866 
0.928388 0.157899 0.826378 0.31013 0.951354 
0.631593 0.547189 0.207751 0.805545 0.795245 
0.839886 0.303001 0.0146162 0.18472 0.649815 
0.555808 0.231945 0.625111 0.774282 0.473118 
0.0353136 0.309973 0.676858 0.880259 0.717103 
0.0819768 0.934562 0.157926 0.707725 0.302067 
0.828698 0.458873 0.715012 0.407064 0.0548703 
0.769659 0.954915 0.412616 0.497239 0.124758 
0.293427 0.924527 0.914581 0.146044 0.18879 
0.323202 0.156913 0.798753 0.487001 0.928632 
0.553775 0.274169 0.232946 0.380608 0.480425 
0.954025 0.556094 0.678064 0.482357 0.749549 
0.384515 0.129015 0.721467 0.0545536 0.711376 
0.264896 0.464582 0.0356247 0.75933 0.656627 
0.982954 0.772719 0.778588 0.450659 0.44771 
0.848347 0.687081 0.708933 0.608086 0.990136 
0.97811 0.939488 0.819294 0.285946 0.351028 
0.0118396 0.995097 0.0306158 0.405139 0.79013 
0.228912 0.859339 0.0981118 0.752469 0.622849 
0.586224 0.148235 0.649407 0.378785 0.788106 
0.782586 0.512341 0.449591 0.26524 0.327033 
0.242829 0.269087 0.709122 0.0274044 0.697377 
0.295053 0.653437 0.205322 0.69367 0.213218 
0.676496 0.434965 0.799461 0.696039 0.730793 
0.51523 0.776726 0.632049 0.277926 0.787422 
0.400284 0.208983 0.0756398 0.0534145 0.526462 
0.965548 0.9104 0.427693 0.676438 0.0226468 
0.857114 0.329016 0.0661434 0.152888 0.855894 
0.487748 0.901425 0.999706 0.343756 0.365121 
0.26639 0.161897 0.291916 0.169539 0.503785 
0.628464 0.170058 0.263221 0.325339 0.115184 
0.23943 0.387779 0.550439 0.716947 0.994276 
0.612654 0.680752 0.498802 0.570856 0.171253 
0.191109 0.537882 0.292254 0.158436 0.867315 
0.177183 0.653974 0.954781 0.662285 0.852524 
3.79934e-05 0.642089 0.121163 0.262403 0.954768 
0.377652 0.320015 0.117065 0.690807 0.551823 
0.141225 0.222246 0.2486 0.830046 0.889173 
0.129491 0.346638 0.498081 0.822279 0.154403 
0.842801 0.375808 0.696058 0.0240132 0.628529 
0.924447 0.859519 0.872344 0.436959 0.022449 
0.463152 0.425565 0.0478238 0.174887 0.28383 
0.442622 0.938638 0.641665 0.770332 0.829721 
0.945267 0.0117822 0.186459 0.989665 0.286849 
0.0841575 0.536775 0.975352 0.273706 0.0647984 
0.150917 0.853969 0.0357215 0.539208 0.461296 
0.0663028 0.182449 0.138524 0.607571 0.758986 
0.644927 0.634325 0.484885 0.127707 0.81117 
0.201878 0.799714 0.343394 0.999032 0.225907 
0.0390982 0.497943 0.130702 0.0699553 0.153724 
0.999226 0.524395 0.631008 0.665962 0.304176 
0.907588 0.891443 0.537057 0.299475 0.353502 
0.65859 0.637346 0.762284 0.907642 0.897026 
0.0564717 0.635656 0.405736 0.921185 0.54588 
0.84154 0.90646 0.0158631 0.993372 0.280368 
0.567886 0.562971 0.233953 0.909096 0.783551 
0.624017 0.683773 0.344456 0.463922 0.264211 
0.771114 0.783455 0.578379 0.038387 0.285847 
0.254726 0.0596113 0.702402 0.675134 0.53453 
0.589621 0.323061 0.688945 0.543384 0.231747 
0.76571 0.25575 0.966659 0.649066 0.470011 
0.277526 0.0212725 0.759834 0.567749 0.669125 
0.229431 0.399272 0.872132 0.704136 0.425005 
0.160457 0.626024 0.853986 0.410831 0.239714 
0.726723 0.172774 0.133244 0.570912 0.549074 
0.1375 0.448562 0.669777 0.729769 0.157193 
0.313717 0.889689 0.791756 0.26079 0.816887 
