2100 5
0.651873 0.310861 0.175431 0.910263 0.272812 
0.911775 0.391845 0.572266 0.55257 0.667456 
0.272398 0.846339 0.561304 0.100351 0.589336 
0.956856 0.353268 0.516465 0.863534 0.150388 
0.173194 0.523347 0.578661 0.574925 0.615587 
0.401562 0.178719 0.935752 0.300722 0.110759 
0.569314 0.624471 0.675462 0.875148 0.879026 
0.294525 0.557302 0.198205 0.973194 0.736984 
0.82279 0.214778 0.120778 0.466337 0.987875 
0.602793 0.370945 0.545507 0.851983 0.13904 
0.32643 0.403747 0.428382 0.280867 0.464894 
0.948785 0.611852 0.744444 0.777975 0.767194 
0.895863 0.117139 0.510761 0.361978 0.101209 
0.601076 0.177454 0.514582 0.180842 0.461273 
0.69652 0.0204047 0.972239 0.344415 0.250192 
0.301477 0.499523 0.481681 0.635679 0.344773 
0.893959 0.530714 0.204263 0.0645364 0.166288 
0.14299 0.520871 0.563106 0.940159 0.619962 
0.770525 0.642003 0.805873 0.951393 0.569404 
0.814871 0.57416 0.204622 0.278483 0.331837 
0.16355 0.688175 0.0382134 0.0390955 0.707084 
0.131955 0.806074 0.0136734 0.459688 0.0806735 
0.847629 0.104439 0.417639 0.22795 0.722019 
0.566733 0.335037 0.715549 0.242589 0.629902 
0.530926 0.318069 0.0663142 0.997235 0.472202 
0.395121 0.13606 0.42447 0.0474459 0.0589607 
0.83635 0.333454 0.460872 0.465212 0.131292 
0.818774 0.884631 0.665786 0.993341 0.139534 
0.966695 0.53083 0.177728 0.11056 0.292028 
0.255395 0.908344 0.419771 0.191862 0.537187 
0.304045 0.259896 0.555038 0.0295871 0.357115 
0.698163 0.690655 0.456085 0.628685 0.849474 
0.848863 0.947186 0.95163 0.717441 0.932527 
0.384481 0.596861 0.353127 0.721531 0.500057 
0.866846 0.744836 0.238054 0.800724 0.450515 
0.593942 0.280707 0.963083 0.389073 0.875019 
0.0516485 0.991312 0.679508 0.0411781 0.714395 
0.339804 0.310837 0.442373 0.404411 0.0880579 
0.507457 0.459423 0.576001 0.981863 0.347568 
0.291998 0.297628 0.868219 0.553942 0.424651 
0.278008 0.492491 0.254123 0.30699 0.555836 
0.612859 0.299094 0.466504 0.976637 0.438063 
0.937221 0.449051 0.175929 0.683814 0.669602 
0.270477 0.581544 0.424097 0.0172124 0.0946547 
0.945031 0.672362 0.795136 0.715417 0.925947 
0.240227 0.14396 0.277128 0.104529 0.997234 
0.0777333 0.550143 0.88899 0.666901 0.587202 
0.207452 0.358774 0.759884 0.50355 0.0845639 
0.944169 0.253629 0.369729 0.966535 0.536565 
0.238531 0.404451 0.942013 0.529802 0.0114502 
0.232704 0.0959853 0.302265 0.662166 0.500815 
0.385767 0.716141 0.113333 0.30079 0.392816 
0.489947 0.200528 0.834858 0.467092 0.464407 
0.276946 0.312725 0.189144 0.551092 0.949424 
0.0440342 0.871947 0.412011 0.491047 0.458259 
0.0549825 0.987394 0.238803 0.503884 0.764863 
0.708896 0.415729 0.663389 0.360899 0.0369289 
0.642624 0.646866 0.538943 0.522156 0.824141 
0.191371 0.769222 0.879216 0.178366 0.9835 
0.394588 0.835992 0.820593 0.301733 0.402655 
0.69354 0.15727 0.826498 0.81161 0.399005 
0.181714 0.321873 0.931873 0.510878 0.726319 
0.639789 0.724117 0.216155 0.880171 0.579165 
0.530908 0.233903 0.966103 0.311398 0.846256 
0.3535 0.518026 0.490564 0.897995 0.203476 
0.728388 0.30862 0.480871 0.720076 0.979215 
0.307576 0.850482 0.766981 0.0983266 0.925793 
0.0827787 0.576861 0.800039 0.640754 0.456921 
0.17426 0.285635 0.488905 0.46923 0.0713273 
0.685764 0.935053 0.860568 0.260571 0.529485 
0.772297 0.693505 0.370711 0.974222 0.569735 
0.473181 0.436022 0.0512029 0.315121 0.796629 
0.380324 0.0291564 0.421266 0.481867 0.601297 
0.644613 0.396371 0.521697 0.803252 0.108457 
0.193338 0.851044 0.307254 0.559974 0.415749 
0.137612 0.624698 0.0284043 0.982279 0.429001 
0.228105 0.0706524 0.771141 0.586403 0.542953 
0.888979 0.414262 0.124083 0.570539 0.952865 
0.828543 0.652411 0.87015 0.467311 0.162085 
0.87269 0.535164 0.311326 0.346226 0.186762 
0.0409225 0.250021 0.320794 0.304274 0.228708 
0.469341 0.234254 0.04381 0.0797983 0.966404 
0.78085 0.191851 0.921212 0.686822 0.151566 
0.423695 0.0767459 0.791823 0.486569 0.33737 
0.930965 0.397955 0.554591 0.310259 0.846852 
0.0541125 0.602022 0.852768 0.858268 0.484668 
0.211833 0.603202 0.642428 0.6948 0.310699 
0.00954624 0.485101 0.981297 0.50394 0.228864 
0.857408 0.759413 0.722391 0.461499 0.0414935 
0.0618078 0.716243 0.315993 0.117149 0.226424 
0.229472 0.419501 0.785967 0.613005 0.0635487 
0.296818 0.899861 0.781372 0.416672 0.439618 
0.229042 0.671159 0.467731 0.582151 0.979363 
0.269591 0.532036 0.816552 0.642624 0.724799 
0.418018 0.877581 0.584854 0.102013 0.469046 
0.927655 0.320214 0.282856 0.386087 0.0782703 
0.906935 0.256308 0.0409621 0.603101 0.195242 
0.814425 0.35598 0.755163 0.800665 0.549472 
0.58269 0.154209 0.893185 0.228194 0.696142 
0.306548 0.574301 0.586447 0.366509 0.666225 
0.175239 0.145218 0.310251 0.0546055 0.0364469 
0.182471 0.130446 0.882588 0.444932 0.594986 
0.356084 0.159595 0.220887 0.480398 0.852906 
0.504289 0.368846 0.0162606 0.200211 0.607171 
0.578844 0.120242 0.567015 0.117499 0.100699 
0.17245 0.860715 0.417557 0.248863 0.199098 
0.752649 0.018958 0.0217576 0.76182 0.571462 
0.404716 0.303347 0.665501 0.426922 0.957394 
0.42708 0.789352 0.295346 0.457365 0.587196 
0.954275 0.509419 0.495103 0.294705 0.857056 
0.539642 0.215953 0.253195 0.113241 0.343256 
0.146246 0.816111 0.996058 0.482762 0.0637913 
0.193697 0.367908 0.835744 0.970384 0.24342 
0.675137 0.78626 0.700829 0.997395 0.732554 
0.356509 0.389011 0.388331 0.385282 0.453588 
0.686654 0.764688 0.276791 0.884878 0.154184 
0.0716749 0.0016989 0.346944 0.126688 0.867889 
0.0746792 0.389324 0.446395 0.617054 0.875525 
0.593633 0.231553 0.800098 0.98908 0.449467 
0.169916 0.657821 0.908254 0.479868 0.550071 
0.697375 0.465371 0.111086 0.0860473 0.0653277 
0.453041 0.719458 0.646146 0.894554 0.206855 
0.304426 0.477245 0.859949 0.568395 0.355026 
0.704809 0.651985 0.872407 0.797765 0.580697 
0.808822 0.279075 0.282424 0.340509 0.174228 
0.504935 0.400596 0.502115 0.635993 0.434566 
0.976666 0.34585 0.0278843 0.868546 0.584159 
0.77513 0.460574 0.438516 0.0665402 0.637896 
0.254581 0.433059 0.0808595 0.171113 0.846503 
0.902221 0.218038 0.0704925 0.731192 0.445662 
0.55021 0.285826 0.695532 0.0739576 0.0886661 
0.565208 0.988864 0.0239467 0.665101 0.726192 
0.0945809 0.950838 0.494945 0.759596 0.397778 
0.703642 0.60405 0.0595847 0.705671 0.51848 
0.681601 0.689466 0.123767 0.391975 0.85863 
0.6792 0.501529 0.522756 0.481862 0.405349 
0.317019 0.855294 0.0258893 0.982674 0.985389 
0.936159 0.82581 0.722743 0.763184 0.911412 
0.142183 0.272302 0.562747 0.692165 0.477419 
0.0632705 0.0342738 0.128877 0.670175 0.0374716 
0.372743 0.168549 0.241584 0.564168 0.243788 
0.908486 0.0158519 0.81081 0.167892 0.760402 
0.76303 0.686963 0.834882 0.819736 0.276384 
0.582081 0.679644 0.657687 0.0392346 0.0202399 
0.955289 0.884727 0.902871 0.99094 0.660277 
0.0269206 0.427369 0.922384 0.268468 0.784232 
0.997857 0.995223 0.794412 0.675183 0.630222 
0.778755 0.837709 0.0216649 0.553022 0.211825 
0.0561656 0.942353 0.808511 0.746761 0.166787 
0.261817 0.155984 0.525653 0.361599 0.704385 
0.978695 0.465739 0.955846 0.10733 0.567647 
0.957487 0.389757 0.778183 0.164692 0.130091 
0.586728 0.414078 0.471128 0.644675 0.0451883 
0.483669 0.834859 0.512881 0.0289296 0.987845 
0.331207 0.306036 0.711 0.974987 0.637243 
0.253577 0.97141 0.905718 0.959342 0.858792 
0.612473 0.121562 0.812094 0.740699 0.0425141 
0.957947 0.322502 0.07393 0.335971 0.521282 
0.773341 0.726173 0.631503 0.696589 0.920603 
0.895422 0.799983 0.702869 0.19322 0.201377 
0.221861 0.15251 0.87753 0.659954 0.640194 
0.443187 0.295452 0.75403 0.707538 0.0133829 
0.521912 0.172195 0.595778 0.453213 0.4441 
0.908615 0.972202 0.930204 0.398805 0.982898 
0.0743601 0.562785 0.990459 0.861935 0.698413 
0.0855067 0.584222 0.236607 0.0507405 0.302176 
0.556698 0.406642 0.432106 0.962129 0.297539 
0.53124 0.65752 0.0752273 0.0677772 0.480222 
0.813838 0.0800722 0.55314 0.713181 0.0465293 
0.725342 0.788737 0.866587 0.638335 0.653834 
0.509843 0.793245 0.942243 0.338591 0.235617 
0.904038 0.816838 0.989416 0.224536 0.40592 
0.0187304 0.354922 0.769653 0.350666 0.581567 
0.78542 0.708791 0.785474 0.246597 0.197806 
0.0748159 0.492159 0.286226 0.774111 0.89278 
0.379724 0.213914 0.323409 0.916277 0.192242 
0.73763 0.0654177 0.407577 0.139711 0.298481 
0.125464 0.722422 0.78927 0.956263 0.695541 
0.566476 0.724169 0.906055 0.469338 0.0189795 
0.357152 0.665963 0.985991 0.118911 0.159481 
0.323955 0.936689 0.0938026 0.0262495 0.186365 
0.0295625 0.0240421 0.499934 0.307674 0.503273 
0.825845 0.922877 0.287621 0.324139 0.955835 
0.635511 0.0445691 0.907883 0.854909 0.0876988 
0.548399 0.0986059 0.765797 0.158985 0.980908 
0.993501 0.822788 0.801577 0.686784 0.197005 
0.132582 0.783721 0.550408 0.502689 0.959229 
0.193814 0.579891 0.109068 0.83208 0.125197 
0.597418 0.60817 0.490706 0.0250474 0.852016 
0.618641 0.0901712 0.462253 0.453696 0.484819 
0.641327 0.891699 0.736039 0.564349 0.806844 
0.715596 0.468841 0.188772 0.415172 0.79041 
0.496467 0.882972 0.0945087 0.936813 0.749348 
0.0323378 0.425113 0.574014 0.813532 0.187245 
0.687206 0.374011 0.551255 0.0661356 0.84745 
0.666786 0.446446 0.223705 0.187503 0.634965 
0.40909 0.851107 0.160349 0.413298 0.0534608 
0.78542 0.257692 0.550476 0.832541 0.488856 
0.0579032 0.907226 0.784599 0.819961 0.0546273 
0.645112 0.867828 0.0967913 0.955848 0.475081 
0.538025 0.424423 0.661752 0.330261 0.629799 
0.461399 0.751678 0.500453 0.102637 0.188692 
0.21739 0.217678 0.58696 0.564961 0.0310611 
0.441928 0.462447 0.93647 0.336706 0.0424663 
0.345284 0.979582 0.620944 0.917698 0.899463 
0.243663 0.231294 0.841956 0.480565 0.485594 
0.431424 0.923801 0.187281 0.0129525 0.135146 
0.643521 0.0400541 0.812364 0.598684 0.832398 
0.0264388 0.102046 0.904992 0.970494 0.204302 
0.866849 0.220109 0.723559 0.760741 0.20585 
0.641406 0.33371 0.426335 0.454983 0.0870134 
0.954063 0.0552093 0.399695 0.437702 0.318651 
0.311054 0.69675 0.338974 0.168789 0.239249 
0.186422 0.778893 0.710921 0.101661 0.680239 
0.161316 0.0833028 0.789633 0.783075 0.815385 
0.287358 0.652967 0.46697 0.187994 0.890855 
0.64457 0.600313 0.106149 0.203212 0.636268 
0.831956 0.0417854 0.143856 0.604359 0.138306 
0.343557 0.440851 0.088652 0.823754 0.142927 
0.516375 0.842833 0.863808 0.0925401 0.555826 
0.98462 0.825509 0.631783 0.702497 0.586953 
0.838569 0.54849 0.580427 0.31163 0.972088 
0.509929 0.487891 0.361372 0.00943756 0.514294 
0.849226 0.425929 0.637646 0.8014 0.443845 
0.424049 0.296504 0.522496 0.170004 0.493514 
0.983672 0.897694 0.171803 0.880601 0.113194 
0.461983 0.980623 0.45533 0.167741 0.596276 
0.255446 0.301241 0.655816 0.667579 0.368737 
0.661165 0.675226 0.874212 0.485042 0.919648 
0.397135 0.00224672 0.343543 0.337263 0.247834 
0.63995 0.950941 0.610844 0.697342 0.79372 
0.961528 0.797842 0.159697 0.223908 0.171953 
0.696857 0.138386 0.24556 0.407145 0.711279 
0.115504 0.686118 0.590928 0.508561 0.870461 
0.357499 0.421152 0.746488 0.806205 0.659042 
0.816026 0.800276 0.511831 0.674856 0.83388 
0.318 0.25743 0.872687 0.50892 0.529631 
0.194586 0.652108 0.785258 0.398852 0.749856 
0.0937323 0.787165 0.715414 0.0812714 0.154925 
0.302976 0.261467 0.620457 0.325998 0.313199 
0.401858 0.999666 0.333366 0.707165 0.780644 
0.789381 0.291708 0.633047 0.621219 0.426077 
0.594656 0.74576 0.540531 0.420445 0.0453278 
0.506091 0.0157659 0.892987 0.887495 0.467188 
0.98545 0.213366 0.314581 0.463945 0.0777663 
0.461267 0.350508 0.435393 0.955216 0.828367 
0.9211 0.233707 0.655889 0.348594 0.924134 
0.595775 0.372006 0.338584 0.665957 0.863343 
0.690495 0.507682 0.0495918 0.307115 0.365628 
0.437104 0.381434 0.640724 0.698977 0.0682796 
0.760619 0.775387 0.625556 0.237956 0.778966 
0.689437 0.600702 0.776568 0.278956 0.980538 
0.0288831 0.382692 0.28447 0.621316 0.743872 
0.94619 0.750187 0.147154 0.325666 0.0833695 
0.743136 0.431814 0.826175 0.823892 0.788918 
0.0089434 0.302478 0.799035 0.854759 0.996856 
0.375963 0.143437 0.830128 0.860372 0.490584 
0.283237 0.443632 0.184056 0.631352 0.185796 
0.484624 0.53244 0.368038 0.775387 0.729408 
0.0508074 0.288877 0.431374 0.130902 0.845748 
0.0231267 0.979452 0.809793 0.116686 0.193374 
0.0574921 0.667145 0.627828 0.920666 0.908366 
0.750407 0.248419 0.749016 0.2247 0.192865 
0.580172 0.363975 0.816623 0.78434 0.0627588 
0.488303 0.711058 0.207453 0.808574 0.700784 
0.480464 0.365429 0.219464 0.67813 0.772324 
0.0634338 0.032307 0.0288334 0.228062 0.18049 
0.790202 0.854773 0.355439 0.786832 0.181525 
0.651202 0.708074 0.294643 0.581744 0.772152 
0.605911 0.73875 0.870587 0.878193 0.0382575 
0.858284 0.0640067 0.470087 0.378309 0.508779 
0.415914 0.857927 0.16806 0.247252 0.0373093 
0.6023 0.921909 0.432223 0.183377 0.974637 
0.00857487 0.789417 0.895999 0.943024 0.625531 
0.294471 0.191338 0.0819074 0.885802 0.498406 
0.20229 0.707117 0.3162 0.257492 0.0510929 
0.28696 0.308695 0.56291 0.400473 0.89414 
0.575059 0.737615 0.874812 0.893552 0.567601 
0.0816136 0.892544 0.297583 0.72773 0.172217 
0.913988 0.372269 0.443486 0.703622 0.650776 
0.951308 0.648333 0.774479 0.771079 0.654919 
0.513467 0.735114 0.460125 0.0287066 0.522224 
0.775498 0.646854 0.358609 0.0881511 0.224492 
0.242537 0.781044 0.427558 0.726459 0.49009 
0.673074 0.442151 0.224454 0.382268 0.348837 
0.561498 0.544125 0.153122 0.347058 0.464679 
0.698339 0.925614 0.673265 0.989444 0.260087 
0.585274 0.982659 0.266025 0.000186181 0.266352 
0.147612 0.770289 0.288151 0.895604 0.159708 
0.858168 0.0314143 0.596495 0.584251 0.022951 
0.0997977 0.261729 0.817787 0.698917 0.593718 
0.163233 0.388575 0.805273 0.31037 0.64924 
0.672846 0.0205202 0.346136 0.967954 0.665407 
0.903543 0.399036 0.828363 0.932067 0.675656 
0.634329 0.717206 0.3636 0.563169 0.116142 
0.760823 0.341082 0.927012 0.410542 0.449274 
0.0288466 0.36352 0.0812541 0.439743 0.169285 
0.0714591 0.152149 0.0290039 0.761694 0.61586 
0.93513 0.690656 0.304504 0.242179 0.927392 
0.2916 0.254855 0.883628 0.0776488 0.96764 
0.388406 0.208891 0.928815 0.686314 0.607617 
0.374132 0.810135 0.772457 0.183466 0.0388 
0.596335 0.701091 0.708586 0.338662 0.856112 
0.810075 0.664654 0.558377 0.379675 0.148736 
0.213888 0.890709 0.106733 0.0762431 0.775049 
0.708095 0.499516 0.0996523 0.534516 0.793631 
0.806357 0.146611 0.677232 0.543009 0.105866 
0.331694 0.284754 0.016211 0.188269 0.941947 
0.791269 0.329953 0.752116 0.0848023 0.388315 
0.138177 0.699753 0.205654 0.468796 0.631677 
0.0816922 0.219829 0.218168 0.885752 0.486361 
0.557988 0.180849 0.115649 0.250575 0.385961 
0.360975 0.588032 0.864994 0.620903 0.456655 
0.491505 0.753429 0.975709 0.579133 0.872282 
0.549911 0.212351 0.154717 0.954393 0.848725 
0.00449334 0.438796 0.31794 0.637109 0.150279 
0.348137 0.200365 0.0491042 0.535634 0.87342 
0.757097 0.768249 0.755197 0.103719 0.546658 
0.0359224 0.667677 0.11761 0.95349 0.0893598 
0.500046 0.943371 0.365408 0.450229 0.37284 
0.101096 0.76609 0.197626 0.392032 0.45935 
0.0692702 0.355507 0.0364699 0.093698 0.85796 
0.133018 0.153072 0.113641 0.329271 0.815376 
0.102191 0.144547 0.499373 0.76195 0.096818 
0.52672 0.765515 0.0720258 0.780758 0.509609 
0.731685 0.630362 0.902238 0.725071 0.702683 
0.958688 0.69839 0.988766 0.327586 0.134049 
0.858512 0.518466 0.341382 0.239584 0.48376 
0.474103 0.923671 0.22586 0.405159 0.583827 
0.474549 0.0271541 0.658985 0.564054 0.25079 
0.0771111 0.723538 0.701117 0.346138 0.806544 
0.565335 0.347349 0.112342 0.583446 0.287843 
0.412679 0.967079 0.762631 0.396835 0.282281 
0.122278 0.0648952 0.871164 0.412273 0.00505514 
0.744839 0.358055 0.0431272 0.11068 0.892779 
0.59151 0.07566 0.592049 0.712244 0.648739 
0.118661 0.0329934 0.698994 0.755741 0.91642 
0.0980563 0.979423 0.933805 0.226655 0.436978 
0.479157 0.346569 0.472796 0.233504 0.885872 
0.93915 0.465946 0.615975 0.64982 0.851253 
0.983628 0.703887 0.594841 0.476843 0.404518 
0.0694234 0.0239059 0.23587 0.753762 0.499372 
0.679097 0.629081 0.42784 0.545038 0.806367 
0.643942 0.464239 0.0960298 0.597596 0.28787 
0.755977 0.133771 0.701947 0.640671 0.388164 
0.449619 0.74704 0.224868 0.928903 0.297117 
0.69881 0.700145 0.481755 0.818719 0.519194 
0.0486553 0.0116192 0.882706 0.210894 0.0174355 
0.188175 0.040126 0.044359 0.535503 0.704642 
0.0868385 0.209199 0.891527 0.0333202 0.385159 
0.295081 0.750875 0.25412 0.570412 0.27059 
0.110482 0.720114 0.0424916 0.289925 0.898629 
0.0123185 0.0101442 0.0356411 0.859776 0.261693 
0.677378 0.968107 0.148804 0.271651 0.807551 
0.191891 0.534462 0.482832 0.0710964 0.766443 
0.647456 0.182903 0.161534 0.39325 0.929766 
0.764535 0.568963 0.544461 0.645057 0.944702 
0.781371 0.0642535 0.815118 0.66303 0.639515 
0.244405 0.0723961 0.3006 0.461453 0.82836 
0.322567 0.0822979 0.352939 0.834877 0.360454 
0.15515 0.349856 0.61062 0.916109 0.543396 
0.704862 0.628192 0.987222 0.342766 0.0456458 
0.868456 0.451516 0.752659 0.208101 0.362379 
0.248533 0.0530844 0.340609 0.533441 0.0791723 
0.770939 0.215991 0.760386 0.226721 0.967867 
0.845612 0.505771 0.565676 0.705831 0.265486 
0.244075 0.873708 0.44153 0.243836 0.255292 
0.16369 0.909653 0.00690415 0.653973 0.0433978 
0.614408 0.280332 0.630607 0.490353 0.899831 
0.577341 0.70867 0.935189 0.214901 0.871647 
0.0490744 0.544735 0.574185 0.842288 0.463125 
0.695666 0.2101 0.836359 0.0908693 0.68804 
0.660394 0.962436 0.0867441 0.0733647 0.794856 
0.398926 0.701187 0.124313 0.106027 0.0882422 
0.201282 0.70228 0.0913237 0.739877 0.579821 
0.564431 0.776903 0.642077 0.968039 0.100267 
0.0261097 0.742653 0.652836 0.525343 0.165863 
0.389507 0.385776 0.432606 0.898538 0.137064 
0.0486332 0.905115 0.315307 0.831166 0.927647 
0.860517 0.977025 0.740763 0.0552745 0.869263 
0.444 0.700751 0.029186 0.0802301 0.748338 
0.340597 0.402294 0.985833 0.618979 0.124304 
0.916868 0.628235 0.524338 0.237352 0.334391 
0.198128 0.3114 0.0845485 0.793748 0.625258 
0.858256 0.267068 0.298609 0.088096 0.436538 
0.76306 0.887534 0.712971 0.899763 0.487599 
0.160222 0.574468 0.879318 0.438275 0.494494 
0.938125 0.945223 0.488901 0.32972 0.894379 
0.429786 0.339125 0.890871 0.635402 0.527739 
0.454019 0.898046 0.900875 0.183475 0.248059 
0.905035 0.10297 0.568695 0.772503 0.922703 
0.855685 0.6286 0.0886674 0.0188811 0.251974 
0.697662 0.495066 0.24077 0.730436 0.70908 
0.911287 0.0363564 0.83409 0.899691 0.134643 
0.358793 0.820663 0.244374 0.998495 0.645823 
0.901993 0.396075 0.49082 0.38354 0.924567 
0.273388 0.118251 0.140431 0.346494 0.116203 
0.646264 0.822258 0.742264 0.555298 0.318433 
0.326956 0.171169 0.802139 0.387031 0.330103 
0.613215 0.720933 0.89084 0.972851 0.708894 
0.771811 0.590665 0.344457 0.0187367 0.0999595 
0.594658 0.501208 0.558412 0.119923 0.108688 
0.713533 0.738746 0.780069 0.899859 0.728137 
0.293856 0.596514 0.973869 0.321771 0.445407 
0.682815 0.154254 0.219647 0.0239754 0.850164 
0.772396 0.828591 0.921184 0.654506 0.032394 
0.232767 0.879585 0.126858 0.104084 0.364356 
0.994774 0.964209 0.466667 0.454131 0.0830952 
0.235885 0.968425 0.922853 0.635039 0.345601 
0.147958 0.171622 0.276251 0.371554 0.972951 
0.0183062 0.258868 0.477654 0.47002 0.926263 
0.0354372 0.771606 0.327289 0.956519 0.415696 
0.933273 0.509756 0.367781 0.757106 0.666892 
0.180472 0.363789 0.651885 0.523553 0.506939 
0.646818 0.189342 0.38825 0.76776 0.0361905 
0.136357 0.178222 0.730442 0.758153 0.410531 
0.0299959 0.615105 0.553636 0.0991378 0.154741 
0.757439 0.0866719 0.876699 0.350342 0.181477 
0.0274644 0.214213 0.171123 0.0383033 0.805797 
0.820603 0.392367 0.29918 0.209977 0.582605 
0.566 0.479138 0.420354 0.412414 0.0508384 
0.919517 0.875665 0.96994 0.949822 0.0944117 
0.789698 0.733644 0.0193631 0.360914 0.967183 
0.408055 0.263828 0.331036 0.625268 0.939894 
0.912342 0.48628 0.22407 0.693809 0.206566 
0.13981 0.587052 0.230944 0.089436 0.353551 
0.562574 0.0592975 0.291203 0.737469 0.456825 
0.340609 0.716982 0.778432 0.145305 0.579345 
0.4062 0.477528 0.704218 0.248733 0.55533 
0.618026 0.141101 0.990586 0.0260836 0.406318 
0.714984 0.510605 0.171442 0.283864 0.34068 
0.867047 0.780422 0.0692384 0.21044 0.737469 
0.198186 0.624028 0.13279 0.951571 0.153304 
0.0384175 0.843775 0.167837 0.446362 0.981422 
0.758679 0.851536 0.188168 0.296734 0.583209 
0.419496 0.943898 0.721596 0.941066 0.972621 
0.675543 0.00170596 0.415025 0.971093 0.28631 
0.128692 0.0063646 0.866597 0.89303 0.0867428 
0.112841 0.916853 0.130663 0.50318 0.577142 
0.648019 0.703314 0.277035 0.180334 0.990228 
0.897611 0.120567 0.888067 0.67821 0.251468 
0.34655 0.540026 0.761982 0.95833 0.483076 
0.0463702 0.873293 0.78876 0.545627 0.267313 
0.113798 0.0820272 0.0358388 0.884028 0.393061 
0.573983 0.268857 0.213018 0.469444 0.190169 
0.664837 0.499759 0.967809 0.697737 0.881714 
0.499771 0.825256 0.651047 0.811734 0.965171 
0.488152 0.470524 0.331113 0.0884112 0.188588 
0.45364 0.336309 0.685333 0.259923 0.452543 
0.489312 0.07927 0.430355 0.480336 0.688804 
0.552257 0.0713346 0.352385 0.298626 0.408748 
0.959741 0.759177 0.446714 0.559479 0.372799 
0.297443 0.725899 0.216982 0.216939 0.0924589 
0.18472 0.692231 0.214693 0.852126 0.595362 
0.0299206 0.421779 0.488539 0.213296 0.237235 
0.0691018 0.849558 0.404051 0.122522 0.108604 
0.809066 0.13139 0.692999 0.849853 0.440765 
0.935189 0.951674 0.205939 0.665669 0.436208 
0.683754 0.942704 0.413356 0.974019 0.198967 
0.542928 0.0375675 0.277007 0.789566 0.609301 
0.575281 0.256515 0.623185 0.0651443 0.442128 
0.997926 0.63447 0.624101 0.341002 0.428459 
0.815011 0.0704275 0.901729 0.655443 0.494134 
0.733342 0.547414 0.28286 0.1944 0.0675336 
0.878219 0.292728 0.779098 0.107841 0.309626 
0.230926 0.563245 0.510663 0.251273 0.400466 
0.525738 0.239988 0.0729092 0.12315 0.145092 
0.975268 0.856983 0.0648465 0.483469 0.820408 
0.663294 0.691766 0.254534 0.457646 0.219535 
0.793357 0.041954 0.275103 0.146339 0.198215 
0.51518 0.891387 0.0260869 0.097346 0.390426 
0.284349 0.693678 0.415781 0.29451 0.679243 
0.19405 0.351526 0.944221 0.134734 0.0645231 
0.675347 0.529817 0.30104 0.952644 0.459893 
0.944368 0.0937089 0.161334 0.134235 0.7525 
0.390674 0.935173 0.388201 0.730063 0.5359 
0.354706 0.505142 0.14398 0.20825 0.990469 
0.908758 0.401165 0.43168 0.699732 0.214359 
0.227539 0.584361 0.892161 0.804567 0.0439247 
0.633264 0.0871332 0.190346 0.707776 0.90872 
0.224363 0.548403 0.112676 0.393612 0.785489 
0.134975 0.179739 0.937814 0.589863 0.167956 
0.920795 0.828148 0.272978 0.493791 0.0170904 
0.0471186 0.388369 0.306224 0.239594 0.401294 
0.848204 0.81478 0.881918 0.50145 0.506059 
0.962782 0.221237 0.845069 0.892881 0.668249 
0.503873 0.984649 0.300079 0.795676 0.142694 
0.693733 0.125548 0.87146 0.510559 0.581937 
0.406839 0.845459 0.115752 0.590798 0.445902 
0.257465 0.162555 0.12332 0.0938941 0.712626 
0.937126 0.222846 0.51323 0.51789 0.817437 
0.131852 0.752996 0.0186054 0.812906 0.170067 
0.532235 0.230926 0.727374 0.392202 0.899141 
0.569313 0.926987 0.111869 0.603727 0.0431706 
0.10992 0.411617 0.844939 0.4256 0.626304 
0.0767081 0.377309 0.830574 0.104064 0.286806 
0.326803 0.00620236 0.381083 0.189502 0.462431 
0.170825 0.867192 0.364934 0.617821 0.268347 
0.288467 0.800769 0.856029 0.787927 0.214065 
0.899263 0.251128 0.871562 0.616592 0.490085 
0.49397 0.781023 0.0328279 0.448854 0.422966 
0.337159 0.455361 0.186275 0.583317 0.232624 
0.205239 0.740481 0.869108 0.714586 0.778475 
0.364412 0.0622196 0.638242 0.903213 0.485053 
0.765059 0.453614 0.667261 0.879742 0.489302 
0.843032 0.979455 0.990327 0.695405 0.26666 
0.816296 0.61264 0.040447 0.581972 0.190544 
0.492461 0.431011 0.623832 0.643877 0.750277 
0.333669 0.114014 0.275872 0.0863498 0.318164 
0.381917 0.501184 0.708661 0.0477798 0.773548 
0.058719 0.890857 0.989758 0.329627 0.0607756 
0.486086 0.300355 0.945937 0.113681 0.518501 
0.63011 0.710451 0.282472 0.779 0.135681 
0.95334 0.383291 0.241392 0.779044 0.947602 
0.0470228 0.267042 0.130682 0.178371 0.869948 
0.338282 0.415045 0.232517 0.930361 0.410189 
0.128816 0.0489425 0.332392 0.657121 0.50082 
0.641199 0.371363 0.439889 0.824611 0.877427 
0.733909 0.697584 0.0878957 0.594577 0.920181 
0.499169 0.46909 0.962309 0.834629 0.147036 
0.277893 0.680724 0.992719 0.943761 0.505948 
0.238064 0.716814 0.557278 0.408637 0.408338 
0.88415 0.928742 0.117802 0.854135 0.906613 
0.456626 0.649709 0.954697 0.450603 0.117253 
0.942768 0.300305 0.377525 0.736716 0.756723 
0.308685 0.92433 0.358485 0.407753 0.0395396 
0.517149 0.854249 0.551695 0.680579 0.996007 
0.790996 0.951986 0.977587 0.48226 0.139189 
0.822779 0.337589 0.0473005 0.971911 0.447773 
0.577951 0.961264 0.625335 0.744775 0.959051 
0.611105 0.242391 0.08531 0.61861 0.028242 
0.366603 0.937502 0.624028 0.419546 0.870175 
0.97326 0.928818 0.128335 0.350595 0.373127 
0.787546 0.396555 0.265591 0.756731 0.322424 
0.279189 0.147968 0.193358 0.126646 0.93646 
0.98278 0.696711 0.690638 0.694166 0.5452 
0.110947 0.283782 0.75819 0.0356789 0.659109 
0.1409 0.449467 0.344607 0.719815 0.0433846 
0.630678 0.456669 0.929723 0.811824 0.734707 
0.937634 0.200151 0.179327 0.682696 0.664449 
0.411821 0.301011 0.538329 0.637544 0.663335 
0.976213 0.681236 0.388031 0.243284 0.595101 
0.486004 0.409427 0.166508 0.149828 0.386744 
0.745082 0.102167 0.601932 0.690596 0.392804 
0.971443 0.673504 0.224302 0.222561 0.45214 
0.841155 0.246655 0.251994 0.933847 0.179109 
0.258277 0.238188 0.42239 0.8909 0.409614 
0.438237 0.705374 0.224743 0.528132 0.472916 
0.374876 0.0319769 0.870575 0.00652716 0.587401 
0.599019 0.532075 0.247494 0.904186 0.238647 
0.798169 0.0688087 0.697752 0.0230226 0.0760231 
0.402843 0.581364 0.813059 0.194974 0.745718 
0.927832 0.0469793 0.979351 0.736872 0.0871864 
0.804094 0.727457 0.116478 0.488528 0.00355604 
0.12296 0.25032 0.213207 0.238993 0.0365317 
0.25563 0.134973 0.0460327 0.186469 0.613952 
0.00148511 0.766644 0.0591388 0.845576 0.432096 
0.0175439 0.477531 0.588665 0.158967 0.551241 
0.937818 0.669254 0.919595 0.947083 0.911622 
0.682233 0.297502 0.791531 0.0729817 0.681126 
0.753499 0.858147 0.314596 0.111653 0.965107 
0.162927 0.0384208 0.309813 0.179169 0.979183 
0.103359 0.161937 0.762867 0.638829 0.368121 
0.680617 0.14056 0.0338197 0.558098 0.185625 
0.800286 0.105069 0.196025 0.08229 0.152711 
0.2843 0.00675514 0.774511 0.164174 0.369872 
0.824505 0.881742 0.57892 0.754599 0.188425 
0.73567 0.222818 0.643923 0.758764 0.993868 
0.515475 0.648749 0.925834 0.23607 0.441477 
0.904031 0.936878 0.814044 0.891762 0.296507 
0.233098 0.914062 0.801565 0.509009 0.882686 
0.136428 0.160491 0.229042 0.243329 0.24677 
0.31945 0.153984 0.451939 0.5613 0.154679 
0.719446 0.71964 0.473709 0.802261 0.413565 
0.105384 0.10747 0.434463 0.856144 0.199606 
0.77912 0.211976 0.301938 0.717968 0.859129 
0.489841 0.299499 0.955298 0.221144 0.0754372 
0.297785 0.393631 0.728571 0.568969 0.309476 
0.700281 0.874637 0.491156 0.372367 0.34898 
0.904955 0.593555 0.806409 0.403985 0.0822879 
0.46514 0.76977 0.0812689 0.077052 0.093624 
0.406669 0.990979 0.838403 0.767108 0.880887 
0.834625 0.479233 0.876124 0.818541 0.77377 
0.025545 0.793166 0.419827 0.864195 0.206027 
0.510412 0.151475 0.163482 0.271408 0.894959 
0.0348786 0.0773452 0.519057 0.787977 0.416943 
0.899713 0.395237 0.838444 0.759567 0.860506 
0.404922 0.681672 0.0231094 0.525827 0.694665 
0.0358538 0.280154 0.47449 0.0244238 0.458208 
0.269595 0.703742 0.635923 0.769244 0.233974 
0.392769 0.543115 0.264735 0.906168 0.414598 
0.24599 0.146575 0.0481342 0.180822 0.289644 
0.272818 0.401639 0.529632 0.760941 0.569428 
0.02564 0.881617 0.135997 0.695232 0.543252 
0.236257 0.319011 0.258559 0.655379 0.771778 
0.166123 0.663481 0.0204671 0.174945 0.410636 
0.98301 0.0465407 0.0237712 0.225009 0.140292 
0.954498 0.795203 0.414254 0.592835 0.51565 
0.831464 0.514358 0.86045 0.289185 0.233347 
0.695599 0.827949 0.798108 0.0501581 0.129415 
0.771977 0.527162 0.577937 0.411517 0.0518666 
0.141072 0.206767 0.45094 0.388148 0.181531 
0.516877 0.107992 0.368127 0.385565 0.571692 
0.886052 0.0443672 0.643543 0.222895 0.978608 
0.331239 0.207162 0.00694696 0.997049 0.310286 
0.55558 0.477605 0.384283 0.94255 0.256635 
0.918095 0.542229 0.443612 0.367865 0.91651 
0.99109 0.119073 0.565965 0.992483 0.131661 
0.222639 0.241831 0.0145778 0.280729 0.0740193 
0.665132 0.839798 0.486148 0.0326184 0.33096 
0.600216 0.68435 0.821347 0.171509 0.424378 
0.544126 0.32073 0.73661 0.72496 0.407693 
0.854478 0.8599 0.746017 0.18763 0.000451989 
0.091644 0.218933 0.352427 0.197251 0.240148 
0.974645 0.114108 0.199972 0.175895 0.100743 
0.908506 0.684602 0.748163 0.854099 0.431491 
0.87044 0.599804 0.223731 0.97298 0.595112 
0.084542 0.133921 0.854207 0.419914 0.851886 
0.0330014 0.923517 0.675314 0.518608 0.565448 
0.346855 0.819611 0.993387 0.469291 0.693646 
0.953109 0.543621 0.404226 0.893561 0.892024 
0.635204 0.994896 0.292337 0.419894 0.504562 
0.382438 0.0739617 0.182944 0.881363 0.486513 
0.919278 0.276053 0.169493 0.303628 0.298108 
0.473107 0.292734 0.783269 0.232409 0.141125 
0.513836 0.14168 0.220501 0.995429 0.165716 
0.701183 0.345927 0.686529 0.134656 0.42091 
0.038066 0.271896 0.918452 0.8502 0.944081 
0.326974 0.259962 0.647299 0.392901 0.84309 
0.888997 0.427605 0.250959 0.730847 0.69319 
0.325217 0.552198 0.102542 0.406496 0.366622 
0.932466 0.690984 0.544412 0.984497 0.571593 
0.778316 0.52563 0.802556 0.674028 0.124352 
0.362462 0.0233519 0.843213 0.176123 0.0593273 
0.109971 0.0840996 0.161075 0.674293 0.997081 
0.139548 0.767033 0.697923 0.525949 0.470703 
0.88629 0.0997969 0.973414 0.537723 0.27094 
0.782466 0.883558 0.71631 0.141354 0.698802 
0.641406 0.589101 0.569484 0.863897 0.444726 
0.556989 0.561572 0.213416 0.818911 0.623875 
0.910304 0.570897 0.894183 0.123205 0.239945 
0.988993 0.361365 0.713324 0.461028 0.120616 
0.25485 0.836921 0.270211 0.682212 0.160522 
0.0636403 0.863555 0.489256 0.873559 0.323469 
0.883946 0.527549 0.103838 0.36782 0.389592 
0.0353869 0.273216 0.245445 0.412935 0.811416 
0.920395 0.899457 0.595582 0.183645 0.382538 
0.225799 0.476558 0.626044 0.264872 0.709319 
0.619061 0.838083 0.246223 0.0253095 0.211295 
0.317046 0.471976 0.509301 0.661886 0.98003 
0.331689 0.305525 0.169775 0.526689 0.624332 
0.339473 0.353775 0.256496 0.908815 0.526882 
0.652536 0.297842 0.417138 0.0782415 0.854311 
0.909101 0.432862 0.483121 0.960342 0.366013 
0.806493 0.79571 0.0437228 0.198641 0.0711347 
0.692535 0.663275 0.0347804 0.583667 0.988401 
0.502417 0.799273 0.432801 0.808874 0.760523 
0.479545 0.177058 0.356749 0.143385 0.477121 
0.850058 0.0638892 0.54804 0.749044 0.398348 
0.138839 0.539124 0.410898 0.0830036 0.754579 
0.0302904 0.809465 0.361742 0.260017 0.625441 
0.800484 0.516792 0.723873 0.470546 0.0183103 
0.449716 0.246636 0.0540088 0.350274 0.148105 
0.848244 0.548658 0.876457 0.469549 0.828256 
0.527808 0.501903 0.220023 0.340892 0.206499 
0.394852 0.18745 0.870009 0.350374 0.330805 
0.121264 0.998827 0.149741 0.662159 0.527672 
0.0954464 0.340691 0.277799 0.164701 0.121572 
0.596573 0.220696 0.631819 0.842135 0.19555 
0.688454 0.242778 0.496232 0.939087 0.222131 
0.204218 0.84362 0.416229 0.588515 0.550533 
0.896378 0.828347 0.906319 0.0744011 0.665525 
0.233867 0.40614 0.301474 0.937945 0.583009 
0.399777 0.658961 0.0602669 0.463384 0.327927 
0.530837 0.302112 0.00207993 0.764802 0.779635 
0.0445841 0.794506 0.337592 0.152142 0.771397 
0.773558 0.102674 0.472243 0.783719 0.379139 
0.152872 0.845559 0.31338 0.0773127 0.832808 
0.650806 0.121214 0.507742 0.361559 0.513946 
0.367325 0.652203 0.744692 0.447959 0.000905727 
0.376644 0.0969468 0.0983091 0.426764 0.54478 
0.115511 0.383401 0.91126 0.649789 0.0992898 
0.644398 0.0990653 0.732582 0.000992133 0.943693 
0.552762 0.974845 0.66933 0.123128 0.638226 
0.960742 0.173003 0.531908 0.742277 0.691906 
0.811461 0.522981 0.77504 0.872654 0.567624 
0.744268 0.21542 0.320888 0.278084 0.559549 
0.0904106 0.246006 0.923542 0.881318 0.309238 
0.749717 0.540857 0.396933 0.580789 0.831159 
0.823275 0.577222 0.810198 0.699242 0.419416 
0.798539 0.408678 0.959805 0.797108 0.822137 
0.264302 0.999312 0.234614 0.613476 0.121297 
0.669289 0.32724 0.45656 0.621514 0.126919 
0.0698157 0.301651 0.223795 0.804923 0.894537 
0.130332 0.993045 0.740703 0.0687702 0.922553 
0.442008 0.0597141 0.780072 0.546023 0.525668 
0.224 0.478716 0.780724 0.14602 0.927301 
0.085993 0.512743 0.261207 0.927941 0.527023 
0.386167 0.223615 0.427001 0.447812 0.0523166 
0.791475 0.487215 0.139003 0.792819 0.115932 
0.838302 0.638213 0.858377 0.934528 0.334341 
0.555315 0.62297 0.0858649 0.540406 0.223452 
0.58785 0.52968 0.744682 0.310598 0.970052 
0.965386 0.644304 0.158625 0.626205 0.340308 
0.312029 0.160569 0.946952 0.647134 0.982351 
0.401344 0.794711 0.609319 0.696772 0.0425074 
0.503771 0.268502 0.0132729 0.0664343 0.722931 
0.871623 0.301743 0.0524937 0.651225 0.300216 
0.938531 0.605846 0.482879 0.0423202 0.017181 
0.68895 0.873477 0.110132 0.565846 0.446976 
0.433008 0.637945 0.491558 0.32499 0.0805438 
0.454648 0.199426 0.223318 0.182637 0.722458 
0.584834 0.181266 0.555949 0.556367 0.363497 
0.858267 0.554128 0.064774 0.358387 0.473122 
0.985349 0.0525749 0.234139 0.486306 0.305393 
0.0452958 0.0566852 0.591765 0.34462 0.780885 
0.147067 0.155896 0.405596 0.857744 0.515195 
0.10724 0.75932 0.765825 0.200672 0.27451 
0.29722 0.60696 0.544022 0.542158 0.573706 
0.553502 0.274591 0.327832 0.843556 0.756314 
0.223948 0.534438 0.895614 0.628562 0.701759 
0.327445 0.177199 0.652204 0.745957 0.00716012 
0.395581 0.292305 0.429195 0.70412 0.530524 
0.963435 0.528631 0.0422581 0.0407977 0.183629 
0.847801 0.634742 0.0532118 0.850701 0.574523 
0.7836 0.25495 0.490527 0.0779048 0.390346 
0.324448 0.267433 0.809678 0.12518 0.820652 
0.515991 0.671668 0.385127 0.241788 0.836316 
0.894439 0.476045 0.715375 0.945159 0.864843 
0.921024 0.614404 0.729637 0.801986 0.138302 
0.82968 0.99487 0.872487 0.620766 0.287873 
0.123363 0.228373 0.507459 0.576437 0.825304 
0.567325 0.545099 0.0519272 0.642845 0.398963 
0.855012 0.312132 0.47573 0.413247 0.400744 
0.00191486 0.452778 0.312342 0.729361 0.538978 
0.6496 0.875317 0.860742 0.783585 0.738015 
0.637787 0.155812 0.406753 0.781708 0.973783 
0.561882 0.905471 0.592363 0.850054 0.351317 
0.283997 0.92282 0.555169 0.278703 0.801432 
0.765818 0.55375 0.260032 0.111551 0.322648 
0.599387 0.883628 0.834397 0.991451 0.626903 
0.788558 0.833598 0.678008 0.489941 0.905985 
0.0137673 0.711152 0.020568 0.52937 0.209543 
0.529935 0.378586 0.812897 0.830787 0.629308 
0.0736231 0.585055 0.593261 0.72086 0.427258 
0.175813 0.565995 0.814043 0.464606 0.483634 
0.908144 0.145587 0.480109 0.1793 0.77826 
0.373285 0.636074 0.286979 0.846438 0.332466 
0.737568 0.993579 0.148157 0.46496 0.199925 
0.556122 0.613759 0.687505 0.750146 0.33098 
0.430841 0.740328 0.504891 0.142509 0.743064 
0.781506 0.942078 0.057467 0.512128 0.910626 
0.281772 0.807043 0.844694 0.629139 0.859236 
0.51388 0.0770636 0.193406 0.433679 0.512501 
0.228387 0.400281 0.820453 0.366495 0.778397 
0.879675 0.633788 0.125186 0.873515 0.946237 
0.194694 0.987604 0.801064 0.0554304 0.917578 
0.930275 0.799547 0.717599 0.770982 0.941061 
0.389143 0.910071 0.788375 0.709035 0.394877 
0.171529 0.954902 0.799464 0.365464 0.144133 
0.835265 0.0954024 0.26842 0.176056 0.449075 
0.888983 0.26279 0.540032 0.496933 0.716034 
0.722767 0.877284 0.712769 0.0372949 0.490637 
0.146773 0.719486 0.0634273 0.154112 0.093513 
0.295243 0.228177 0.113257 0.951076 0.191536 
0.932984 0.0243751 0.681836 0.528238 0.836944 
0.598304 0.714739 0.607933 0.499287 0.870312 
0.331606 0.891812 0.734537 0.511811 0.597567 
0.539132 0.780522 0.0447418 0.661512 0.821851 
0.0161729 0.0948466 0.785141 0.0858132 0.745468 
0.190655 0.752544 0.598497 0.203589 0.232061 
0.572246 0.586885 0.888477 0.617087 0.584963 
0.601581 0.542667 0.00697571 0.438071 0.899894 
0.565501 0.750289 0.464592 0.853891 0.32321 
0.458491 0.561028 0.0394762 0.128229 0.451165 
0.408461 0.524538 0.681907 0.583388 0.881921 
0.274393 0.510551 0.789382 0.935093 0.702275 
0.825842 0.074751 0.809138 0.595484 0.873339 
0.403414 0.581943 0.424438 0.484993 0.357617 
0.766479 0.00403523 0.314825 0.712324 0.660824 
0.75708 0.313116 0.812776 0.822536 0.298781 
0.505158 0.211215 0.51472 0.65835 0.324232 
0.332083 0.534914 0.959387 0.228455 0.0763696 
0.49058 0.83558 0.802261 0.581871 0.0580588 
0.356837 0.676496 0.841887 0.850228 0.222315 
0.868741 0.210336 0.748666 0.297549 0.161283 
0.00894559 0.507424 0.520067 0.564442 0.474711 
0.714689 0.25207 0.060182 0.554507 0.791778 
0.697726 0.759074 0.866512 0.512908 0.069805 
0.0652623 0.894382 0.771081 0.0844386 0.502671 
0.370729 0.580855 0.578999 0.148029 0.335719 
0.00245555 0.147686 0.356341 0.88055 0.983921 
0.485992 0.893115 0.187816 0.53917 0.726077 
0.978169 0.397428 0.246583 0.949463 0.43877 
0.855105 0.569228 0.7132 0.239847 0.400587 
0.964707 0.920631 0.406391 0.592403 0.0955011 
0.351008 0.497055 0.363844 0.919555 0.426464 
0.438868 0.125967 0.535759 0.467542 0.167232 
0.249848 0.874222 0.574325 0.668979 0.434021 
0.813765 0.566759 0.636848 0.473759 0.326174 
0.726395 0.64062 0.597314 0.195307 0.431558 
0.782902 0.397332 0.645639 0.288153 0.231329 
0.80986 0.978189 0.75139 0.993093 0.640617 
0.426433 0.799747 0.553766 0.171219 0.81225 
0.737946 0.327865 0.335394 0.00609802 0.175826 
0.800801 0.627326 0.490919 0.613483 0.796333 
0.60078 0.626657 0.285231 0.613946 0.370013 
0.818215 0.0398721 0.381031 0.0407213 0.247443 
0.21355 0.534017 0.966822 0.658328 0.326732 
0.881338 0.412443 0.188888 0.809262 0.332675 
0.187174 0.53155 0.589049 0.326305 0.920279 
0.134263 0.263335 0.994772 0.420063 0.258999 
0.679736 0.539017 0.352433 0.601236 0.303793 
0.69235 0.443447 0.974363 0.070568 0.758876 
0.789992 0.738334 0.0273183 0.901267 0.909816 
0.0782382 0.824372 0.483177 0.986655 0.296444 
0.105283 0.801889 0.0386512 0.614541 0.842104 
0.0043569 0.886822 0.376674 0.483414 0.680913 
0.364404 0.408261 0.335207 0.577357 0.0892462 
0.989753 0.114835 0.886933 0.771893 0.543875 
0.372198 0.0682416 0.433081 0.939316 0.431383 
0.336207 0.843944 0.134932 0.887964 0.755118 
0.897426 0.57566 0.885761 0.16073 0.913822 
0.566262 0.0741829 0.297277 0.729994 0.342936 
0.00398231 0.991774 0.545911 0.714969 0.86416 
0.0701876 0.833657 0.785968 0.205121 0.042656 
0.624213 0.143585 0.0539693 0.640554 0.480733 
0.650508 0.475857 0.65892 0.112803 0.626608 
0.51397 0.426442 0.941922 0.534028 0.948343 
0.969133 0.0377821 0.289642 0.511837 0.941589 
0.520974 0.14853 0.576083 0.726691 0.358021 
0.00141979 0.287639 0.188907 0.0570919 0.400398 
0.667043 0.0694237 0.419924 0.140118 0.434177 
0.586362 0.50051 0.205459 0.710097 0.652881 
0.97052 0.536642 0.0778199 0.700741 0.396858 
0.797318 0.0433895 0.204902 0.736085 0.841506 
0.0740194 0.38491 0.318305 0.378075 0.822118 
0.52848 0.154588 0.800428 0.89064 0.0478656 
0.677814 0.902164 0.90058 0.603822 0.210322 
0.925078 0.690936 0.778793 0.928831 0.362 
0.818174 0.0615063 0.458866 0.891771 0.505934 
0.791177 0.158945 0.116456 0.415785 0.285399 
0.894519 0.636889 0.208373 0.250249 0.708288 
0.880706 0.725718 0.274976 0.663757 0.807862 
0.0775137 0.142617 0.25968 0.607415 0.288424 
0.286118 0.515069 0.897301 0.51934 0.941463 
0.219022 0.150655 0.255313 0.933503 0.541915 
0.461557 0.437192 0.365549 0.0788094 0.578519 
0.101325 0.722677 0.207626 0.24212 0.124405 
0.12956 0.836291 0.724634 0.749294 0.527102 
0.87227 0.474679 0.0191547 0.37166 0.756746 
0.798 0.853214 0.203577 0.759951 0.919773 
0.387882 0.673026 0.380753 0.162803 0.138574 
0.838607 0.359559 0.939106 0.189342 0.966497 
0.950924 0.519267 0.23863 0.3307 0.738555 
0.406905 0.0340386 0.507669 0.148544 0.959882 
0.985736 0.389166 0.387043 0.756989 0.395333 
0.848776 0.206399 0.660965 0.937485 0.9804 
0.656555 0.545338 0.224564 0.633309 0.616554 
0.401357 0.0949261 0.994544 0.281652 0.976338 
0.965698 0.795073 0.789588 0.652813 0.00822272 
0.646863 0.533444 0.697663 0.322525 0.214434 
0.284011 0.238911 0.901758 0.225872 0.502231 
0.473152 0.362609 0.975701 0.445701 0.341227 
0.911388 0.934121 0.648315 0.618835 0.491923 
0.312221 0.720445 0.015194 0.903299 0.613595 
0.533016 0.837408 0.623949 0.80088 0.624562 
0.882579 0.380446 0.212515 0.201153 0.770008 
0.930727 0.68044 0.835123 0.441818 0.00790464 
0.178236 0.495231 0.940273 0.284543 0.153175 
0.931468 0.496654 0.970636 0.759233 0.157888 
0.686247 0.591393 0.435574 0.445534 0.531321 
0.309641 0.716002 0.0679265 0.828601 0.169864 
0.0569461 0.544576 0.603821 0.601754 0.10786 
0.253246 0.754418 0.651955 0.736238 0.00794509 
0.16646 0.0600779 0.483337 0.778051 0.155466 
0.103208 0.993311 0.937578 0.771836 0.436119 
0.876183 0.743824 0.62688 0.204715 0.237382 
0.703238 0.403455 0.549909 0.252199 0.599411 
0.993548 0.96008 0.723057 0.130572 0.190787 
0.0727269 0.504848 0.876254 0.0388154 0.739222 
0.976344 0.0355682 0.973026 0.136711 0.478755 
0.293486 0.595876 0.870276 0.747449 0.895592 
0.943974 0.772984 0.49402 0.0688945 0.13416 
0.17367 0.60217 0.45846 0.824358 0.772392 
0.858529 0.760395 0.162095 0.217666 0.847887 
0.939017 0.374701 0.914874 0.956821 0.488926 
0.19039 0.40031 0.689978 0.106116 0.284091 
0.886029 0.00252886 0.372136 0.465303 0.166133 
0.857666 0.377401 0.289486 0.62974 0.789094 
0.0451288 0.466996 0.77934 0.958334 0.0240003 
0.25174 0.973331 0.383868 0.116929 0.250073 
0.337736 0.841937 0.69496 0.118308 0.836078 
0.769252 0.668411 0.943527 0.942202 0.508312 
0.19356 0.0359734 0.294458 0.793249 0.105486 
0.215069 0.48367 0.189071 0.100329 0.39906 
0.727931 0.139999 0.693289 0.733548 0.997623 
0.0530897 0.899271 0.77182 0.337794 0.59972 
0.495564 0.24805 0.934023 0.605336 0.42994 
0.937867 0.489472 0.921442 0.284255 0.633472 
0.0648002 0.142664 0.999824 0.0797569 0.13071 
0.659999 0.361213 0.697677 0.323427 0.541653 
0.689135 0.138549 0.569113 0.827789 0.994129 
0.59114 0.43665 0.977924 0.885882 0.39812 
0.171641 0.24962 0.21202 0.708306 0.259842 
0.993419 0.098885 0.300327 0.452115 0.172765 
0.457867 0.255509 0.404194 0.715708 0.00285237 
0.858203 0.771371 0.288919 0.850861 0.175485 
0.830767 0.363967 0.520854 0.4842 0.0485957 
0.379782 0.204838 0.605672 0.847205 0.249946 
0.107237 0.351245 0.122872 0.513009 0.711586 
0.799389 0.28754 0.706384 0.128663 0.924772 
0.202946 0.229994 0.641889 0.311625 0.926101 
0.322552 0.451545 0.173409 0.110621 0.106639 
0.130801 0.790857 0.816381 0.585222 0.77821 
0.803171 0.38299 0.265289 0.942222 0.404625 
0.388938 0.612172 0.178594 0.380166 0.883899 
0.588781 0.227757 0.414309 0.925864 0.334367 
0.166757 0.257761 0.709719 0.788285 0.953795 
0.0437393 0.514522 0.375218 0.00568963 0.884074 
0.610052 0.912506 0.951798 0.0440969 0.531965 
0.367528 0.269321 0.252967 0.0782977 0.0998326 
0.191758 0.635273 0.173948 0.08161 0.34123 
0.491048 0.0719124 0.788744 0.67947 0.815853 
0.104449 0.927845 0.770137 0.676391 0.366224 
0.791305 0.720972 0.677084 0.0843517 0.934869 
0.00942939 0.281583 0.0707259 0.0614907 0.941843 
0.025207 0.971147 0.0747515 0.249806 0.144903 
0.0250666 0.0248856 0.00951157 0.914654 0.435854 
0.666469 0.0057851 0.261526 0.943311 0.685918 
0.718062 0.73262 0.412113 0.280791 0.904698 
0.331861 0.389942 0.862102 0.4618 0.964473 
0.359716 0.872265 0.43701 0.743027 0.313005 
0.895103 0.701058 0.154595 0.545628 0.990669 
0.435912 0.552414 0.747695 0.540437 0.13784 
0.320665 0.000446371 0.451361 0.2738 0.17571 
0.177996 0.154212 0.829049 0.833639 0.699738 
0.57173 0.12477 0.0252961 0.696623 0.488871 
0.127446 0.299715 0.798337 0.273651 0.495782 
0.968623 0.75576 0.457788 0.119013 0.851619 
0.363959 0.0089826 0.197815 0.275085 0.723963 
0.9023 0.35775 0.347985 0.886153 0.0383865 
0.265348 0.648493 0.981682 0.382109 0.721455 
0.0115046 0.994373 0.940617 0.887318 0.199372 
0.641533 8.27621e-05 0.646367 0.845447 0.644476 
0.158942 0.553843 0.622335 0.690551 0.179634 
0.582832 0.31181 0.823863 0.04799 0.382184 
0.792625 0.497853 0.879828 0.0296875 0.77197 
0.486752 0.529062 0.586194 0.644922 0.206417 
0.556493 0.230002 0.301652 0.299363 0.916789 
0.272907 0.886227 0.0594123 0.818473 0.478023 
0.0149034 0.534897 0.35883 0.382784 0.00353204 
0.970032 0.553801 0.193196 0.159788 0.298546 
0.260038 0.960428 0.48056 0.935822 0.312912 
0.329726 0.817937 0.800263 0.828409 0.208697 
0.74129 0.0474089 0.0517565 0.173076 0.415313 
0.676686 0.52415 0.0898933 0.99437 0.93923 
0.235689 0.78965 0.781527 0.240846 0.618669 
0.445813 0.710919 0.579761 0.454119 0.979697 
0.594724 0.828193 0.61215 0.63638 0.348363 
0.0270145 0.616586 0.651861 0.0492378 0.309704 
0.469799 0.696033 0.630823 0.170691 0.520763 
0.975247 0.295902 0.0798776 0.835688 0.0607858 
0.768149 0.857169 0.446289 0.0791108 0.606216 
0.16364 0.429801 0.575871 0.301817 0.8085 
0.978399 0.349909 0.350607 0.957077 0.868789 
0.849843 0.651083 0.271621 0.372927 0.215694 
0.307293 0.44322 0.0506874 0.0425218 0.844205 
0.852962 0.390648 0.0383839 0.334503 0.461642 
0.338909 0.10267 0.612592 0.262132 0.539845 
0.7053 0.730056 0.0385953 0.4771 0.302938 
0.72774 0.411151 0.180104 0.147879 0.988237 
0.883438 0.827508 0.358419 0.634934 0.881684 
0.252394 0.481421 0.899628 0.211468 0.206685 
0.207078 0.777766 0.651941 0.231178 0.514282 
0.360095 0.932885 0.990291 0.563368 0.846235 
0.566761 0.127819 0.709559 0.373009 0.012097 
0.746577 0.501945 0.0868181 0.0483928 0.0506434 
0.444319 0.549477 0.667232 0.751662 0.9461 
0.731308 0.363598 0.471833 0.720628 0.678864 
0.250158 0.751384 0.506057 0.258039 0.859409 
0.848609 0.512327 0.76789 0.35121 0.565959 
0.0101313 0.71671 0.194572 0.408919 0.915729 
0.279325 0.800148 0.834105 0.321731 0.494952 
0.601178 0.829836 0.792242 0.445363 0.621648 
0.965453 0.0370288 0.640605 0.89638 0.263673 
0.230121 0.417386 0.534956 0.0394139 0.109387 
0.34598 0.124597 0.909621 0.60176 0.245135 
0.412554 0.797422 0.512122 0.411049 0.271921 
0.0673038 0.969671 0.251543 0.728785 0.921819 
0.389124 0.860115 0.544841 0.514448 0.0289989 
0.64852 0.866501 0.90277 0.230685 0.988969 
0.530487 0.287361 0.750861 0.273733 0.0560952 
0.988401 0.823373 0.446954 0.775546 0.630543 
0.472161 0.2654 0.524842 0.824443 0.665238 
0.281638 0.650146 0.00897855 0.380918 0.938694 
0.996335 0.989322 0.661724 0.977136 0.127852 
0.501307 0.47253 0.990372 0.358903 0.705425 
0.0301453 0.775373 0.284395 0.56329 0.217256 
0.885154 0.200837 0.533606 0.394938 0.581223 
0.220499 0.830232 0.436912 0.421025 0.302285 
0.786385 0.311404 0.437244 0.311076 0.0866991 
0.783155 0.185037 0.493852 0.43239 0.934159 
0.548082 0.132606 0.44982 0.439597 0.011706 
0.431852 0.450325 0.306712 0.360314 0.210041 
0.781404 0.282909 0.438864 0.399248 0.957136 
0.272359 0.766239 0.430606 0.904469 0.707986 
0.0990582 0.671731 0.183865 0.601319 0.278234 
0.122179 0.171503 0.963675 0.317518 0.258194 
0.850194 0.544292 0.779638 0.310209 0.229815 
0.944887 0.230519 0.975576 0.766021 0.70108 
0.525239 0.804972 0.895056 0.62684 0.924835 
0.376921 0.936093 0.0493995 0.705272 0.844579 
0.347819 0.229567 0.928872 0.104297 0.394293 
0.699241 0.394398 0.125526 0.747247 0.799004 
0.665547 0.521938 0.950347 0.0109866 0.362581 
0.691963 0.187168 0.0948448 0.532394 0.183942 
0.768282 0.238621 0.721185 0.880194 0.863088 
0.682792 0.242613 0.556735 0.465163 0.715865 
0.524903 0.564594 0.77545 0.754887 0.589769 
0.518558 0.580111 0.478321 0.0633638 0.642091 
0.470051 0.296705 0.274152 0.912264 0.553952 
0.572423 0.670122 0.215886 0.297754 0.224951 
0.442957 0.286422 0.280449 0.942098 0.329728 
0.837313 0.10026 0.206921 0.677164 0.216877 
0.781149 0.314351 0.209401 0.991108 0.0211951 
0.539189 0.0347881 0.681455 0.456907 0.307006 
0.102203 0.57835 0.37488 0.237862 0.770017 
0.531503 0.934352 0.722763 0.331359 0.0678298 
0.479963 0.5735 0.843842 0.975881 0.0269578 
0.281668 0.956133 0.94858 0.0185433 0.369809 
0.465408 0.155727 0.959788 0.28645 0.568007 
0.252459 0.122696 0.163164 0.184103 0.483199 
0.636582 0.413395 0.894191 0.645078 0.880984 
0.83461 0.824492 0.240621 0.630966 0.180436 
0.983742 0.0138822 0.969699 0.705782 0.479286 
0.294838 0.876831 0.970278 0.740445 0.232718 
0.416883 0.447222 0.102542 0.845492 0.160954 
0.00205167 0.239574 0.47271 0.120772 0.29589 
0.147973 0.90949 0.862248 0.987856 0.767222 
0.6639 0.590512 0.00337166 0.63124 0.350482 
0.314446 0.676445 0.814206 0.0440111 0.773944 
0.0763077 0.933453 0.503264 0.949057 0.166115 
