4000 5
0.143364 0.491334 0.712627 0.975062 0.60647 
0.885465 0.23177 0.244776 0.494381 0.908623 
0.187356 0.815209 0.842105 0.212717 0.0680011 
0.929191 0.996942 0.00609054 0.317302 0.626347 
0.520305 0.236087 0.142865 0.210703 0.45335 
0.792391 0.14859 0.206349 0.587479 0.320124 
0.839291 0.817242 0.434542 0.518853 0.922005 
0.498773 0.41852 0.348274 0.528542 0.732791 
0.868498 0.174779 0.995536 0.814088 0.760821 
0.71673 0.194561 0.650612 0.436065 0.845945 
0.0230798 0.821293 0.906628 0.487818 0.807474 
0.499489 0.616996 0.744971 0.0598 0.457818 
0.777691 0.243299 0.368709 0.00782446 0.0208305 
0.937148 0.606515 0.139235 0.872674 0.135612 
0.230744 0.701016 0.156934 0.532951 0.649626 
0.722881 0.763064 0.939956 0.463072 0.556107 
0.959796 0.839737 0.517456 0.214834 0.924652 
0.900158 0.167368 0.609153 0.962558 0.659235 
0.68171 0.255581 0.47321 0.422618 0.616891 
0.963256 0.648364 0.650342 0.793571 0.168238 
0.482626 0.416939 0.0334134 0.773395 0.669004 
0.00407257 0.925555 0.274072 0.893506 0.00277034 
0.178854 0.495255 0.217539 0.733891 0.522684 
0.854677 0.910897 0.153308 0.615048 0.631136 
0.325057 0.326289 0.416946 0.246457 0.640788 
0.180725 0.087218 0.435283 0.171864 0.963752 
0.375542 0.352172 0.0253137 0.622335 0.186238 
0.841581 0.129536 0.844682 0.753423 0.0719792 
0.920485 0.186508 0.244707 0.383162 0.276963 
0.471188 0.846559 0.269181 0.0402764 0.436875 
0.0947914 0.0199116 0.738373 0.667683 0.0396146 
0.412755 0.3958 0.609187 0.916989 0.206536 
0.958347 0.249265 0.553155 0.110508 0.167781 
0.895815 0.198613 0.645788 0.898727 0.641251 
0.860576 0.127873 0.690778 0.0758096 0.523346 
0.551419 0.905874 0.456394 0.905143 0.141015 
0.686623 0.700453 0.158619 0.987955 0.467377 
0.32313 0.993833 0.615841 0.74485 0.596955 
0.47586 0.0593716 0.848976 0.737633 0.487188 
0.272302 0.262345 0.382045 0.918717 0.661906 
0.899119 0.0575759 0.3827 0.189608 0.424254 
0.593051 0.388027 0.19533 0.141306 0.140582 
0.591702 0.51275 0.773953 0.16133 0.505389 
0.434334 0.964678 0.280806 0.51229 0.779821 
0.513002 0.0587424 0.303968 0.27819 0.284151 
0.242517 0.515274 0.627013 0.770646 0.671985 
0.27197 0.297282 0.0401269 0.0183277 0.847063 
0.441094 0.97787 0.751951 0.963081 0.370961 
0.344662 0.826122 0.320179 0.74818 0.150214 
0.892024 0.903571 0.566771 0.513952 0.192147 
0.793708 0.177527 0.0117064 0.175883 0.712449 
0.233247 0.904789 0.0253243 0.366665 0.645211 
0.696757 0.255548 0.863119 0.188898 0.0482273 
0.53949 0.286682 0.385415 0.222836 0.0347361 
0.0864934 0.394708 0.865644 0.923298 0.626714 
0.255054 0.414244 0.0936079 0.815344 0.43943 
0.627928 0.685647 0.357779 0.274159 0.0995025 
0.152791 0.0981854 0.396897 0.723939 0.845727 
0.654462 0.292195 0.903509 0.0116022 0.386092 
0.11155 0.484031 0.58721 0.98065 0.63432 
0.269281 0.0462089 0.86758 0.768594 0.562461 
0.929871 0.855353 0.00624227 0.953332 0.7121 
0.605575 0.685448 0.883058 0.575448 0.708214 
0.848213 0.357617 0.962317 0.830855 0.888512 
0.386421 0.840843 0.844924 0.63826 0.767398 
0.987038 0.734406 0.457283 0.874878 0.534015 
0.749952 0.343381 0.502227 0.716367 0.288552 
0.852017 0.265074 0.635862 0.704085 0.412789 
0.896812 0.33359 0.990275 0.718416 0.11877 
0.597441 0.727026 0.728444 0.651452 0.696236 
0.868486 0.949296 0.853108 0.797391 0.267685 
0.333009 0.466569 0.879583 0.853115 0.587718 
0.885169 0.39611 0.219801 0.10849 0.742039 
0.0755529 0.777614 0.136418 0.424158 0.42033 
0.318096 0.45943 0.750645 0.433995 0.291196 
0.465379 0.238725 0.954088 0.740179 0.12161 
0.565935 0.596208 0.514471 0.570025 0.580364 
0.710924 0.940213 0.194753 0.807351 0.378786 
0.839431 0.38252 0.820679 0.748288 0.558554 
0.32715 0.224531 0.88185 0.826228 0.187501 
0.0970243 0.24523 0.250484 0.87346 0.0928675 
0.0528537 0.430098 0.64791 0.323975 0.244461 
0.235498 0.496378 0.994061 0.807412 0.590267 
0.600633 0.892953 0.839838 0.191763 0.158302 
0.1906 0.334378 0.18093 0.887019 0.215562 
0.608788 0.303159 0.762078 0.145028 0.198646 
0.390653 0.929961 0.996894 0.144171 0.946365 
0.549462 0.445222 0.550868 0.954735 0.669048 
0.0471311 0.677049 0.211199 0.263395 0.68015 
0.973081 0.541273 0.591485 0.66562 0.336267 
0.415053 0.170665 0.623284 0.0689083 0.00567264 
0.841708 0.382927 0.927603 0.639273 0.753664 
0.590515 0.435208 0.510865 0.0394705 0.633376 
0.859552 0.242994 0.776879 0.144934 0.995486 
0.0761567 0.507017 0.877165 0.935363 0.950791 
0.91266 0.557638 0.774003 0.224577 0.189707 
0.544009 0.840825 0.561542 0.681199 0.755084 
0.719551 0.586254 0.0710317 0.771436 0.948177 
0.934506 0.969948 0.25582 0.449254 0.959721 
0.174395 0.734545 0.332986 0.96274 0.917809 
0.239907 0.342832 0.919354 0.43065 0.233726 
0.855602 0.430462 0.937491 0.374822 0.307844 
0.0129921 0.902783 0.735603 0.976218 0.0470715 
0.0520339 0.388913 0.790068 0.551319 0.148661 
0.807439 0.305189 0.555208 0.770672 0.073653 
0.790761 0.483498 0.934465 0.907804 0.875323 
0.254909 0.413908 0.437142 0.921331 0.188811 
0.571975 0.644513 0.122239 0.74571 0.738532 
0.747734 0.58595 0.911597 0.396551 0.906231 
0.0184121 0.203508 0.691318 0.670289 0.742837 
0.587733 0.51381 0.304501 0.356821 0.371065 
0.566285 0.335205 0.915997 0.173971 0.132146 
0.234825 0.0826167 0.266977 0.427497 0.0876362 
0.337531 0.184126 0.320934 0.954656 0.206114 
0.521071 0.628981 0.613665 0.747033 0.279079 
0.311239 0.497091 0.977159 0.083576 0.47341 
0.547011 0.233636 0.640415 0.44691 0.597866 
0.48314 0.271427 0.880024 0.478478 0.991204 
0.475233 0.0684204 0.220156 0.529496 0.306171 
0.219352 0.678114 0.931042 0.876016 0.34384 
0.909907 0.368007 0.348612 0.372251 0.548386 
0.177543 0.233128 0.00073193 0.767681 0.677243 
0.432908 0.970732 0.964769 0.309918 0.205816 
0.814249 0.350069 0.00140996 0.134881 0.931301 
0.839528 0.981607 0.189269 0.541157 0.0794772 
0.915151 0.107917 0.29618 0.833734 0.263821 
0.494322 0.0586294 0.457729 0.1597 0.861451 
0.57115 0.0460878 0.982175 0.829581 0.725176 
0.868074 0.500936 0.315516 0.405545 0.395677 
0.716441 0.698387 0.423387 0.324559 0.193668 
0.0166987 0.374769 0.336015 0.958718 0.327928 
0.229543 0.0317626 0.903688 0.100328 0.683329 
0.740654 0.0744278 0.203219 0.806252 0.946021 
0.310787 0.0426155 0.59008 0.895846 0.642315 
0.922884 0.0681765 0.999305 0.0777889 0.745507 
0.873824 0.87954 0.97367 0.561193 0.379363 
0.603203 0.261098 0.408515 0.957247 0.871243 
0.396518 0.680782 0.941644 0.950787 0.845621 
0.164297 0.844671 0.767102 0.906431 0.125329 
0.85393 0.676066 0.603501 0.134128 0.472464 
0.237541 0.996775 0.60209 0.338067 0.0157059 
0.212457 0.707112 0.786997 0.522787 0.863092 
0.0800193 0.857532 0.425832 0.9319 0.289864 
0.113624 0.519178 0.969165 0.844136 0.205623 
0.784742 0.665055 0.679996 0.629569 0.890226 
0.387001 0.207595 0.440531 0.148605 0.755804 
0.656564 0.455533 0.20996 0.638003 0.74771 
0.0686366 0.863644 0.43427 0.0883401 0.453478 
0.523108 0.243321 0.791144 0.18685 0.689434 
0.131503 0.7341 0.0246659 0.845629 0.403783 
0.20101 0.190128 0.162055 0.244579 0.181123 
0.0159123 0.698215 0.515565 0.995885 0.493005 
0.859239 0.935616 0.524067 0.368519 0.637888 
0.724548 0.581349 0.811039 0.0416202 0.658503 
0.463453 0.603217 0.477821 0.941798 0.734905 
0.962853 0.014316 0.381334 0.989979 0.91228 
0.354954 0.859941 0.563164 0.603242 0.362038 
0.130265 0.359074 0.766482 0.656344 0.886394 
0.915676 0.129252 0.323584 0.0431422 0.538655 
0.673983 0.637286 0.48726 0.122986 0.220291 
0.906122 0.36613 0.505895 0.329772 0.696898 
0.514435 0.623539 0.19445 0.0529359 0.993645 
0.163084 0.344106 0.217133 0.677714 0.606231 
0.792334 0.848325 0.863551 0.468335 0.48671 
0.717098 0.291449 0.575206 0.297963 0.0330373 
0.759082 0.181887 0.843309 0.0559141 0.497796 
0.680073 0.0945967 0.112434 0.21564 0.913372 
0.715503 0.782805 0.686945 0.133392 0.993032 
0.613653 0.445115 0.805226 0.580644 0.65468 
0.444877 0.937067 0.623005 0.938231 0.471833 
0.0645377 0.230546 0.330271 0.713203 0.555446 
0.192616 0.331276 0.161203 0.105934 0.479096 
0.311274 0.104739 0.429315 0.026707 0.605486 
0.150202 0.847454 0.713238 0.56303 0.960278 
0.215609 0.807903 0.122157 0.369511 0.933554 
0.173043 0.99887 0.735527 0.654597 0.244351 
0.26127 0.0977284 0.6821 0.121443 0.214226 
0.254875 0.119608 0.959533 0.584077 0.988188 
0.0299542 0.240855 0.100588 0.655173 0.00431002 
0.558248 0.558803 0.492523 0.0988438 0.698575 
0.243451 0.844087 0.781231 0.884219 0.666963 
0.0253318 0.61728 0.424332 0.348501 0.767718 
0.628853 0.503113 0.361753 0.356754 0.445551 
0.148925 0.740053 0.0409158 0.621002 0.284378 
0.574518 0.998845 0.78014 0.326389 0.625073 
0.893466 0.230253 0.509526 0.475003 0.443748 
0.276876 0.707326 0.615275 0.224022 0.0726081 
0.126138 0.691504 0.209215 0.732082 0.206802 
0.445766 0.29774 0.889141 0.237847 0.352422 
0.292763 0.892453 0.447185 0.471678 0.406908 
0.584388 0.205208 0.438262 0.218096 0.756889 
0.150486 0.785454 0.532528 0.137671 0.192688 
0.669754 0.780797 0.611792 0.497128 0.491392 
0.280466 0.421184 0.624788 0.215224 0.0646643 
0.842232 0.19338 0.804889 0.435715 0.363244 
0.11855 0.361507 0.145329 0.739732 0.32125 
0.287837 0.38689 0.990881 0.0379644 0.171295 
0.502285 0.611326 0.493266 0.276843 0.998373 
0.281225 0.525667 0.372081 0.999046 0.597052 
0.115773 0.526245 0.411609 0.544398 0.166174 
0.672213 0.950825 0.767489 0.253161 0.56975 
0.49037 0.787807 0.729913 0.0127936 0.141899 
0.820951 0.0198547 0.508812 0.432731 0.271107 
0.66463 0.408888 0.57415 0.148249 0.182482 
0.800275 0.260571 0.80757 0.54728 0.451586 
0.445339 0.301392 0.384727 0.580134 0.275345 
0.441315 0.411936 0.867083 0.930524 0.437957 
0.698321 0.952178 0.870077 0.125123 0.719484 
0.375137 0.866344 0.28338 0.0820574 0.428526 
0.880332 0.646791 0.615611 0.30494 0.768116 
0.175841 0.539577 0.155362 0.03008 0.758194 
0.192229 0.0565879 0.436132 0.620094 0.204593 
0.390435 0.23785 0.861978 0.336191 0.551982 
0.473713 0.0215192 0.399337 0.761925 0.855163 
0.0264097 0.913418 0.751956 0.65856 0.310704 
0.898529 0.613954 0.855866 0.528686 0.490415 
0.811477 0.548438 0.321472 0.943081 0.838452 
0.537008 0.101795 0.769661 0.194874 0.150432 
0.66918 0.409643 0.106789 0.474609 0.290216 
0.919957 0.265776 0.963571 0.386963 0.932366 
0.680075 0.588349 0.755602 0.895614 0.955031 
0.923922 0.782996 0.324292 0.195836 0.465555 
0.642685 0.0173679 0.1079 0.893805 0.398266 
0.507443 0.902309 0.856963 0.784619 0.75305 
0.536686 0.703332 0.350556 0.105368 0.762816 
0.626085 0.47742 0.528118 0.842777 0.374856 
0.829199 0.435893 0.166627 0.325122 0.523052 
0.0764585 0.150286 0.334317 0.60429 0.615448 
0.813587 0.599934 0.115155 0.00746294 0.882987 
0.509497 0.690242 0.763179 0.445387 0.445406 
0.44618 0.661803 0.97016 0.986249 0.955321 
0.721322 0.165938 0.0258207 0.897224 0.953344 
0.411087 0.146687 0.5013 0.319205 0.11228 
0.717795 0.0970944 0.780414 0.745054 0.439045 
0.503471 0.91228 0.122775 0.170063 0.675335 
0.581201 0.656155 0.849196 0.798752 0.349209 
0.00158143 0.0552615 0.782416 0.933157 0.261888 
0.00235512 0.716902 0.639203 0.643072 0.203478 
0.476676 0.759826 0.531275 0.0497451 0.975153 
0.171553 0.803861 0.300953 0.147202 0.955093 
0.0335897 0.42262 0.912674 0.917545 0.658184 
0.795152 0.04231 0.864295 0.638054 0.103526 
0.386137 0.482095 0.329157 0.547937 0.317681 
0.16688 0.153999 0.600219 0.808381 0.28941 
0.159076 0.689712 0.881676 0.842787 0.817877 
0.858704 0.0356688 0.551572 0.658247 0.705669 
0.663944 0.673482 0.62099 0.789878 0.73796 
0.379837 0.394299 0.596368 0.800377 0.0481303 
0.706456 0.320653 0.943879 0.0776166 0.076269 
0.821299 0.464886 0.364235 0.984649 0.738577 
0.306053 0.187202 0.188494 0.872892 0.727632 
0.873609 0.778499 0.983606 0.808098 0.172755 
0.678396 0.326011 0.651136 0.589382 0.694836 
0.0341367 0.128857 0.704873 0.78549 0.521155 
0.264038 0.223551 0.0234847 0.442375 0.0201909 
0.393567 0.433114 0.690694 0.754603 0.73774 
0.939526 0.886692 0.021157 0.575501 0.62115 
0.95441 0.542381 0.333531 0.753905 0.759209 
0.351295 0.588084 0.155453 0.137467 0.00229563 
0.87591 0.240833 0.0121672 0.559931 0.720322 
0.523422 0.846747 0.506663 0.586203 0.26031 
0.0408407 0.932899 0.487728 0.0139132 0.828901 
0.301836 0.691378 0.509798 0.194018 0.0166445 
0.773962 0.535243 0.971629 0.159501 0.697596 
0.474482 0.958664 0.916871 0.292557 0.940703 
0.134146 0.824611 0.11404 0.472595 0.977139 
0.461493 0.148233 0.510216 0.188069 0.916823 
0.228219 0.71513 0.684337 0.312244 0.103514 
0.142212 0.885544 0.202978 0.593126 0.987651 
0.008662 0.0607327 0.134449 0.99141 0.826153 
0.448225 0.783261 0.889165 0.225247 0.197959 
0.380732 0.492326 0.293173 0.535154 0.772219 
0.528439 0.364165 0.0400284 0.203595 0.65251 
0.95971 0.192541 0.276195 0.969793 0.558232 
0.578354 0.519262 0.635615 0.0380485 0.432058 
0.684316 0.0968362 0.647175 0.672051 0.674503 
0.488063 0.384575 0.748905 0.638746 0.471142 
0.494638 0.879578 0.99289 0.654561 0.244352 
0.690896 0.507347 0.484561 0.417489 0.799724 
0.852112 0.856595 0.933198 0.833059 0.560234 
0.5866 0.243067 0.108466 0.538194 0.5652 
0.736298 0.568721 0.452173 0.129136 0.825607 
0.669581 0.606468 0.17575 0.484923 0.727091 
0.510937 0.815775 0.628254 0.803851 0.317085 
0.593588 0.277813 0.955572 0.150541 0.530152 
0.311964 0.87793 0.684274 0.362221 0.789115 
0.191462 0.361171 0.884951 0.741906 0.218545 
0.433573 0.598987 0.348724 0.562118 0.249924 
0.0175685 0.54825 0.636079 0.419438 0.698542 
0.0752391 0.916415 0.752626 0.687976 0.170688 
0.755108 0.884769 0.932159 0.756884 0.0178022 
0.433731 0.103535 0.0913005 0.255489 0.662488 
0.156195 0.176165 0.466354 0.782351 0.769722 
0.929759 0.851366 0.205637 0.742167 0.991251 
0.953405 0.157382 0.645297 0.889248 0.388116 
0.516638 0.336839 0.923324 0.404894 0.660004 
0.00434613 0.309299 0.757862 0.443949 0.62068 
0.292489 0.364528 0.00714902 0.261318 0.937226 
0.775875 0.639399 0.387128 0.567065 0.286816 
0.410039 0.639719 0.587994 0.261185 0.38117 
0.022494 0.75534 0.0628923 0.866231 0.268369 
0.595779 0.669916 0.332968 0.909374 0.159045 
0.549605 0.514086 0.679036 0.566619 0.568753 
0.468754 0.335626 0.607915 0.356927 0.410426 
0.567102 0.784693 0.0918216 0.0645643 0.826119 
0.60192 0.196311 0.715433 0.898207 0.601649 
0.49933 0.226035 0.570011 0.832852 0.290286 
0.586129 0.172446 0.592515 0.963616 0.135114 
0.80808 0.947366 0.688487 0.462326 0.530521 
0.9331 0.00778858 0.412328 0.619189 0.687102 
0.568133 0.347097 0.127462 0.561245 0.594355 
0.495075 0.565936 0.845193 0.102371 0.0910168 
0.160349 0.683667 0.847981 0.806073 0.974404 
0.593997 0.840724 0.489687 0.970754 0.704259 
0.219099 0.218939 0.485163 0.833272 0.412172 
0.44393 0.0743789 0.27573 0.217288 0.631517 
0.861336 0.844911 0.190039 0.135374 0.130701 
0.257339 0.463114 0.606142 0.826888 0.594442 
0.247744 0.650209 0.0495721 0.668342 0.268184 
0.486366 0.384928 0.31788 0.615534 0.998139 
0.860464 0.85208 0.280662 0.912168 0.323004 
0.00998515 0.934298 0.571741 0.85069 0.758832 
0.681254 0.0398955 0.836925 0.986684 0.250907 
0.793986 0.169678 0.761972 0.85625 0.476167 
0.35497 0.293865 0.587566 0.478022 0.677541 
0.546205 0.480685 0.0330965 0.712165 0.610442 
0.425232 0.857043 0.762155 0.471881 0.064649 
0.655921 0.667437 0.458429 0.263768 0.410775 
0.790561 0.243446 0.0740194 0.837348 0.791163 
0.323047 0.376019 0.255429 0.88743 0.105274 
0.0795758 0.86343 0.165391 0.469842 0.0453841 
0.313172 0.690182 0.354497 0.297064 0.147239 
0.992426 0.845511 0.619691 0.749245 0.796588 
0.928259 0.501195 0.7493 0.115737 0.464054 
0.488525 0.165538 0.0985807 0.640561 0.293703 
0.486148 0.752591 0.691939 0.382311 0.936261 
0.0100453 0.710664 0.0269352 0.324776 0.0986298 
0.952861 0.998409 0.00719499 0.334341 0.187278 
0.941498 0.301621 0.843915 0.444933 0.0818415 
0.90951 0.0466363 0.215652 0.594079 0.388479 
0.730713 0.248752 0.983931 0.0843565 0.607417 
0.855748 0.834754 0.827615 0.359469 0.165931 
0.706235 0.607903 0.253916 0.51354 0.167405 
0.838482 0.419869 0.936118 0.53133 0.192657 
0.539727 0.478983 0.205481 0.242802 0.143153 
0.191723 0.631374 0.696708 0.10251 0.95945 
0.199205 0.443539 0.587418 0.334837 0.980505 
0.80674 0.448607 0.644338 0.168608 0.486359 
0.768273 0.324586 0.348826 0.458032 0.271584 
0.591362 0.752632 0.406693 0.573306 0.121243 
0.145179 0.107528 0.883882 0.421313 0.215777 
0.958545 0.554881 0.188483 0.490026 0.568343 
0.823543 0.821433 0.687596 0.225207 0.181627 
0.19206 0.685645 0.542496 0.437507 0.949095 
0.7247 0.459128 0.428773 0.192529 0.68697 
0.93915 0.214004 0.899145 0.581359 0.916182 
0.90076 0.163376 0.502912 0.148312 0.441863 
0.351432 0.700315 0.743667 0.458061 0.67994 
0.479755 0.0921562 0.23499 0.92202 0.842654 
0.726754 0.45829 0.969412 0.49284 0.397396 
0.364961 0.0233893 0.700243 0.0364841 0.265994 
0.443514 0.695557 0.645296 0.921083 0.506327 
0.593639 0.992485 0.658884 0.194104 0.33105 
0.32194 0.786634 0.243488 0.509807 0.672665 
0.588108 0.177954 0.355863 0.725842 0.0583252 
0.984983 0.790421 0.12298 0.954848 0.787315 
0.0882294 0.469704 0.77149 0.0768833 0.0801795 
0.0712871 0.854278 0.131174 0.848317 0.938281 
0.195947 0.245258 0.148216 0.0997327 0.71847 
0.733532 0.575673 0.36221 0.0932755 0.215462 
0.790427 0.0297638 0.273811 0.79918 0.0686502 
0.223722 0.987037 0.141937 0.977968 0.341393 
0.79061 0.00410585 0.840052 0.60948 0.363489 
0.20448 0.0820036 0.620128 0.993563 0.243039 
0.679917 0.0623806 0.367168 0.815082 0.850784 
0.527694 0.191984 0.386292 0.165676 0.51372 
0.262221 0.829149 0.127433 0.185767 0.196611 
0.498403 0.581844 0.469586 0.399926 0.533047 
0.125142 0.369864 0.387104 0.1092 0.980476 
0.574049 0.0144453 0.888584 0.968444 0.42586 
0.630094 0.26528 0.017891 0.269926 0.806681 
0.119672 0.729707 0.369311 0.574127 0.349441 
0.538567 0.548134 0.383809 0.667869 0.871286 
0.366963 0.0967061 0.525021 0.787607 0.538078 
0.100372 0.0627692 0.886717 0.170252 0.931691 
0.263872 0.577998 0.630577 0.952106 0.334059 
0.0859966 0.513802 0.139652 0.826613 0.559537 
0.173426 0.822049 0.120392 0.439491 0.0398106 
0.68349 0.530039 0.133077 0.715722 0.359809 
0.737261 0.901711 0.571483 0.624053 0.476739 
0.0459815 0.730565 0.716417 0.730487 0.296302 
0.934892 0.617966 0.440128 0.941185 0.890093 
0.737245 0.0256689 0.961854 0.199881 0.0356044 
0.755045 0.63613 0.881313 0.535329 0.278289 
0.846198 0.0199709 0.869009 0.243245 0.155422 
0.140484 0.438083 0.713316 0.247395 0.146784 
0.290915 0.652232 0.225906 0.232069 0.309033 
0.0239771 0.618574 0.449812 0.686254 0.544121 
0.224336 0.0746634 0.252065 0.892002 0.872606 
0.640116 0.576113 0.541492 0.97241 0.354525 
0.449968 0.833778 0.230584 0.724669 0.522795 
0.558577 0.716924 0.3748 0.55977 0.301612 
0.635303 0.184008 0.769011 0.663146 0.00769958 
0.337761 0.754726 0.379921 0.332382 0.823594 
0.80202 0.982451 0.65232 0.353057 0.20717 
0.703982 0.802882 0.648282 0.686941 0.110184 
0.215744 0.216876 0.460492 0.372446 0.10081 
0.958233 0.604336 0.123834 0.671683 0.17503 
0.678198 0.787789 0.826699 0.00812897 0.299307 
0.398736 0.0159074 0.683871 0.840582 0.290621 
0.715328 0.971346 0.359577 0.511656 0.867515 
0.881476 0.0810808 0.0614625 0.0252974 0.450891 
0.434938 0.131097 0.387876 0.729827 0.146739 
0.68815 0.982395 0.626287 0.794627 0.428099 
0.66564 0.468674 0.9548 0.27728 0.286729 
0.860065 0.214071 0.71702 0.652584 0.727659 
0.518193 0.907335 0.247042 0.504047 0.768273 
0.520367 0.00501298 0.984067 0.880682 0.887786 
0.883514 0.117136 0.367461 0.859223 0.0845952 
0.474287 0.932737 0.240194 0.676179 0.103813 
0.611359 0.526515 0.243424 0.379531 0.525 
0.792539 0.692713 0.535072 0.402044 0.649315 
0.0376818 0.132674 0.218977 0.00722043 0.38991 
0.0893388 0.809843 0.764234 0.745878 0.444425 
0.391712 0.746689 0.449816 0.650216 0.0368473 
0.0753813 0.721708 0.244538 0.723929 0.568928 
0.81213 0.524564 0.953788 0.733954 0.974617 
0.592503 0.486615 0.893238 0.669446 0.0708841 
0.980411 0.95936 0.0347704 0.730563 0.170327 
0.667091 0.0536486 0.0197268 0.501451 0.946451 
0.899406 0.711478 0.506444 0.229894 0.77228 
0.479245 0.61757 0.00214157 0.825432 0.230626 
0.308733 0.454583 0.695486 0.772923 0.204573 
0.36984 0.261706 0.259943 0.658002 0.694102 
0.689989 0.192919 0.682637 0.354098 0.0783176 
0.0899209 0.0957862 0.855189 0.306908 0.0635676 
0.0377311 0.768084 0.768291 0.0518205 0.548846 
0.211189 0.604985 0.00814948 0.961401 0.950678 
0.610455 0.581439 0.239332 0.214542 0.242944 
0.846965 0.291239 0.594211 0.118035 0.594602 
0.0212869 0.271423 0.682536 0.55561 0.339609 
0.807322 0.864738 0.823492 0.602093 0.986413 
0.688844 0.14168 0.490156 0.16671 0.402605 
0.742236 0.777367 0.801388 0.704614 0.907422 
0.348243 0.335281 0.763301 0.323648 0.560942 
0.361408 0.105799 0.693308 0.988932 0.42022 
0.93712 0.685606 0.982834 0.690913 0.033098 
0.0952838 0.245764 0.73923 0.14417 0.5605 
0.654627 0.756728 0.595208 0.955412 0.922799 
0.196543 0.212143 0.193292 0.57759 0.490182 
0.479654 0.574591 0.477676 0.944862 0.15018 
0.870054 0.57617 0.838176 0.259636 0.308263 
0.150855 0.114809 0.336715 0.367557 0.972754 
0.842938 0.793647 0.080673 0.927346 0.779253 
0.366426 0.738857 0.627905 0.54843 0.621419 
0.963401 0.864502 0.970431 0.257763 0.901072 
0.498654 0.654327 0.343538 0.388624 0.95071 
0.850828 0.538228 0.926547 0.861476 0.81662 
0.280255 0.199983 0.257712 0.398264 0.660636 
0.145934 0.39547 0.415769 0.00109134 0.091417 
0.883355 0.691436 0.765203 0.803692 0.686597 
0.87156 0.186605 0.858372 0.231407 0.692744 
0.659936 0.16928 0.998039 0.547965 0.119292 
0.681323 0.964209 0.764728 0.971797 0.746506 
0.397717 0.280281 0.6887 0.777844 0.931182 
0.161283 0.522152 0.234494 0.109635 0.433972 
0.710666 0.0166518 0.141235 0.100906 0.393088 
0.850399 0.762641 0.440919 0.487805 0.460632 
0.556574 0.135245 0.465904 0.0890835 0.290211 
0.058292 0.703913 0.0931796 0.920376 0.765602 
0.619915 0.919531 0.224752 0.639195 0.69719 
0.812725 0.683551 0.0816091 0.805032 0.354595 
0.204808 0.0510991 0.531967 0.800587 0.28695 
0.649775 0.647853 0.752038 0.735592 0.384156 
0.966955 0.865001 0.410393 0.595238 0.486694 
0.120879 0.574508 0.923632 0.321176 0.0743302 
0.740852 0.340563 0.44606 0.15204 0.740654 
0.639633 0.141335 0.50162 0.354464 0.734477 
0.927827 0.651936 0.816091 0.0288435 0.829051 
0.666546 0.94632 0.827512 0.566705 0.3424 
0.719189 0.156543 0.20101 0.392653 0.958675 
0.760299 0.233072 0.366596 0.112192 0.846223 
0.910446 0.0060667 0.299126 0.837541 0.180812 
0.844518 0.504142 0.728696 0.493056 0.248901 
0.790581 0.832879 0.742201 0.707859 0.423187 
0.0943423 0.0048962 0.768906 0.135444 0.52246 
0.91616 0.889329 0.096709 0.641786 0.415821 
0.0239411 0.242117 0.923366 0.136887 0.844685 
0.486801 0.682688 0.189543 0.329143 0.594675 
0.806979 0.616057 0.156414 0.348606 0.391835 
0.51352 0.743693 0.623589 0.315985 0.961098 
0.693156 0.296874 0.644916 0.389997 0.39477 
0.00502 0.889753 0.320039 0.929488 0.573512 
0.506832 0.19206 0.878935 0.0452902 0.986788 
0.375864 0.310502 0.701793 0.765647 0.535187 
0.355479 0.0501024 0.0101538 0.688015 0.435046 
0.172549 0.296787 0.755027 0.92749 0.628773 
0.810554 0.271789 0.429296 0.442064 0.193678 
0.69255 0.764669 0.442769 0.738185 0.0152039 
0.320135 0.367807 0.497187 0.322233 0.631035 
0.721483 0.44331 0.048653 0.447385 0.589339 
0.161591 0.198068 0.143262 0.357468 0.218657 
0.669335 0.732563 0.930279 0.122043 0.636833 
0.143774 0.160095 0.359182 0.150318 0.309164 
0.93338 0.732423 0.0315168 0.149646 0.967102 
0.471583 0.135825 0.908992 0.640733 0.646409 
0.32862 0.469802 0.814983 0.882802 0.478346 
0.537174 0.318986 0.177579 0.381 0.111721 
0.550854 0.746107 0.523302 0.502816 0.747875 
0.524929 0.0115971 0.366056 0.0334723 0.387432 
0.231532 0.324251 0.0972621 0.770121 0.00523247 
0.187147 0.605726 0.915974 0.513551 0.850532 
0.560491 0.656372 0.739071 0.293702 0.671811 
0.291428 0.175443 0.342032 0.717367 0.36396 
0.9519 0.826158 0.777038 0.586356 0.226369 
0.112906 0.57246 0.118059 0.876075 0.571289 
0.888105 0.19888 0.504679 0.247574 0.395592 
0.156062 0.741124 0.954329 0.931444 0.859796 
0.249108 0.66048 0.945238 0.0440299 0.360193 
0.409845 0.202816 0.618657 0.757702 0.283958 
0.752196 0.457995 0.194135 0.541999 0.0130073 
0.364598 0.600774 0.313769 0.770167 0.570307 
0.466079 0.0343872 0.780083 0.0740291 0.327294 
0.49588 0.487695 0.929318 0.606982 0.316028 
0.0522119 0.141781 0.551297 0.00421343 0.832483 
0.532038 0.572718 0.33519 0.0506066 0.779958 
0.932971 0.995415 0.0402912 0.384358 0.399846 
0.0151395 0.744022 0.75296 0.428011 0.523579 
0.710319 0.441662 0.863069 0.937439 0.187364 
0.718228 0.447408 0.453788 0.771206 0.282467 
0.111771 0.91185 0.630619 0.241864 0.125653 
0.122151 0.740316 0.691887 0.368887 0.0698178 
0.922843 0.74666 0.173835 0.0696048 0.781801 
0.532647 0.251165 0.0856688 0.134808 0.320035 
0.569258 0.504007 0.118409 0.584288 0.298781 
0.112242 0.37427 0.351085 0.363122 0.993262 
0.250663 0.40852 0.53496 0.920586 0.543351 
0.776571 0.960252 0.571601 0.122676 0.990237 
0.73101 0.169974 0.747803 0.114831 0.758075 
0.942813 0.989191 0.182753 0.455792 0.0854114 
0.295475 0.866042 0.714549 0.0801089 0.248392 
0.211391 0.40819 0.639645 0.542391 0.0181006 
0.398512 0.0146608 0.183913 0.583992 0.953602 
0.075244 0.675862 0.705607 0.195694 0.622007 
0.424034 0.445701 0.75376 0.326059 0.197182 
0.40669 0.393343 0.415837 0.516061 0.579404 
0.637835 0.286469 0.866252 0.709275 0.657918 
0.668821 0.378409 0.138611 0.822135 0.00708728 
0.774647 0.336735 0.633177 0.241374 0.597749 
0.707726 0.339592 0.535468 0.175829 0.434254 
0.400165 0.963568 0.649431 0.355257 0.683042 
0.961821 0.513676 0.113907 0.438426 0.476309 
0.503976 0.073171 0.320233 0.153763 0.726571 
0.38184 0.368285 0.491059 0.139763 0.26351 
0.320627 0.32249 0.851673 0.0678909 0.34828 
0.342329 0.751889 0.562969 0.880154 0.435176 
0.799163 0.767381 0.251699 0.184368 0.0642296 
0.991014 0.308582 0.622645 0.575683 0.0400388 
0.809945 0.0436136 0.437174 0.403058 0.845766 
0.426429 0.324168 0.76621 0.173403 0.191019 
0.12725 0.290323 0.876406 0.0626856 0.746892 
0.970602 0.410358 0.963327 0.663253 0.0935823 
0.907371 0.357641 0.924785 0.546656 0.264855 
0.96727 0.556301 0.291877 0.0885301 0.527724 
0.204503 0.571363 0.79413 0.690048 0.670451 
0.704344 0.826715 0.132491 0.823623 0.803333 
0.0352912 0.958823 0.0925891 0.538369 0.647015 
0.324164 0.413865 0.307891 0.12565 0.0749721 
0.897893 0.510071 0.452565 0.66449 0.866315 
0.520936 0.113698 0.504544 0.159071 0.718921 
0.216527 0.728827 0.833428 0.888215 0.305754 
0.93333 0.60451 0.348618 0.158614 0.641425 
0.871329 0.318899 0.770248 0.904778 0.274982 
0.983708 0.338341 0.109661 0.290916 0.658262 
0.387168 0.0668973 0.796744 0.339252 0.413878 
0.314863 0.594202 0.356489 0.854655 0.00331798 
0.916642 0.198369 0.554358 0.0544645 0.9992 
0.0239177 0.55688 0.697734 0.774184 0.417013 
0.121261 0.599544 0.986607 0.974505 0.4022 
0.95924 0.25 0.663263 0.100589 0.445984 
0.62236 0.526401 0.0803661 0.250444 0.339455 
0.159509 0.859838 0.139996 0.155959 0.348002 
0.668767 0.722014 0.209196 0.992897 0.610339 
0.894784 0.296756 0.672614 0.825713 0.709417 
0.201209 0.734934 0.765921 0.750284 0.0269212 
0.87651 0.799554 0.229745 0.622037 0.2132 
0.314694 0.845733 0.89965 0.599295 0.8181 
0.444119 0.119952 0.173187 0.437913 0.683114 
0.0432582 0.454306 0.30133 0.670334 0.200338 
0.860652 0.527472 0.620377 0.897089 0.156069 
0.611755 0.0936827 0.342253 0.0685387 0.269551 
0.0623146 0.126451 0.200132 0.438113 0.208749 
0.574745 0.264817 0.806223 0.580929 0.475917 
0.392787 0.0180046 0.937515 0.458801 0.405882 
0.533786 0.697345 0.129471 0.976954 0.991897 
0.907104 0.380609 0.63987 0.734323 0.627813 
0.0256021 0.558891 0.836768 0.16132 0.757675 
0.0839833 0.62172 0.278489 0.39909 0.451827 
0.318657 0.0423064 0.770281 0.983255 0.137244 
0.544554 0.31069 0.819005 0.916366 0.404281 
0.738399 0.0726922 0.524545 0.528386 0.753308 
0.122888 0.837566 0.54507 0.851504 0.990395 
0.505124 0.406396 0.0775112 0.91231 0.0467815 
0.123766 0.477317 0.896629 0.829663 0.958607 
0.844513 0.96986 0.38263 0.830307 0.513658 
0.433574 0.867367 0.20139 0.524519 0.27346 
0.934358 0.596538 0.187475 0.165479 0.713855 
0.0387115 0.907957 0.274616 0.6198 0.278814 
0.113928 0.780167 0.196498 0.368703 0.590923 
0.725681 0.751659 0.431563 0.0487919 0.492371 
0.0356054 0.174561 0.0950462 0.356173 0.503861 
0.280207 0.440003 0.908644 0.084893 0.174311 
0.742226 0.897221 0.890004 0.265621 0.0808259 
0.873738 0.712365 0.993312 0.0939164 0.952572 
0.67254 0.802941 0.504449 0.885283 0.362974 
0.728313 0.700148 0.574994 0.898748 0.532305 
0.821206 0.950729 0.365527 0.897893 0.0897506 
0.0205341 0.724867 0.517842 0.530809 0.822235 
0.261826 0.510797 0.206878 0.00942525 0.488711 
0.0189676 0.739979 0.171051 0.981212 0.751169 
0.363826 0.320294 0.979472 0.659282 0.972377 
0.497133 0.45704 0.343329 0.631075 0.413688 
0.366702 0.162062 0.566431 0.126532 0.962203 
0.177701 0.270611 0.999261 0.445509 0.937361 
0.374033 0.71814 0.0123842 0.0302461 0.658004 
0.078408 0.12466 0.610301 0.576064 0.0959499 
0.308401 0.843318 0.624608 0.780204 0.297753 
0.784316 0.214012 0.086864 0.829497 0.784688 
0.0750246 0.940814 0.99383 0.078997 0.895485 
0.57733 0.313702 0.797481 0.698878 0.923812 
0.831622 0.323099 0.438885 0.553787 0.339129 
0.849105 0.383412 0.774681 0.753298 0.454194 
0.0683804 0.488422 0.734612 0.631884 0.684701 
0.368734 0.199056 0.109018 0.446971 0.288726 
0.828291 0.256969 0.145319 0.850617 0.660611 
0.184941 0.2157 0.638358 0.108763 0.814849 
0.69329 0.158997 0.321905 0.482491 0.604914 
0.923961 0.0219208 0.854991 0.788833 0.74641 
0.73735 0.258582 0.929646 0.65092 0.898459 
0.898391 0.973903 0.358789 0.788969 0.283577 
0.203156 0.39945 0.219018 0.0958785 0.350667 
0.590907 0.419379 0.168567 0.71526 0.0215773 
0.446526 0.255916 0.765572 0.879607 0.913806 
0.721859 0.675106 0.275705 0.733998 0.518652 
0.645077 0.481823 0.0617638 0.0622486 0.235916 
0.192653 0.951577 0.0864112 0.689893 0.66187 
0.0506462 0.774689 0.372012 0.557627 0.286838 
0.62901 0.377428 0.773105 0.936827 0.620466 
0.350378 0.308022 0.756664 0.775573 0.774873 
0.311819 0.938183 0.890663 0.62462 0.873227 
0.170282 0.630367 0.626646 0.541344 0.389425 
0.134889 0.415064 0.790132 0.84558 0.640935 
0.276411 0.219182 0.331001 0.786574 0.999716 
0.815261 0.824044 0.967408 0.934901 0.976307 
0.897994 0.535939 0.818772 0.0753343 0.429342 
0.017949 0.511952 0.429711 0.752571 0.585793 
0.982203 0.774289 0.175393 0.222393 0.614798 
0.0192795 0.691012 0.820281 0.623107 0.852605 
0.681832 0.25297 0.0378114 0.0111022 0.106619 
0.150642 0.119324 0.241368 0.378804 0.85835 
0.0269849 0.622147 0.558279 0.811556 0.926059 
0.171553 0.381083 0.655168 0.720004 0.667635 
0.74767 0.215749 0.221422 0.158825 0.540364 
0.00728084 0.569217 0.139833 0.987367 0.785068 
0.97023 0.568126 0.313743 0.556283 0.874519 
0.988816 0.123382 0.0366026 0.693887 0.782317 
0.922777 0.722893 0.271912 0.43655 0.208241 
0.489009 0.319139 0.123348 0.530958 0.325571 
0.0557823 0.609223 0.661564 0.28181 0.690546 
0.174284 0.366553 0.585036 0.402993 0.382141 
0.663869 0.704335 0.377779 0.987572 0.946489 
0.929414 0.742383 0.373736 0.254641 0.235271 
0.608369 0.542742 0.604033 0.955139 0.695283 
0.175205 0.444013 0.368261 0.55697 0.414252 
0.897412 0.428665 0.435563 0.0587012 0.387269 
0.686736 0.625006 0.589684 0.958043 0.00274279 
0.0312644 0.00896533 0.0464648 0.993992 0.876871 
0.975591 0.664694 0.04157 0.712906 0.0702495 
0.889082 0.652984 0.153565 0.229038 0.700574 
0.406562 0.971868 0.195329 0.3504 0.148431 
0.936243 0.0538034 0.116863 0.628408 0.987101 
0.238659 0.621483 0.998133 0.985431 0.751602 
0.742703 0.306425 0.238994 0.543947 0.940429 
0.83685 0.24331 0.810595 0.0772814 0.335645 
0.299763 0.602542 0.633008 0.109554 0.486752 
0.727283 0.276562 0.173559 0.188851 0.258165 
0.0724806 0.819043 0.373932 0.206321 0.973817 
0.420793 0.815937 0.896208 0.434578 0.321083 
0.328718 0.599633 0.603727 0.947603 0.373088 
0.145361 0.15941 0.936194 0.752866 0.916654 
0.482241 0.752346 0.261691 0.0373087 0.202387 
0.051327 0.0220495 0.0769589 0.176412 0.689308 
0.256727 0.35975 0.12765 0.373002 0.815547 
0.211738 0.118237 0.926078 0.507038 0.822581 
0.334562 0.632929 0.378239 0.479046 0.12161 
0.0109908 0.541799 0.161563 0.239059 0.787053 
0.903046 0.452296 0.173044 0.0267472 0.884087 
0.0594978 0.441559 0.564557 0.721805 0.155064 
0.14802 0.639017 0.0984683 0.934498 0.283495 
0.545222 0.996209 0.254818 0.0278513 0.928412 
0.820459 0.726775 0.17693 0.918074 0.84656 
0.453645 0.865823 0.800024 0.293581 0.921612 
0.70609 0.0877757 0.274763 0.755037 0.166616 
0.386961 0.876698 0.493584 0.974749 0.16746 
0.407195 0.208797 0.345466 0.751358 0.778114 
0.393844 0.956117 0.903983 0.722964 0.965788 
0.995034 0.559761 0.91907 0.908844 0.233297 
0.698991 0.145529 0.0790934 0.310515 0.926325 
0.996415 0.066121 0.402008 0.494119 0.138167 
0.554743 0.671709 0.724734 0.560998 0.688964 
0.412941 0.782398 0.153037 0.963134 0.383861 
0.255241 0.257287 0.684529 0.89127 0.000428197 
0.879407 0.18612 0.232198 0.148856 0.336821 
0.635395 0.205753 0.862159 0.102506 0.432556 
0.258181 0.436205 0.428773 0.388721 0.440943 
0.326354 0.668023 0.591401 0.499945 0.73715 
0.843573 0.9883 0.182588 0.0436294 0.52383 
0.366838 0.502676 0.549456 0.411235 0.628377 
0.278642 0.177021 0.289177 0.702674 0.382531 
0.683708 0.638675 0.73807 0.420086 0.684004 
0.0801417 0.988423 0.490126 0.881844 0.983102 
0.628911 0.139317 0.168479 0.809377 0.0622141 
0.859261 0.449761 0.352395 0.853538 0.321594 
0.863722 0.581212 0.573482 0.988603 0.192189 
0.707921 0.0364535 0.628901 0.832591 0.620927 
0.058498 0.667971 0.104533 0.811272 0.288297 
0.0916571 0.338025 0.30684 0.855868 0.699785 
0.222323 0.0844578 0.100263 0.903546 0.881055 
0.0815604 0.144943 0.467818 0.782306 0.707154 
0.175497 0.31372 0.500659 0.483696 0.121061 
0.542744 0.0614363 0.731989 0.281209 0.1972 
0.0660746 0.56606 0.0277381 0.555422 0.461908 
0.930784 0.204001 0.866061 0.692479 0.621499 
0.907037 0.832905 0.699853 0.895256 0.718217 
0.233238 0.259054 0.748013 0.0991335 0.305485 
0.326509 0.633186 0.995415 0.379745 0.0807829 
0.963025 0.771107 0.325377 0.712367 0.950888 
0.949382 0.938361 0.127261 0.306421 0.461297 
0.955895 0.701738 0.251622 0.224059 0.807585 
0.696336 0.350409 0.106918 0.0368028 0.56654 
0.390458 0.128995 0.527622 0.782653 0.399877 
0.189669 0.68284 0.450273 0.972148 0.999779 
0.199084 0.455431 0.493644 0.940619 0.566059 
0.686471 0.541642 0.242876 0.439274 0.837743 
0.438844 0.00973168 0.732335 0.806246 0.2767 
0.566659 0.22502 0.871815 0.751491 0.219119 
0.17502 0.367879 0.714603 0.36481 0.480904 
0.727547 0.176266 0.584799 0.202862 0.268497 
0.213685 0.172341 0.601655 0.711432 0.629164 
0.114901 0.565557 0.975214 0.319329 0.847987 
0.468721 0.474291 0.226222 0.341997 0.908673 
0.385415 0.937243 0.199354 0.880217 0.835964 
0.85355 0.0428529 0.137088 0.747862 0.537412 
0.673847 0.292057 0.375346 0.0279035 0.228933 
0.231753 0.502043 0.479318 0.3076 0.802389 
0.803298 0.507751 0.717524 0.522913 0.398323 
0.590077 0.478004 0.920216 0.872786 0.0977613 
0.718718 0.91875 0.132572 0.344849 0.570715 
0.726123 0.277386 0.253649 0.965823 0.627546 
0.122688 0.0879017 0.0786291 0.329201 0.285993 
0.679334 0.671366 0.259 0.361696 0.0937075 
0.0336041 0.055314 0.928285 0.721495 0.864189 
0.119793 0.620651 0.639353 0.773286 0.603625 
0.173313 0.236783 0.345963 0.976599 0.333652 
0.515332 0.295886 0.692643 0.944152 0.675357 
0.686895 0.0635251 0.700684 0.595836 0.263994 
0.195602 0.40304 0.947877 0.551298 0.959448 
0.49736 0.549751 0.238463 0.0756371 0.0573373 
0.44578 0.333031 0.381038 0.596305 0.0348607 
0.580786 0.606588 0.228467 0.658838 0.277874 
0.0275195 0.984462 0.0628842 0.360433 0.383695 
0.864476 0.0519935 0.365338 0.0942792 0.247392 
0.570873 0.8344 0.299917 0.340303 0.653787 
0.486677 0.00115975 0.126601 0.770005 0.42536 
0.327786 0.62549 0.140912 0.619345 0.72619 
0.721832 0.844034 0.255812 0.0954301 0.687382 
0.88082 0.0126199 0.332388 0.902426 0.978442 
0.446042 0.171472 0.236616 0.481534 0.214095 
0.890444 0.716243 0.228706 0.393663 0.687359 
0.0535431 0.268036 0.969773 0.541248 0.204341 
0.291857 0.653533 0.616319 0.93238 0.223527 
0.289956 0.865828 0.743963 0.529318 0.121647 
0.176928 0.0909307 0.806575 0.386255 0.37082 
0.784965 0.805329 0.641594 0.460766 0.971621 
0.594873 0.649788 0.113236 0.87388 0.362096 
0.554811 0.117546 0.171152 0.455885 0.636246 
0.975626 0.523189 0.440302 0.350017 0.685095 
0.720932 0.322026 0.533728 0.810692 0.578267 
0.364373 0.0367408 0.157974 0.433049 0.719775 
0.340325 0.685256 0.581488 0.799759 0.788913 
0.457927 0.0486584 0.718218 0.560716 0.548193 
0.986175 0.197579 0.262733 0.217475 0.0100992 
0.249684 0.497401 0.211421 0.0423283 0.685073 
0.750861 0.885016 0.391818 0.344325 0.412314 
0.826226 0.798181 0.370574 0.432746 0.791878 
0.871349 0.414217 0.50197 0.677633 0.665522 
0.420707 0.82982 0.481074 0.550449 0.270021 
0.538808 0.710891 0.430574 0.832779 0.879894 
0.112259 0.0861513 0.0890931 0.751522 0.940641 
0.986897 0.916786 0.0891257 0.432784 0.387525 
0.506515 0.718278 0.832295 0.796445 0.282172 
0.73014 0.291338 0.168633 0.580861 0.703858 
0.678241 0.961033 0.0916747 0.265547 0.173213 
0.237301 0.191912 0.72928 0.894313 0.484058 
0.278211 0.419896 0.905948 0.143949 0.261414 
0.685045 0.00616572 0.50297 0.909279 0.431491 
0.367308 0.510813 0.41003 0.462118 0.0808618 
0.77711 0.294367 0.251516 0.310664 0.653125 
0.480193 0.165122 0.695952 0.109236 0.735786 
0.272196 0.18485 0.608531 0.658437 0.0426121 
0.0802926 0.427092 0.328349 0.0561176 0.144215 
0.000474002 0.283545 0.0693456 0.0381803 0.784097 
0.163567 0.669225 0.874852 0.349386 0.603583 
0.610973 0.992604 0.691776 0.66909 0.222182 
0.0330136 0.318207 0.196062 0.457046 0.34661 
0.44577 0.521561 0.702615 0.097388 0.123054 
0.269519 0.548279 0.83517 0.727102 0.226126 
0.0758179 0.600382 0.362685 0.680967 0.98343 
0.420194 0.495291 0.925088 0.0908692 0.566375 
0.393137 0.440081 0.873505 0.412051 0.893402 
0.350358 0.122949 0.00960701 0.805746 0.949804 
0.782002 0.745109 0.909058 0.9617 0.931938 
0.358806 0.0421412 0.0839656 0.00310803 0.459898 
0.532744 0.218665 0.468539 0.690835 0.534595 
0.0196837 0.392105 0.551823 0.310642 0.226434 
0.0461671 0.561531 0.204196 0.466713 0.947543 
0.427621 0.000522994 0.779253 0.721571 0.695985 
0.969179 0.301814 0.640691 0.169676 0.393426 
0.301899 0.816596 0.458331 0.986182 0.840354 
0.768995 0.109847 0.420963 0.584476 0.168659 
0.445671 0.751244 0.302694 0.509567 0.96655 
0.463908 0.176989 0.944419 0.422025 0.0772612 
0.749021 0.850618 0.998297 0.937712 0.180293 
0.147004 0.398705 0.10107 0.61643 0.207503 
0.468144 0.485915 0.0050084 0.770704 0.298033 
0.656775 0.198986 0.259844 0.979832 0.827112 
0.981228 0.831317 0.650944 0.175636 0.157907 
0.33134 0.335515 0.247278 0.810251 0.949426 
0.197351 0.491428 0.138779 0.419541 0.685143 
0.279468 0.883535 0.15968 0.160637 0.240307 
0.342139 0.638084 0.409404 0.177791 0.616907 
0.0503308 0.557932 0.299168 0.144557 0.499072 
0.101784 0.221336 0.242034 0.309694 0.995821 
0.309193 0.143922 0.535349 0.450666 0.440418 
0.331966 0.138062 0.624373 0.358219 0.935514 
0.402008 0.789999 0.0703032 0.424376 0.194433 
0.751481 0.77295 0.749607 0.409512 0.79295 
0.792056 0.280169 0.067695 0.276937 0.193664 
0.0324142 0.454429 0.731456 0.412191 0.791772 
0.333545 0.714138 0.863409 0.495872 0.144513 
0.97434 0.673653 0.874773 0.118364 0.236171 
0.79455 0.256041 0.171262 0.468178 0.49298 
0.755898 0.732357 0.756563 0.638767 0.454008 
0.509517 0.231949 0.117492 0.0226808 0.624791 
0.943415 0.822677 0.255962 0.299119 0.275861 
0.221452 0.528641 0.989396 0.878639 0.303569 
0.427141 0.84708 0.813633 0.514073 0.885208 
0.0785549 0.587362 0.902561 0.201458 0.828847 
0.872303 0.647989 0.304471 0.410712 0.0285883 
0.836653 0.939884 0.586604 0.214653 0.642673 
0.103597 0.746642 0.962286 0.163723 0.807729 
0.637527 0.926155 0.977441 0.0648938 0.687973 
0.0510446 0.847808 0.162159 0.461303 0.0542512 
0.961111 0.220689 0.731286 0.180176 0.46541 
0.199818 0.864927 0.564112 0.36978 0.161847 
0.846551 0.0333702 0.715767 0.472294 0.173107 
0.595129 0.384713 0.190347 0.881717 0.109049 
0.884479 0.44227 0.456229 0.00686618 0.0567791 
0.347803 0.331552 0.304338 0.264229 0.787608 
0.00796832 0.263791 0.826187 0.665035 0.126111 
0.275803 0.553488 0.326908 0.840877 0.723962 
0.972517 0.614829 0.588823 0.468091 0.302155 
0.325815 0.543696 0.275977 0.0927998 0.707767 
0.630809 0.491974 0.506086 0.955131 0.657354 
0.451587 0.297652 0.877425 0.562023 0.044681 
0.772314 0.468111 0.64228 0.214568 0.947215 
0.37551 0.954025 0.508303 0.669175 0.377007 
0.268248 0.640013 0.169919 0.598073 0.304195 
0.210734 0.335835 0.905059 0.698455 0.449792 
0.370449 0.268548 0.99953 0.393345 0.476446 
0.110074 0.97241 0.53556 0.453434 0.557288 
0.451094 0.279272 0.892809 0.981389 0.450444 
0.00773828 0.510516 0.327998 0.948204 0.991714 
0.351202 0.987383 0.55726 0.0911825 0.4527 
0.387494 0.999157 0.418878 0.406874 0.0289113 
0.576234 0.485428 0.150668 0.680294 0.419031 
0.161394 0.351556 0.78327 0.629018 0.410445 
0.0553208 0.960733 0.806208 0.101329 0.925048 
0.0141412 0.931407 0.518347 0.237929 0.524862 
0.200265 0.824852 0.00297716 0.742651 0.0374108 
0.572691 0.507899 0.277357 0.667533 0.662104 
0.149486 0.654497 0.895017 0.792529 0.26416 
0.943833 0.271012 0.843027 0.475857 0.179365 
0.707299 0.640428 0.565187 0.948495 0.840151 
0.337966 0.152109 0.437441 0.35174 0.148532 
0.595597 0.642954 0.332036 0.626488 0.196946 
0.996734 0.0985231 0.251006 0.445043 0.418748 
0.123583 0.811334 0.552873 0.239323 0.51082 
0.252877 0.695744 0.0180253 0.451969 0.334354 
0.00430338 0.893678 0.296077 0.341803 0.866598 
0.892195 0.364396 0.137578 0.623892 0.199604 
0.157153 0.301769 0.922058 0.464339 0.451497 
0.20432 0.920856 0.945997 0.070949 0.701418 
0.821467 0.61097 0.4692 0.766142 0.564603 
0.182502 0.99235 0.448505 0.689883 0.0687663 
0.744265 0.528197 0.516643 0.41233 0.96218 
0.167924 0.686563 0.877326 0.811138 0.921777 
0.655604 0.458072 0.217831 0.132084 0.149299 
0.774565 0.70906 0.964777 0.557431 0.468701 
0.153551 0.595198 0.817055 0.00826102 0.816626 
0.778956 0.308501 0.777681 0.430547 0.0595926 
0.424156 0.829196 0.0857733 0.318392 0.550972 
0.726752 0.066274 0.19795 0.582375 0.150006 
0.593524 0.694552 0.91012 0.597608 0.0123812 
0.952688 0.638055 0.466464 0.340266 0.354847 
0.624516 0.366967 0.0897948 0.737396 0.799576 
0.409124 0.807344 0.797223 0.153405 0.767627 
0.364604 0.0787443 0.826619 0.890548 0.135066 
0.63804 0.364844 0.343007 0.112666 0.0549323 
0.201262 0.522976 0.0902427 0.635433 0.206124 
0.839337 0.968637 0.409646 0.0388654 0.550621 
0.767356 0.53527 0.452251 0.585788 0.849137 
0.621545 0.813545 0.0155394 0.980082 0.965044 
0.132383 0.171632 0.796652 0.367136 0.630985 
0.361205 0.0253101 0.98451 0.138446 0.639213 
0.580493 0.227042 0.301419 0.047348 0.748412 
0.8749 0.559292 0.511957 0.525047 0.206979 
0.550238 0.486499 0.0908471 0.501637 0.395113 
0.540843 0.95801 0.920717 0.824093 0.924233 
0.92022 0.728684 0.109025 0.0974544 0.12764 
0.462321 0.937109 0.468669 0.660313 0.000465533 
0.448433 0.767602 0.749894 0.72878 0.997708 
0.436431 0.336942 0.0270092 0.837142 0.224859 
0.430264 0.040191 0.487577 0.378631 0.0580718 
0.618198 0.29372 0.172126 0.163031 0.678227 
0.800049 0.483162 0.284585 0.378037 0.897113 
0.603624 0.912478 0.233849 0.384543 0.743591 
0.238443 0.379271 0.39683 0.381861 0.657964 
0.949104 0.991095 0.995566 0.48745 0.190417 
0.0225624 0.16796 0.714574 0.330096 0.766833 
0.522552 0.77448 0.367453 0.799399 0.345636 
0.760287 0.751945 0.726485 0.138792 0.752932 
0.185542 0.574018 0.782639 0.182194 0.973065 
0.394184 0.463077 0.95255 0.302675 0.761745 
0.105574 0.34748 0.188201 0.00353591 0.71276 
0.297303 0.673339 0.953607 0.168691 0.64714 
0.876716 0.686428 0.676766 0.496297 0.0253051 
0.343533 0.270461 0.967179 0.027954 0.940744 
0.850175 0.655323 0.697467 0.622282 0.535364 
0.265223 0.38694 0.690841 0.109007 0.96087 
0.378078 0.294369 0.771975 0.563211 0.0211618 
0.391982 0.604485 0.862819 0.390299 0.392391 
0.227819 0.143518 0.469997 0.704256 0.340021 
0.823298 0.54131 0.198274 0.389667 0.556764 
0.443636 0.278794 0.582342 0.986026 0.285511 
0.424845 0.70321 0.196177 0.584746 0.0104428 
0.0916293 0.813621 0.740564 0.971752 0.398363 
0.548494 0.725546 0.0840168 0.919283 0.579865 
0.294026 0.615539 0.577213 0.2873 0.0212717 
0.2373 0.380608 0.315526 0.176027 0.872709 
0.568742 0.652226 0.293685 0.961274 0.0808915 
0.392812 0.0243016 0.771332 0.390034 0.882535 
0.377349 0.62433 0.268427 0.490325 0.459056 
0.0960729 0.883374 0.849945 0.519948 0.925788 
0.770384 0.832902 0.15378 0.629911 0.0650321 
0.991364 0.388023 0.455854 0.525177 0.98467 
0.592291 0.984087 0.679142 0.686102 0.436187 
0.458693 0.281187 0.774172 0.463894 0.524083 
0.689893 0.0931799 0.0912862 0.792951 0.643516 
0.724568 0.186899 0.918052 0.455775 0.11392 
0.0706587 0.872594 0.397119 0.0369605 0.0519083 
0.406463 0.964147 0.417255 0.196759 0.221668 
0.107305 0.998764 0.702982 0.915048 0.393417 
0.0803798 0.0785123 0.229358 0.317501 0.915595 
0.0106098 0.398836 0.12644 0.925665 0.476333 
0.131947 0.228902 0.250059 0.0992846 0.482659 
0.0510952 0.995436 0.043024 0.48765 0.0199062 
0.894593 0.542379 0.399342 0.689087 0.647838 
0.900099 0.679035 0.33133 0.123971 0.484678 
0.550727 0.294747 0.478148 0.699514 0.774048 
0.356123 0.51863 0.320322 0.539166 0.263849 
0.747359 0.419404 0.487562 0.17814 0.0680941 
0.0320278 0.0523494 0.833773 0.049807 0.0766718 
0.722109 0.0489141 0.989296 0.874302 0.220834 
0.317732 0.849974 0.210277 0.120436 0.55197 
0.459941 0.328089 0.412485 0.666209 0.734044 
0.155768 0.69747 0.226684 0.57204 0.256564 
0.583784 0.380321 0.721506 0.587517 0.451418 
0.430603 0.290659 0.984395 0.634233 0.870227 
0.80119 0.473598 0.0331956 0.380113 0.238604 
0.0464695 0.29866 0.316871 0.883979 0.467293 
0.377128 0.197663 0.456484 0.361032 0.930034 
0.74007 0.266077 0.322553 0.811736 0.207379 
0.613167 0.00619159 0.0931109 0.0556029 0.0859478 
0.944622 0.0085343 0.439364 0.595654 0.348336 
0.372588 0.161333 0.931287 0.709394 0.782972 
0.612588 0.62407 0.896909 0.21594 0.328463 
0.192482 0.401246 0.177891 0.670335 0.876744 
0.678965 0.287145 0.64049 0.234064 0.687424 
0.409685 0.10273 0.184089 0.93317 0.83111 
0.319043 0.703421 0.175176 0.545503 0.772512 
0.0466128 0.170066 0.424292 0.708165 0.310639 
0.610152 0.382198 0.394837 0.0282722 0.567457 
0.717233 0.563998 0.548142 0.777863 0.483251 
0.370877 0.275617 0.038661 0.100836 0.884709 
0.593488 0.429193 0.557752 0.460488 0.251734 
0.625588 0.921873 0.60762 0.542711 0.0445311 
0.28374 0.41671 0.278893 0.128 0.417848 
0.0967189 0.47152 0.994813 0.576503 0.554796 
0.0619904 0.0375361 0.524816 0.673973 0.355806 
0.886208 0.735518 0.270635 0.845007 0.49232 
0.231067 0.69169 0.857496 0.402608 0.997129 
0.748072 0.92298 0.582392 0.784781 0.0322039 
0.837028 0.00914528 0.661787 0.931946 0.418117 
0.0888938 0.0704316 0.506015 0.243056 0.773214 
0.692882 0.57581 0.105401 0.992565 0.846193 
0.555199 0.173071 0.115778 0.190162 0.381438 
0.146353 0.239976 0.993882 0.221981 0.642739 
0.65418 0.794355 0.855551 0.115864 0.601608 
0.312952 0.492786 0.987784 0.880133 0.429088 
0.934967 0.274693 0.620723 0.782887 0.714914 
0.155626 0.623384 0.568636 0.157024 0.855097 
0.0294298 0.69839 0.0234932 0.938002 0.28494 
0.867094 0.423307 0.432409 0.636469 0.697913 
0.350025 0.46046 0.35289 0.83133 0.0673522 
0.064167 0.112672 0.601926 0.343171 0.507545 
0.00592866 0.862828 0.832927 0.0663383 0.745191 
0.353222 0.623884 0.390528 0.295618 0.698522 
0.688586 0.345027 0.506993 0.182994 0.638785 
0.74477 0.831096 0.134603 0.915225 0.54642 
0.847416 0.179101 0.425185 0.162581 0.252865 
0.141606 0.0233398 0.694193 0.435268 0.374949 
0.681904 0.180763 0.0918195 0.42189 0.021252 
0.0720994 0.293969 0.901209 0.576765 0.952055 
0.583273 0.236058 0.939186 0.0630046 0.296665 
0.0171368 0.432618 0.982462 0.660274 0.492706 
0.643206 0.324371 0.660401 0.250002 0.218223 
0.417427 0.37522 0.411181 0.579872 0.793933 
0.0985394 0.497676 0.309439 0.180063 0.552713 
0.545076 0.744051 0.83674 0.668266 0.716754 
0.162426 0.723134 0.811096 0.00903079 0.210921 
0.548346 0.563798 0.309565 0.383209 0.962656 
0.566058 0.895568 0.3406 0.0316755 0.0647182 
