4500 5
0.636707 0.452232 0.304463 0.807223 0.527458 
0.330319 0.27433 0.93173 0.974464 0.358897 
0.146686 0.804252 0.785396 0.90756 0.13696 
0.536057 0.22845 0.610625 0.0887846 0.685472 
0.816716 0.122432 0.00135706 0.351406 0.169251 
0.170426 0.177304 0.811773 0.680933 0.093678 
0.666304 0.895822 0.215903 0.333703 0.917572 
0.861005 0.548833 0.155839 0.0273113 0.210369 
0.821477 0.329582 0.364772 0.955143 0.981311 
0.00892922 0.822705 0.977173 0.263624 0.904809 
0.0661955 0.893394 0.77106 0.644636 0.0330396 
0.29117 0.00613211 0.863124 0.258243 0.783259 
0.534154 0.166025 0.672719 0.328855 0.558918 
0.477346 0.363141 0.955086 0.268515 0.952499 
0.0968956 0.62913 0.90569 0.233458 0.910321 
0.778425 0.900377 0.651872 0.671387 0.673251 
0.849339 0.239352 0.563435 0.380977 0.420533 
0.336863 0.511685 0.824005 0.901201 0.678458 
0.00640633 0.72703 0.480063 0.967008 0.779841 
0.175848 0.567147 0.621857 0.0477666 0.92849 
0.557558 0.76493 0.409819 0.955136 0.939728 
0.112665 0.609939 0.687499 0.282051 0.0532123 
0.488163 0.784908 0.802969 0.0860406 0.408511 
0.0370444 0.556998 0.254723 0.708727 0.665577 
0.91162 0.9099 0.134676 0.771697 0.453905 
0.0920821 0.677982 0.323519 0.840217 0.140452 
0.0223268 0.679045 0.129365 0.460105 0.661805 
0.498315 0.0133989 0.320802 0.279716 0.200932 
0.0364142 0.357341 0.308287 0.248968 0.0276437 
0.0631387 0.867073 0.646496 0.261684 0.411318 
0.512073 0.869624 0.44447 0.260576 0.507887 
0.630966 0.495286 0.869642 0.694467 0.435895 
0.637024 0.97022 0.154204 0.0922314 0.159324 
0.13601 0.888764 0.0909886 0.662152 0.0748805 
0.350303 0.759186 0.853112 0.969626 0.073692 
0.852936 0.305659 0.776952 0.906396 0.541314 
0.211705 0.924172 0.755063 0.591844 0.60373 
0.914483 0.442423 0.0946762 0.715721 0.798651 
0.691181 0.118134 0.547765 0.458706 0.40077 
0.750217 0.615555 0.805093 0.44792 0.394647 
0.306491 0.0317521 0.505961 0.247011 0.831346 
0.163848 0.526068 0.243348 0.511356 0.927614 
0.495128 0.26483 0.765211 0.34478 0.225891 
0.465293 0.946455 0.577602 0.212425 0.896902 
0.863158 0.265582 0.56718 0.642525 0.559445 
0.922778 0.547543 0.0885113 0.573451 0.403677 
0.0468961 0.598597 0.187072 0.697768 0.39626 
0.111475 0.0723131 0.147084 0.475686 0.280313 
0.481972 0.994026 0.857589 0.728569 0.568639 
0.13053 0.853053 0.319874 0.710743 0.0662078 
0.188329 0.463192 0.513005 0.328536 0.67493 
0.289527 0.853647 0.450375 0.506318 0.561173 
0.0417758 0.190798 0.34387 0.76103 0.177006 
0.928518 0.0834026 0.582334 0.279735 0.576794 
0.834652 0.000581028 0.886097 0.312792 0.458181 
0.961613 0.598533 0.941271 0.451315 0.954872 
0.117349 0.362439 0.414059 0.909876 0.0806151 
0.43613 0.394189 0.454414 0.145643 0.029924 
0.634071 0.0117395 0.39126 0.893529 0.395959 
0.616299 0.707123 0.0223566 0.452373 0.0481869 
0.64779 0.440155 0.119181 0.259228 0.115329 
0.232233 0.153312 0.68749 0.428587 0.481014 
0.357256 0.433156 0.0437757 0.590012 0.701928 
0.802122 0.57359 0.51991 0.930502 0.231244 
0.107213 0.749173 0.280044 0.305999 0.595685 
0.289339 0.915816 0.455331 0.520323 0.0639065 
0.489226 0.0897562 0.187795 0.557002 0.982106 
0.871379 0.5465 0.0794302 0.96373 0.0247881 
0.542652 0.875764 0.673399 0.930817 0.23479 
0.361476 0.359102 0.486627 0.101661 0.76517 
0.308997 0.207224 0.441392 0.165594 0.491653 
0.657745 0.274948 0.013629 0.908015 0.80543 
0.167076 0.26406 0.62426 0.606779 0.848123 
0.673646 0.20494 0.457809 0.088969 0.383738 
0.0142155 0.0329996 0.131609 0.878699 0.196119 
0.564109 0.602174 0.852178 0.873715 0.122054 
0.293033 0.825313 0.790378 0.754293 0.252255 
0.623809 0.559259 0.0964377 0.826386 0.111033 
0.497277 0.14358 0.452208 0.490063 0.778426 
0.150933 0.495024 0.334434 0.306243 0.363188 
0.775057 0.218022 0.79246 0.946334 0.183008 
0.128392 0.615321 0.0202192 0.984624 0.859049 
0.932245 0.311679 0.220659 0.0463847 0.466292 
0.234934 0.493205 0.914924 0.124376 0.814269 
0.288023 0.765936 0.381176 0.257735 0.663472 
0.887162 0.692376 0.956634 0.830786 0.116296 
0.308297 0.936668 0.0621773 0.704852 0.204645 
0.0626651 0.518887 0.0916146 0.247827 0.143625 
0.898652 0.395595 0.57267 0.0402889 0.00189978 
0.788124 0.570294 0.870663 0.785085 0.299975 
0.933464 0.292955 0.570588 0.890012 0.564182 
0.94142 0.347299 0.392255 0.0131315 0.780186 
0.269023 0.154639 0.116849 0.195978 0.000100162 
0.885375 0.505828 0.0993028 0.208183 0.3624 
0.854653 0.636885 0.289814 0.15267 0.841657 
0.166578 0.540791 0.15748 0.401697 0.811193 
0.512164 0.114252 0.405399 0.523209 0.0760669 
0.668681 0.271766 0.131345 0.627082 0.234108 
0.632687 0.508994 0.0752705 0.554999 0.504496 
0.702956 0.205912 0.356662 0.736454 0.607562 
0.491222 0.471508 0.300311 0.281188 0.400437 
0.728352 0.891555 0.870505 0.555486 0.638913 
0.314676 0.135171 0.991238 0.711105 0.205734 
0.903542 0.755537 0.844056 0.307165 0.508882 
0.862381 0.462205 0.982094 0.0481697 0.261324 
0.385393 0.688391 0.813939 0.366921 0.802102 
0.918245 0.204307 0.154509 0.101162 0.688651 
0.295257 0.834922 0.874555 0.607977 0.582112 
0.874609 0.55498 0.734021 0.145962 0.536535 
0.360855 0.279559 0.088621 0.993143 0.996145 
0.404751 0.781217 0.790301 0.452228 0.294166 
0.223803 0.677118 0.880172 0.595007 0.324271 
0.85878 0.627727 0.309346 0.413111 0.937535 
0.69014 0.556544 0.687208 0.820992 0.489729 
0.689569 0.363426 0.123084 0.829907 0.636057 
0.888367 0.339219 0.486948 0.474402 0.528893 
0.498681 0.875493 0.920652 0.418121 0.71093 
0.447641 0.11064 0.000159743 0.135092 0.707198 
0.781653 0.170966 0.333957 0.792988 0.75387 
0.739162 0.168179 0.0461907 0.227304 0.84484 
0.35189 0.59234 0.934651 0.676536 0.687472 
0.0573119 0.908568 0.230718 0.185164 0.938428 
0.454663 0.485425 0.24518 0.255308 0.727581 
0.569818 0.879362 0.576362 0.743737 0.647166 
0.671392 0.551445 0.321167 0.635026 0.0531721 
0.539102 0.810406 0.511785 0.829385 0.364618 
0.417181 0.793952 0.350715 0.082735 0.488698 
0.0993784 0.563713 0.207208 0.804293 0.23646 
0.389705 0.00226009 0.167347 0.185191 0.689514 
0.60977 0.218597 0.156209 0.715483 0.693385 
0.200941 0.131662 0.8629 0.305162 0.441882 
0.4976 0.530743 0.0472291 0.898271 0.707312 
0.394174 0.448814 0.421905 0.77781 0.547056 
0.0344869 0.327146 0.455832 0.421363 0.413731 
0.398775 0.122729 0.753512 0.639931 0.850389 
0.20919 0.934943 0.722655 0.323296 0.176019 
0.103081 0.0723715 0.0970713 0.3503 0.135246 
0.693935 0.711798 0.776834 0.670872 0.588651 
0.0324388 0.977401 0.45252 0.1027 0.638709 
0.000273741 0.491474 0.292473 0.437374 0.156057 
0.756897 0.879037 0.0142808 0.035575 0.79592 
0.623548 0.983843 0.782013 0.220574 0.70475 
0.343526 0.432057 0.816917 0.877806 0.379425 
0.775836 0.231405 0.0688261 0.0857792 0.900531 
0.935954 0.650393 0.783081 0.481963 0.395766 
0.0452486 0.946985 0.855238 0.725565 0.0872388 
0.848891 0.394591 0.25162 0.057408 0.731698 
0.140375 0.392194 0.743209 0.689816 0.111838 
0.882046 0.0490393 0.0318173 0.416511 0.0737264 
0.913028 0.908191 0.568092 0.757748 0.181972 
0.27018 0.038059 0.815413 0.84527 0.606692 
0.453725 0.192271 0.636712 0.293976 0.4114 
0.391044 0.57722 0.667623 0.606021 0.356465 
0.767022 0.843701 0.736974 0.277439 0.989393 
0.01424 0.413355 0.650568 0.964837 0.967401 
0.687116 0.447617 0.480029 0.920892 0.285882 
0.0761874 0.0182768 0.491048 0.204355 0.286901 
0.372754 0.767727 0.623646 0.0210263 0.62421 
0.303267 0.0760963 0.359161 0.334965 0.345876 
0.378919 0.822209 0.589513 0.202132 0.917647 
0.0936309 0.692095 0.194486 0.65869 0.967904 
0.880076 0.509404 0.971763 0.807352 0.880417 
0.157428 0.288969 0.785311 0.683686 0.86509 
0.138024 0.244717 0.448203 0.816774 0.223763 
0.160272 0.361771 0.566682 0.952052 0.379949 
0.483265 0.731444 0.335113 0.351685 0.249533 
0.542975 0.490617 0.236648 0.341281 0.944848 
0.500736 0.938344 0.495233 0.195444 0.943544 
0.198702 0.775564 0.999985 0.541565 0.666267 
0.53966 0.187151 0.39235 0.176543 0.440902 
0.0318073 0.840503 0.834076 0.12697 0.726897 
0.847922 0.70886 0.333691 0.716596 0.555288 
0.346883 0.431731 0.719048 0.402109 0.980194 
0.20393 0.926178 0.65946 0.118924 0.352933 
0.423877 0.283771 0.468371 0.826272 0.969987 
0.698279 0.691606 0.707262 0.117905 0.82072 
0.882641 0.901784 0.291064 0.265999 0.576154 
0.200052 0.243789 0.297604 0.150304 0.147756 
0.971239 0.860542 0.492138 0.730142 0.915727 
0.241737 0.757613 0.199778 0.460967 0.299748 
0.470577 0.0214292 0.105141 0.598065 0.14603 
0.0528779 0.0182869 0.331514 0.940743 0.108522 
0.4814 0.19288 0.497441 0.672842 0.571164 
0.32462 0.871541 0.504458 0.898038 0.344022 
0.781402 0.55874 0.697142 0.368877 0.676835 
0.943518 0.618325 0.293796 0.702914 0.0310883 
0.854551 0.588445 0.0933693 0.362656 0.00970617 
0.250605 0.577384 0.369929 0.31134 0.657612 
0.804429 0.265513 0.991079 0.151402 0.021648 
0.93556 0.0954957 0.157001 0.457623 0.694219 
0.300062 0.773876 0.498316 0.341722 0.893737 
0.933249 0.00220459 0.617763 0.891319 0.141124 
0.114653 0.337817 0.582053 0.672194 0.0127575 
0.775027 0.581105 0.483401 0.874146 0.178755 
0.193429 0.742872 0.984268 0.602462 0.686044 
0.723879 0.861371 0.823143 0.678806 0.253821 
0.751434 0.762596 0.647642 0.894067 0.516533 
0.477651 0.799105 0.295137 0.934287 0.826403 
0.348614 0.867806 0.880115 0.379277 0.967162 
0.633061 0.349975 0.267464 0.709205 0.910549 
0.841279 0.282013 0.805835 0.752869 0.205003 
0.324934 0.424446 0.933896 0.609838 0.873375 
0.56009 0.734794 0.881745 0.840151 0.88969 
0.25285 0.807515 0.805834 0.947305 0.869728 
0.878422 0.865368 0.571393 0.040657 0.918996 
0.639602 0.0841049 0.27205 0.842045 0.331588 
0.268719 0.774869 0.872959 0.198106 0.790721 
0.906683 0.0516975 0.00640175 0.737877 0.161871 
0.165294 0.472125 0.332404 0.541601 0.626886 
0.190655 0.27098 0.0521022 0.961207 0.497422 
0.783049 0.541308 0.858173 0.804979 0.100302 
0.411685 0.00511528 0.710633 0.979302 0.714545 
0.374611 0.340104 0.484289 0.78462 0.960015 
0.610615 0.0201298 0.628283 0.311417 0.0265252 
0.542979 0.561439 0.274872 0.819853 0.906078 
0.492186 0.355257 0.796962 0.830461 0.293371 
0.642348 0.967808 0.730334 0.760578 0.981122 
0.264982 0.540373 0.824075 0.225531 0.0679819 
0.566756 0.856414 0.636203 0.684947 0.313745 
0.537597 0.22326 0.760039 0.0379724 0.210199 
0.100762 0.640094 0.490231 0.0133997 0.567091 
0.540516 0.0548631 0.948492 0.986671 0.733406 
0.391624 0.743 0.257917 0.286442 0.603718 
0.56122 0.898898 0.58374 0.676602 0.374614 
0.223295 0.571468 0.469885 0.0442991 0.73115 
0.115493 0.36159 0.400646 0.279976 0.607377 
0.0573757 0.101505 0.905895 0.448334 0.918816 
0.0495654 0.51423 0.836184 0.040541 0.769722 
0.623332 0.0582846 0.679263 0.835037 0.400247 
0.745745 0.55311 0.101579 0.487159 0.321992 
0.362528 0.188257 0.506852 0.616678 0.036289 
0.580804 0.812061 0.763874 0.0472121 0.35151 
0.901113 0.839835 0.952287 0.621566 0.953358 
0.669163 0.187798 0.837849 0.124548 0.119128 
0.456203 0.820151 0.222656 0.84223 0.687702 
0.0103612 0.99746 0.239045 0.123869 0.403279 
0.716417 0.719996 0.388513 0.427467 0.159915 
0.822375 0.0420931 0.336699 0.212932 0.860806 
0.0498418 0.903902 0.11095 0.0319488 0.619183 
0.214664 0.660339 0.952066 0.896001 0.899467 
0.375865 0.589535 0.949386 0.904819 0.253001 
0.352358 0.700861 0.929025 0.380448 0.687609 
0.496363 0.558988 0.0263977 0.217972 0.923729 
0.58282 0.152452 0.151384 0.761348 0.110077 
0.71372 0.822995 0.705875 0.126563 0.208743 
0.674491 0.829014 0.369937 0.922131 0.724571 
0.525453 0.231219 0.530079 0.66549 0.507113 
0.80866 0.207048 0.233865 0.396503 0.415456 
0.97436 0.149889 0.419853 0.763071 0.874577 
0.397182 0.840855 0.00207799 0.268948 0.384885 
0.738335 0.704531 0.897226 0.273925 0.789993 
0.151338 0.65767 0.590792 0.507319 0.457221 
0.266284 0.587841 0.402129 0.447593 0.183522 
0.916495 0.26059 0.26197 0.102975 0.573948 
0.295171 0.720661 0.885162 0.145668 0.372749 
0.597728 0.64667 0.991707 0.252364 0.293799 
0.109192 0.828342 0.737686 0.69673 0.697246 
0.492326 0.697309 0.0412349 0.260544 0.194002 
0.624261 0.723699 0.800374 0.732529 0.00416309 
0.815509 0.526795 0.38324 0.680803 0.0651334 
0.516573 0.352611 0.183335 0.38344 0.774384 
0.517024 0.506965 0.475537 0.113523 0.581488 
0.223319 0.973413 0.345442 0.993127 0.609161 
0.840754 0.655839 0.644717 0.492484 0.53269 
0.0895944 0.568948 0.350228 0.508113 0.178142 
0.766209 0.534173 0.183202 0.949189 0.326467 
0.637778 0.311661 0.810653 0.0256478 0.913983 
0.212597 0.0408029 0.132272 0.240577 0.874232 
0.827859 0.541524 0.408645 0.312487 0.290796 
0.979373 0.363762 0.57921 0.756486 0.588877 
0.939189 0.614625 0.95949 0.816015 0.13532 
0.632509 0.361114 0.666713 0.39634 0.950078 
0.493361 0.287683 0.475044 0.436097 0.772314 
0.210384 0.440405 0.109191 0.798317 0.773441 
0.358206 0.229597 0.617974 0.541351 0.830874 
0.629946 0.475525 0.0987772 0.989722 0.981689 
0.138471 0.129761 0.379337 0.92622 0.969164 
0.384228 0.827857 0.736176 0.585286 0.285401 
0.968243 0.714028 0.244082 0.859057 0.548698 
0.486185 0.942802 0.531382 0.725519 0.854145 
0.504524 0.610918 0.473602 0.374869 0.180491 
0.0887001 0.509977 0.940133 0.535063 0.0242788 
0.706956 0.525908 0.628654 0.364478 0.328479 
0.485193 0.202707 0.800348 0.194119 0.324042 
0.911735 0.259477 0.116644 0.246251 0.126467 
0.956447 0.289794 0.89025 0.515875 0.386445 
0.300427 0.719601 0.742856 0.573239 0.00699283 
0.172635 0.373623 0.812648 0.334371 0.718127 
0.635593 0.394575 0.0614508 0.072623 0.471619 
0.598913 0.483263 0.439065 0.214813 0.282194 
0.922747 0.326994 0.86798 0.196647 0.0793712 
0.718211 0.548776 0.363771 0.0624457 0.605369 
0.903147 0.940603 0.374317 0.0426311 0.0792089 
0.892 0.509338 0.961131 0.284874 0.888444 
0.467388 0.776961 0.0730104 0.416876 0.876683 
0.78234 0.978199 0.660949 0.917486 0.995986 
0.640118 0.031741 0.62015 0.399077 0.96304 
0.532636 0.661354 0.0203171 0.610265 0.549073 
0.628915 0.987573 0.902954 0.985217 0.164794 
0.183259 0.950357 0.914172 0.492769 0.915502 
0.833423 0.585332 0.240912 0.0324057 0.769651 
0.498271 0.648523 0.561935 0.179242 0.226738 
0.332026 0.761856 0.240609 0.264118 0.691265 
0.503625 0.286274 0.0699003 0.864239 0.674903 
0.374818 0.841798 0.657134 0.731441 0.997222 
0.431209 0.350496 0.396165 0.150326 0.997795 
0.15845 0.61893 0.461724 0.964298 0.39392 
0.837073 0.435975 0.642417 0.0128466 0.870737 
0.343352 0.900315 0.894495 0.823253 0.601361 
0.0953943 0.709047 0.811209 0.257278 0.805684 
0.905203 0.495357 0.141829 0.59336 0.723362 
0.160201 0.69771 0.537054 0.669925 0.695606 
0.0968169 0.572833 0.24225 0.631957 0.346244 
0.689782 0.650581 0.161015 0.490579 0.940041 
0.202007 0.363877 0.268045 0.500531 0.457237 
0.979594 0.787101 0.21078 0.771898 0.331637 
0.482726 0.490944 0.941317 0.946848 0.0332266 
0.966597 0.877528 0.504365 0.969436 0.119508 
0.744513 0.511139 0.275963 0.423741 0.0848241 
0.432722 0.563497 0.0761255 0.864121 0.787531 
0.621041 0.439546 0.796196 0.274902 0.331442 
0.141452 0.25846 0.607633 0.763913 0.186244 
0.0087984 0.932262 0.579356 0.744537 0.340543 
0.877141 0.563453 0.542782 0.207873 0.128147 
0.737992 0.218587 0.528159 0.0830042 0.931708 
0.539503 0.367822 0.224127 0.725601 0.0864077 
0.153295 0.964468 0.340602 0.428088 0.87676 
0.470783 0.912671 0.285981 0.198862 0.0619904 
0.814896 0.908126 0.700382 0.671612 0.847198 
0.166645 0.931175 0.759445 0.722253 0.263819 
0.581435 0.686361 0.877397 0.858104 0.780484 
0.699634 0.613856 0.571725 0.360043 0.561594 
0.194768 0.87823 0.47336 0.674073 0.578959 
0.545997 0.191751 0.18907 0.267489 0.278469 
0.801845 0.264965 0.519889 0.871464 0.0269359 
0.65036 0.803665 0.642798 0.0109581 0.961139 
0.91932 0.210614 0.318979 0.896147 0.017435 
0.793142 0.227335 0.51782 0.576769 0.804642 
0.182579 0.377064 0.111968 0.723489 0.584666 
0.01898 0.437786 0.944095 0.16661 0.106492 
0.205186 0.452781 0.0475936 0.421858 0.236562 
0.521975 0.992 0.980371 0.688857 0.395499 
0.642203 0.821622 0.614132 0.902296 0.588789 
0.215809 0.607532 0.750494 0.188226 0.200119 
0.898515 0.277246 0.693009 0.488672 0.353437 
0.0541331 0.252937 0.410682 0.0042215 0.30589 
0.567968 0.685548 0.377538 0.47036 0.124597 
0.107939 0.171582 0.625332 0.60871 0.454873 
0.459436 0.569859 0.594138 0.114118 0.182493 
0.369822 0.270391 0.489805 0.566005 0.323845 
0.721696 0.82991 0.141871 0.402495 0.217957 
0.138403 0.880443 0.206909 0.412057 0.71036 
0.376862 0.451078 0.789993 0.260944 0.628216 
0.86392 0.362532 0.295587 0.181472 0.944259 
0.501127 0.886972 0.677352 0.254407 0.993902 
0.646443 0.0251549 0.867388 0.315289 0.643221 
0.581093 0.938903 0.336683 0.908995 0.710646 
0.920226 0.923986 0.497504 0.646967 0.1669 
0.0613613 0.89782 0.911337 0.805841 0.118901 
0.642075 0.353946 0.348457 0.880629 0.912909 
0.607629 0.0625397 0.412594 0.395959 0.754402 
0.761916 0.151129 0.903315 0.742361 0.876809 
0.483695 0.0913385 0.740369 0.4114 0.550158 
0.136022 0.881016 0.0918675 0.123847 0.846421 
0.863503 0.366995 0.316526 0.37835 0.240826 
0.706988 0.550521 0.375577 0.775107 0.547544 
0.354087 0.701243 0.950902 0.18515 0.270353 
0.453618 0.782067 0.586768 0.724659 0.427019 
0.0968661 0.143795 0.546218 0.137936 0.571926 
0.949815 0.0687645 0.742955 0.013845 0.344319 
0.0297107 0.195044 0.0159084 0.845741 0.22165 
0.183137 0.362278 0.724715 0.320448 0.763241 
0.660705 0.598512 0.75845 0.814636 0.160241 
0.883722 0.868123 0.830354 0.560189 0.217454 
0.197562 0.087291 0.909503 0.678972 0.219845 
0.0840158 0.305528 0.680851 0.0112218 0.931897 
0.418499 0.64762 0.733802 0.55233 0.29012 
0.230338 0.475996 0.211015 0.686806 0.196561 
0.341514 0.404573 0.693747 0.551487 0.482073 
0.242183 0.986898 0.871291 0.445241 0.686905 
0.904219 0.318965 0.0912426 0.373004 0.910468 
0.900243 0.370838 0.603035 0.0761685 0.497798 
0.835038 0.273885 0.293913 0.82098 0.259546 
0.8923 0.472388 0.708657 0.432596 0.863466 
0.676781 0.914672 0.748642 0.466604 0.231456 
0.566613 0.946312 0.731329 0.913562 0.863449 
0.454075 0.683699 0.598079 0.909409 0.207276 
0.916524 0.623039 0.194021 0.490369 0.670991 
0.749879 0.900135 0.594884 0.769956 0.852858 
0.617158 0.7064 0.97803 0.369782 0.000668321 
0.736002 0.645916 0.902413 0.406345 0.505691 
0.760104 0.154658 0.343857 0.713928 0.590545 
0.967789 0.822979 0.150375 0.796956 0.742411 
0.520929 0.0883651 0.364462 0.440753 0.535473 
0.935825 0.357792 0.021901 0.57395 0.921979 
0.47579 0.0733111 0.0904752 0.146492 0.149754 
0.816332 0.283389 0.767994 0.732454 0.276713 
0.858606 0.906521 0.614981 0.462123 0.320735 
0.703689 0.446568 0.710392 0.462247 0.584057 
0.828231 0.93475 0.233293 0.305148 0.234843 
0.541311 0.307858 0.045305 0.734811 0.459624 
0.880905 0.311082 0.400155 0.0914289 0.342042 
0.628807 0.659605 0.7551 0.629478 0.514944 
0.77106 0.622975 0.603347 0.0298734 0.364043 
0.918196 0.638013 0.387035 0.364051 0.692414 
0.667753 0.938599 0.671347 0.306077 0.611225 
0.626687 0.618973 0.14409 0.0109125 0.446736 
0.43095 0.0243333 0.46685 0.165662 0.282697 
0.252132 0.290753 0.542586 0.692262 0.092422 
0.234701 0.789426 0.612298 0.371779 0.480262 
0.441461 0.507628 0.439164 0.338691 0.86593 
0.517897 0.300015 0.616314 0.0834347 0.340024 
0.326916 0.259625 0.983508 0.0534246 0.509973 
0.896879 0.425229 0.55853 0.125136 0.27483 
0.666234 0.966569 0.0719126 0.655879 0.677631 
0.471525 0.300557 0.0465718 0.673904 0.666127 
0.358026 0.753604 0.980693 0.489407 0.24539 
0.376045 0.74002 0.991733 0.55533 0.0732772 
0.59625 0.801817 0.618142 0.691238 0.465676 
0.601166 0.30536 0.654973 0.92786 0.590327 
0.536736 0.425725 0.125934 0.748201 0.209883 
0.106116 0.896453 0.842973 0.0491904 0.0963335 
0.833852 0.150224 0.57684 0.249536 0.219775 
0.193613 0.529051 0.148412 0.535463 0.527985 
0.877101 0.923162 0.368304 0.502854 0.224241 
0.286099 0.0675758 0.914727 0.701983 0.305544 
0.984187 0.549985 0.585101 0.844374 0.591683 
0.45613 0.665537 0.268006 0.148855 0.565975 
0.841984 0.408785 0.968682 0.694309 0.29003 
0.755231 0.424249 0.604303 0.378012 0.376942 
0.516604 0.129014 0.583421 0.951564 0.0589033 
0.551411 0.0235521 0.497843 0.873285 0.684233 
0.880587 0.45702 0.561217 0.1118 0.150748 
0.875157 0.415742 0.230375 0.900913 0.673165 
0.844931 0.0171672 0.818467 0.547669 0.91932 
0.0369015 0.474516 0.399163 0.153811 0.366401 
0.824075 0.990588 0.0117423 0.866706 0.245656 
0.613437 0.0745426 0.634499 0.887071 0.52299 
0.947878 0.380888 0.871566 0.361617 0.829898 
0.526755 0.017758 0.937798 0.47221 0.190412 
0.973723 0.482054 0.373601 0.279673 0.59717 
0.0938417 0.77689 0.706494 0.549308 0.483738 
0.770379 0.562476 0.787729 0.120741 0.999606 
0.635937 0.272487 0.29825 0.0744539 0.896859 
0.382632 0.116606 0.865063 0.887184 0.536826 
0.435035 0.669794 0.0900803 0.50996 0.139829 
0.928081 0.182985 0.0420367 0.826062 0.910985 
0.95674 0.177724 0.29835 0.469739 0.438099 
0.434912 0.550597 0.713767 0.0140298 0.383256 
0.130865 0.160473 0.582637 0.0799871 0.096307 
0.0505013 0.846262 0.919714 0.381802 0.872287 
0.147964 0.600266 0.311057 0.620785 0.585438 
0.284583 0.534123 0.828297 0.7486 0.168462 
0.732245 0.0977055 0.120473 0.811957 0.876519 
0.037709 0.58232 0.0364423 0.699743 0.400168 
0.375702 0.813518 0.927561 0.647144 0.228888 
0.00280904 0.781191 0.769336 0.309908 0.735722 
0.556584 0.989436 0.00275874 0.215608 0.389717 
0.907168 0.73472 0.575672 0.529042 0.166357 
0.442001 0.593673 0.334728 0.495014 0.284667 
0.807242 0.442072 0.170002 0.752277 0.142709 
0.92727 0.970684 0.742864 0.585059 0.809938 
0.98348 0.276979 0.0335142 0.199599 0.0294958 
0.0203557 0.37363 0.245118 0.660302 0.527324 
0.143133 0.906731 0.851786 0.386922 0.772358 
0.208439 0.872541 0.917367 0.841979 0.204591 
0.180512 0.338407 0.799115 0.639702 0.336937 
0.411888 0.851994 0.601206 0.0594103 0.237713 
0.41181 0.521139 0.262784 0.228204 0.434138 
0.0823928 0.361052 0.823799 0.621855 0.259219 
0.266314 0.486053 0.838899 0.261366 0.685845 
0.466801 0.493767 0.225367 0.0591973 0.410747 
0.292289 0.625798 0.168644 0.682918 0.696578 
0.77768 0.927131 0.573219 0.14746 0.559751 
0.224499 0.453347 0.623596 0.667979 0.16989 
0.697151 0.840436 0.407342 0.860952 0.647071 
0.219725 0.629854 0.764741 0.609526 0.520308 
0.10509 0.828559 0.335709 0.569102 0.530694 
0.439031 0.605854 0.600662 0.680664 0.326576 
0.098666 0.324937 0.499492 0.116399 0.0608993 
0.902497 0.112138 0.63524 0.884913 0.474791 
0.945804 0.728286 0.719611 0.227627 0.324574 
0.183584 0.639696 0.982335 0.00925305 0.0184574 
0.728284 0.0385354 0.492546 0.286721 0.581142 
0.665517 0.970617 0.801051 0.682992 0.494288 
0.943434 0.436813 0.885535 0.274797 0.877173 
0.411984 0.59841 0.248966 0.504205 0.540568 
0.351283 0.669475 0.00976034 0.721236 0.150451 
0.905707 0.436177 0.509025 0.612762 0.734759 
0.771521 0.498467 0.661083 0.87739 0.997493 
0.0880501 0.150655 0.409958 0.855798 0.931271 
0.734874 0.2394 0.689133 0.348363 0.66284 
0.0348315 0.949006 0.645957 0.0341546 0.554576 
0.462691 0.0872458 0.701385 0.26706 0.442318 
0.275992 0.913131 0.442117 0.987598 0.131658 
0.359 0.970813 0.84142 0.39761 0.690051 
0.691047 0.42346 0.562709 0.389185 0.422895 
0.392365 0.39383 0.105131 0.404076 0.446814 
0.22232 0.759167 0.978553 0.911504 0.290798 
0.99924 0.754709 0.374847 0.0882342 0.559516 
0.709785 0.716165 0.753695 0.844275 0.107943 
0.775375 0.551659 0.097695 0.875098 0.391224 
0.0558673 0.769481 0.44238 0.858931 0.340444 
0.00497544 0.997945 0.447087 0.909222 0.446015 
0.212038 0.286671 0.255212 0.633843 0.646869 
0.416947 0.868909 0.253973 0.974163 0.492366 
0.0628772 0.899564 0.388219 0.431039 0.713711 
0.0708563 0.851561 0.54074 0.0311338 0.718564 
0.768558 0.37411 0.204477 0.179617 0.424754 
0.839865 0.697501 0.941216 0.502616 0.71648 
0.647341 0.617514 0.67495 0.0815373 0.0800335 
0.984368 0.243214 0.688788 0.592716 0.66491 
0.186594 0.908766 0.782817 0.994347 0.684944 
0.776504 0.535452 0.237857 0.05761 0.373657 
0.601879 0.298373 0.159779 0.794691 0.438321 
0.344406 0.367164 0.759929 0.198546 0.232103 
0.0588475 0.869795 0.247362 0.230949 0.962 
0.255884 0.0620606 0.135701 0.226743 0.219767 
0.911932 0.850422 0.936213 0.465189 0.878887 
0.735402 0.441212 0.324016 0.596297 0.467193 
0.652701 0.820125 0.824726 0.997506 0.430737 
0.540683 0.0479815 0.43967 0.643454 0.523723 
0.269303 0.103347 0.736572 0.816469 0.122512 
0.363038 0.737079 0.629998 0.927511 0.7449 
0.164432 0.803262 0.318459 0.445954 0.0344332 
0.25084 0.80966 0.159299 0.0430624 0.086276 
0.974622 0.401182 0.976875 0.0953795 0.583855 
0.595905 0.801155 0.578814 0.557919 0.102797 
0.407255 0.00282933 0.199857 0.6169 0.806647 
0.616585 0.449891 0.0352281 0.68891 0.696109 
0.734452 0.0932189 0.405466 0.100202 0.0637866 
0.9606 0.60644 0.578109 0.814293 0.204816 
0.503431 0.134357 0.745318 0.566658 0.685653 
0.107604 0.282791 0.978207 0.840061 0.238063 
0.404936 0.237774 0.382688 0.334438 0.494032 
0.414038 0.0476427 0.328732 0.854665 0.760789 
0.026963 0.642371 0.776643 0.258257 0.759856 
0.547202 0.450634 0.196209 0.270096 0.438967 
0.00558302 0.940404 0.801785 0.041007 0.442235 
0.882676 0.410015 0.83384 0.388235 0.266728 
0.222463 0.610647 0.971597 0.261978 0.279028 
0.31328 0.735528 0.127287 0.786462 0.880853 
0.855635 0.522848 0.12919 0.0907577 0.662804 
0.81532 0.341622 0.486234 0.325513 0.493776 
0.156376 0.996739 0.20591 0.968154 0.864319 
0.397072 0.146444 0.282622 0.343124 0.848505 
0.556176 0.440256 0.063234 0.585602 0.765356 
0.493121 0.0436328 0.159036 0.445525 0.432204 
0.737177 0.134838 0.462483 0.960779 0.20966 
0.363351 0.952747 0.788171 0.312979 0.458408 
0.401163 0.874392 0.620078 0.335447 0.384032 
0.850716 0.0534646 0.333832 0.643351 0.584419 
0.358349 0.415964 0.380426 0.979296 0.960688 
0.557525 0.878948 0.365994 0.93072 0.900509 
0.351981 0.287792 0.608089 0.813586 0.0148718 
0.75399 0.743851 0.0897149 0.266696 0.517491 
0.943995 0.573557 0.335852 0.978761 0.356438 
0.112906 0.895083 0.943881 0.145557 0.763381 
0.239107 0.865882 0.539673 0.157162 0.890592 
0.620543 0.280536 0.131648 0.74284 0.038905 
0.0652127 0.626002 0.415724 0.119896 0.721855 
0.712776 0.722366 0.197528 0.325486 0.578644 
0.211243 0.287716 0.554501 0.704676 0.547825 
0.142356 0.879246 0.383405 0.393621 0.191851 
0.936798 0.550541 0.167912 0.243935 0.872478 
0.909308 0.794439 0.253854 0.141076 0.175645 
0.926997 0.617255 0.0927978 0.3488 0.687326 
0.0493225 0.805722 0.0608216 0.383611 0.15475 
0.602987 0.231712 0.482459 0.464605 0.788348 
0.117107 0.840799 0.36716 0.255492 0.273421 
0.308494 0.744455 0.882417 0.849452 0.08077 
0.387063 0.624537 0.113684 0.55888 0.680702 
0.00224195 0.375146 0.271006 0.766417 0.795713 
0.499198 0.137706 0.716015 0.348583 0.640617 
0.708931 0.776785 0.241083 0.805143 0.958309 
0.758918 0.225353 0.28582 0.749508 0.13921 
0.0731087 0.845785 0.0205816 0.169194 0.481655 
0.158699 0.0586185 0.79221 0.868329 0.179803 
0.977112 0.232549 0.614154 0.683637 0.156263 
0.777041 0.359875 0.198725 0.203585 0.339271 
0.556505 0.421591 0.0319312 0.514735 0.0326545 
0.142505 0.936959 0.874256 0.592734 0.525889 
0.140081 0.0362033 0.379728 0.642153 0.699853 
0.629096 0.948883 0.683739 0.134904 0.167196 
0.413434 0.105275 0.93718 0.313585 0.39551 
0.490237 0.0413934 0.993248 0.272378 0.90087 
0.464598 0.128515 0.736844 0.160122 0.0373071 
0.311908 0.220074 0.880638 0.581037 0.123068 
0.939168 0.413468 0.0612276 0.444013 0.201918 
0.638509 0.825225 0.555756 0.72799 0.692271 
0.984307 0.908298 0.698516 0.566589 0.605232 
0.365319 0.129677 0.821142 0.583111 0.376229 
0.76565 0.551144 0.345388 0.872805 0.97359 
0.459149 0.478842 0.26749 0.540956 0.898667 
0.823205 0.671384 0.785296 0.385338 0.761428 
0.462882 0.644443 0.290878 0.487916 0.711806 
0.253055 0.212998 0.151412 0.164662 0.601943 
0.412018 0.30222 0.71806 0.170341 0.918613 
0.606413 0.417999 0.340992 0.440263 0.540765 
0.485935 0.420514 0.870638 0.615121 0.357443 
0.666604 0.472655 0.0629199 0.410588 0.363534 
0.954735 0.50323 0.570393 0.609483 0.784241 
0.137208 0.377616 0.142351 0.775364 0.962153 
0.0412764 0.273432 0.685351 0.604572 0.444652 
0.700504 0.921045 0.892206 0.540311 0.460836 
0.878113 0.558669 0.306091 0.133786 0.368523 
0.186621 0.493445 0.261079 0.748794 0.481921 
0.0884456 0.338047 0.72569 0.480715 0.257423 
0.399302 0.219503 0.703582 0.647486 0.999533 
0.25928 0.507385 0.980528 0.822242 0.414066 
0.0853555 0.194424 0.11704 0.112285 0.0634734 
0.529041 0.536066 0.785688 0.131607 0.0262325 
0.894034 0.720408 0.206704 0.797177 0.0047538 
0.966202 0.0872548 0.562974 0.893135 0.00156966 
0.0103633 0.601144 0.453456 0.0932032 0.573995 
0.231043 0.200186 0.33669 0.131311 0.722773 
0.100297 0.136338 0.950749 0.968252 0.254257 
0.453433 0.129793 0.756319 0.680326 0.123875 
0.184894 0.53496 0.212036 0.644059 0.00566706 
0.13794 0.0850545 0.416468 0.334829 0.257806 
0.949879 0.882035 0.33722 0.558625 0.270246 
0.130485 0.669087 0.374488 0.795381 0.419579 
0.803158 0.271232 0.238077 0.469528 0.217625 
0.351557 0.916309 0.891367 0.754885 0.357783 
0.226655 0.310092 0.143743 0.730885 0.489115 
0.578612 0.274821 0.90145 0.292184 0.961878 
0.717442 0.773215 0.569443 0.460673 0.787729 
0.713486 0.605291 0.437023 0.490918 0.790302 
0.425454 0.223386 0.441864 0.707857 0.759523 
0.291765 0.411998 0.434709 0.767039 0.22222 
0.852446 0.713228 0.291009 0.269621 0.359673 
0.916319 0.996477 0.592235 0.929037 0.602653 
0.0015877 0.575165 0.232922 0.430975 0.976609 
0.02451 0.612671 0.357468 0.869945 0.797248 
0.0382232 0.842645 0.00703787 0.584284 0.0557428 
0.75678 0.922044 0.700703 0.305611 0.544395 
0.640494 0.326897 0.654985 0.438206 0.625081 
0.842455 0.183024 0.269402 0.816619 0.167027 
0.281793 0.78034 0.746858 0.484828 0.0120336 
0.721746 0.963603 0.467001 0.990184 0.876242 
0.289378 0.504797 0.00686505 0.664075 0.807956 
0.158967 0.778052 0.51849 0.126955 0.5915 
0.797687 0.159214 0.360454 0.197568 0.0175461 
0.623614 0.0950038 0.543095 0.812527 0.317382 
0.313272 0.336317 0.860259 0.56229 0.964803 
0.245418 0.989051 0.360272 0.393188 0.631685 
0.408372 0.61433 0.750209 0.300039 0.784445 
0.910098 0.126287 0.559507 0.388202 0.227826 
0.205811 0.311707 0.409685 0.421239 0.248023 
0.640042 0.988214 0.23198 0.585367 0.74653 
0.416146 0.507645 0.859803 0.472651 0.391935 
0.491468 0.825196 0.883206 0.0408893 0.968184 
0.880477 0.578722 0.867142 0.98403 0.561761 
0.821085 0.564676 0.419113 0.617448 0.517811 
0.934538 0.213941 0.240382 0.793494 0.722708 
0.0608083 0.564211 0.236489 0.579099 0.690099 
0.410592 0.774396 0.772729 0.169289 0.306937 
0.67626 0.151756 0.117023 0.876721 0.93548 
0.403211 0.0622461 0.295841 0.990624 0.445066 
0.600742 0.936441 0.571234 0.66937 0.114966 
0.989775 0.536672 0.628289 0.735358 0.697982 
0.887492 0.260143 0.00241826 0.408601 0.654285 
0.019242 0.263537 0.643766 0.994268 0.410576 
0.513431 0.193388 0.422366 0.946081 0.973702 
0.808102 0.0635946 0.729591 0.1948 0.822976 
0.518734 0.417528 0.703786 0.0626247 0.236629 
0.093374 0.243594 0.0406309 0.19721 0.374899 
0.378388 0.00377146 0.235842 0.665927 0.197443 
0.557703 0.262607 0.00520938 0.796939 0.599094 
0.00425725 0.476667 0.547592 0.539814 0.949664 
0.568057 0.956227 0.251388 0.679362 0.443316 
0.628901 0.66312 0.48241 0.83564 0.0212252 
0.97132 0.80656 0.173458 0.978045 0.864717 
0.768745 0.606134 0.295366 0.12031 0.536516 
0.51787 0.931676 0.574589 0.107927 0.100694 
0.618686 0.966595 0.135573 0.00368439 0.533009 
0.998826 0.723283 0.92278 0.817622 0.392692 
0.170054 0.0965928 0.202457 0.396787 0.17525 
0.694402 0.00687924 0.0154908 0.770023 0.903665 
0.959004 0.401494 0.0700727 0.350188 0.220439 
0.500748 0.0721167 0.425945 0.834635 0.0497974 
0.48239 0.897934 0.260059 0.918368 0.47171 
0.962813 0.892937 0.532968 0.153765 0.930759 
0.100419 0.105399 0.524052 0.774105 0.0108779 
0.431871 0.197347 0.215207 0.601385 0.392851 
0.210241 0.149207 0.992876 0.84338 0.0144519 
0.827783 0.25588 0.539885 0.1651 0.367698 
0.334226 0.187113 0.850085 0.849587 0.0346183 
0.160403 0.97633 0.91355 0.8426 0.303885 
0.374659 0.932014 0.888945 0.984848 0.980902 
0.644262 0.512904 0.290145 0.515065 0.423303 
0.147703 0.534834 0.132468 0.995695 0.519101 
0.490942 0.259721 0.950451 0.319104 0.514436 
0.493705 0.718783 0.516763 0.677747 0.981189 
0.910518 0.0791672 0.0779244 0.428611 0.615479 
0.614716 0.162034 0.190186 0.536097 0.930603 
0.0801387 0.0829606 0.151204 0.287546 0.274948 
0.743128 0.291107 0.869966 0.441281 0.138449 
0.500711 0.14298 0.721932 0.13033 0.476241 
0.199208 0.5002 0.420932 0.524474 0.919714 
0.551452 0.470143 0.271793 0.313912 0.297926 
0.777659 0.00389792 0.685674 0.190479 0.662678 
0.218007 0.0965594 0.29102 0.303502 0.649803 
0.915281 0.0203822 0.411948 0.278104 0.945445 
0.551783 0.727657 0.32121 0.650015 0.594695 
0.708571 0.46274 0.81174 0.339992 0.71744 
0.980022 0.842036 0.109549 0.368132 0.199158 
0.89676 0.689548 0.868353 0.375213 0.266394 
0.299099 0.802355 0.29828 0.207404 0.460308 
0.926085 0.0808131 0.549896 0.0411025 0.817296 
0.6767 0.67964 0.143836 0.346932 0.74183 
0.214353 0.0377634 0.173244 0.78687 0.316 
0.44442 0.344236 0.693767 0.295718 0.967918 
0.921326 0.593622 0.0734244 0.857748 0.333309 
0.922904 0.810254 0.908155 0.208686 0.517662 
0.962849 0.586895 0.000160439 0.666015 0.129431 
0.821097 0.99723 0.802694 0.15267 0.318089 
0.279462 0.388356 0.744571 0.744698 0.220029 
0.104669 0.306937 0.81586 0.755713 0.192778 
0.544137 0.298469 0.154571 0.996427 0.058352 
0.281417 0.107767 0.947819 0.888549 0.820458 
0.570377 0.87262 0.0845461 0.936796 0.305995 
0.0843881 0.548035 0.458644 0.421244 0.775133 
0.119836 0.408816 0.292314 0.321248 0.319497 
0.575907 0.624702 0.0922958 0.197683 0.324317 
0.390091 0.866083 0.0292746 0.72438 0.447103 
0.0359465 0.038479 0.177076 0.68693 0.80945 
0.0756545 0.168597 0.462985 0.0391717 0.697906 
0.126071 0.674946 0.264037 0.562196 0.291581 
0.899193 0.704593 0.467996 0.0737233 0.338271 
0.904926 0.210031 0.232175 0.596186 0.00410344 
0.608724 0.231245 0.244213 0.355351 0.579117 
0.761414 0.627943 0.768211 0.903554 0.45044 
0.856021 0.0886589 0.218651 0.912888 0.659493 
0.641148 0.822022 0.226821 0.434028 0.885396 
0.251077 0.610147 0.401524 0.847107 0.836395 
0.345932 0.679848 0.938232 0.183884 0.461729 
0.813477 0.875022 0.505181 0.411879 0.142872 
0.313432 0.434961 0.886992 0.0547454 0.932956 
0.750491 0.444748 0.59553 0.630361 0.592319 
0.726547 0.510223 0.879818 0.595495 0.796256 
0.306203 0.0092665 0.480795 0.7007 0.0851917 
0.973945 0.124756 0.935547 0.423239 0.14712 
0.0555538 0.496469 0.677648 0.16106 0.564507 
0.376563 0.424014 0.0727331 0.647394 0.0507382 
0.135884 0.380593 0.204417 0.101618 0.52709 
0.972868 0.505134 0.74249 0.309572 0.339774 
0.91802 0.249469 0.120167 0.220526 0.962138 
0.263503 0.789579 0.534241 0.736114 0.955667 
0.0564169 0.757636 0.0796223 0.564931 0.941167 
0.716554 0.839948 0.0606149 0.190138 0.0395942 
0.850534 0.803391 0.778081 0.979621 0.609453 
0.744273 0.0820836 0.093222 0.965669 0.925688 
0.995832 0.49601 0.759963 0.174855 0.481109 
0.367641 0.534762 0.330434 0.129384 0.950404 
0.772376 0.381603 0.397056 0.238021 0.789838 
0.651403 0.958695 0.0735524 0.205052 0.302195 
0.802856 0.218046 0.249677 0.902007 0.573679 
0.147018 0.535604 0.288894 0.166204 0.233385 
0.234275 0.36676 0.49287 0.57176 0.588777 
0.471363 0.191579 0.384627 0.889715 0.321783 
0.404104 0.973237 0.737735 0.807829 0.257783 
0.215111 0.562367 0.986476 0.150008 0.376955 
0.817505 0.345752 0.804372 0.0169523 0.45177 
0.132821 0.497937 0.996007 0.712783 0.947548 
0.799681 0.960848 0.760025 0.899199 0.864228 
0.675346 0.539624 0.875096 0.0927579 0.923877 
0.846641 0.616848 0.0617343 0.15689 0.621411 
0.455123 0.947766 0.0396558 0.81166 0.740594 
0.813741 0.727934 0.310171 0.179548 0.455054 
0.997145 0.83433 0.0309489 0.832936 0.788716 
0.812353 0.820086 0.467378 0.295603 0.0194259 
0.321339 0.724823 0.0457607 0.794204 0.867052 
0.481368 0.661227 0.0745804 0.957222 0.901953 
0.384024 0.666216 0.798744 0.0337734 0.389329 
0.165765 0.364213 0.359992 0.692151 0.828529 
0.775321 0.0694904 0.392358 0.764041 0.214714 
0.730255 0.424459 0.0768969 0.267693 0.00596816 
0.995354 0.261021 0.302278 0.576291 0.78348 
0.0377708 0.973885 0.735547 0.0577185 0.115627 
0.00958406 0.676243 0.0319105 0.585295 0.653378 
0.624471 0.497451 0.0620159 0.818948 0.968861 
0.922229 0.975061 0.996215 0.371684 0.239483 
0.510438 0.736197 0.752191 0.101064 0.319041 
0.136995 0.521741 0.270208 0.177222 0.802013 
0.592928 0.755138 0.842731 0.567911 0.158835 
0.570448 0.245347 0.424747 0.852171 0.977043 
0.41527 0.100251 0.468051 0.0198819 0.77139 
0.975731 0.442172 0.384173 0.332083 0.390316 
0.366318 0.993325 0.446802 0.576012 0.549603 
0.716924 0.996358 0.449599 0.983714 0.253581 
0.354548 0.785764 0.176965 0.449292 0.338595 
0.272088 0.47946 0.825879 0.74591 0.296987 
0.999337 0.250032 0.0652537 0.147917 0.765343 
0.738146 0.629421 0.531348 0.153627 0.913702 
0.968989 0.363221 0.152934 0.243218 0.0914455 
0.934577 0.000955532 0.149509 0.329153 0.413762 
0.963441 0.796871 0.565319 0.120101 0.560775 
0.311622 0.595154 0.177363 0.442 0.0170175 
0.857566 0.396346 0.695368 0.309263 0.908018 
0.29148 0.703177 0.807671 0.622455 0.906393 
0.728409 0.136437 0.148829 0.672607 0.0292359 
0.713599 0.297364 0.256403 0.65757 0.659314 
0.975463 0.241741 0.820635 0.689442 0.419116 
0.593887 0.322406 0.352192 0.467582 0.0434764 
0.82926 0.970893 0.102742 0.352221 0.331701 
0.0442181 0.19527 0.743063 0.5625 0.109046 
0.751364 0.747542 0.734248 0.481836 0.0913028 
0.468349 0.274646 0.945483 0.782178 0.279471 
0.463025 0.847527 0.951436 0.425992 0.917217 
0.870025 0.891113 0.370604 0.913781 0.701475 
0.867399 0.198001 0.780201 0.816276 0.496626 
0.885622 0.335333 0.875989 0.246087 0.504921 
0.120102 0.194546 0.64958 0.706115 0.805647 
0.478453 0.0396938 0.342479 0.394926 0.627297 
0.44928 0.954972 0.685811 0.702669 0.393173 
0.74395 0.447461 0.387925 0.313711 0.475934 
0.218387 0.66079 0.36804 0.474036 0.15517 
0.497359 0.195225 0.816788 0.0123438 0.844288 
0.0762798 0.0881508 0.278881 0.0130842 0.294515 
0.894048 0.00982153 0.663529 0.533554 0.233571 
0.743519 0.0775403 0.947688 0.959745 0.813905 
0.617332 0.0990755 0.0878537 0.0130787 0.638954 
0.048408 0.991234 0.717947 0.348428 0.722758 
0.214758 0.380863 0.41044 0.00348748 0.0655777 
0.498614 0.151447 0.729642 0.182987 0.281777 
0.900527 0.332988 0.974764 0.146857 0.615378 
0.544221 0.29745 0.176325 0.624657 0.900151 
0.761471 0.352228 0.929294 0.927659 0.0339105 
0.124331 0.0410186 0.324481 0.563715 0.611841 
0.663515 0.550572 0.275822 0.844231 0.954087 
0.643079 0.245213 0.209833 0.193497 0.630828 
0.437818 0.288225 0.85598 0.569214 0.919115 
0.515881 0.321795 0.0904465 0.673328 0.297007 
0.921339 0.532544 0.235417 0.496367 0.872102 
0.192059 0.545326 0.303327 0.962241 0.399198 
0.237055 0.53042 0.345232 0.571297 0.295528 
0.445571 0.199325 0.593081 0.70054 0.503485 
0.810823 0.0329292 0.276411 0.348385 0.974274 
0.367184 0.433261 0.307089 0.44915 0.402686 
0.184637 0.6248 0.385267 0.65151 0.364878 
0.572647 0.288795 0.579021 0.608968 0.153247 
0.504678 0.0914683 0.879378 0.729861 0.0701143 
0.227316 0.24131 0.668726 0.742622 0.663091 
0.659732 0.469532 0.597777 0.23975 0.360284 
0.149416 0.590159 0.202859 0.452809 0.022867 
0.338569 0.82445 0.817516 0.400559 0.963319 
0.535604 0.431906 0.757957 0.73506 0.459294 
0.551714 0.253669 0.731782 0.49288 0.968837 
0.212223 0.688135 0.707877 0.440864 0.803319 
0.783796 0.259388 0.444757 0.284229 0.297056 
0.754942 0.633238 0.522034 0.343916 0.177932 
0.490274 0.432242 0.0331576 0.445684 0.5587 
0.15896 0.82809 0.379005 0.245206 0.102253 
0.17838 0.933551 0.150023 0.997723 0.690471 
0.175148 0.326168 0.806935 0.075563 0.277662 
0.533538 0.417979 0.0780497 0.00577519 0.968318 
0.998264 0.115068 0.223896 0.0903225 0.707619 
0.0948987 0.298088 0.763172 0.0634353 0.307052 
0.054213 0.9637 0.945713 0.149775 0.648143 
0.066937 0.0720307 0.790391 0.0126137 0.772452 
0.801277 0.507214 0.385556 0.932956 0.279564 
0.00406964 0.779633 0.293051 0.516023 0.601076 
0.377743 0.302438 0.978658 0.868267 0.595167 
0.329343 0.874349 0.624439 0.567114 0.198354 
0.710585 0.507244 0.21918 0.639256 0.540914 
0.270336 0.194089 0.845139 0.348623 0.175002 
0.405842 0.425251 0.80203 0.74492 0.836495 
0.712998 0.937565 0.724837 0.124911 0.10997 
0.344642 0.897015 0.870824 0.0925391 0.206797 
0.77723 0.147511 0.793596 0.303424 0.660856 
0.822059 0.382295 0.732764 0.577176 0.4121 
0.46764 0.536509 0.69816 0.583976 0.164304 
0.867234 0.99638 0.943275 0.23003 0.436208 
0.311901 0.930197 0.952539 0.235198 0.764972 
0.53662 0.412005 0.724116 0.200872 0.642051 
0.00499627 0.140834 0.910402 0.117941 0.160298 
0.493901 0.889682 0.927572 0.898616 0.318872 
0.759631 0.330658 0.528945 0.803473 0.349957 
0.406511 0.752148 0.747773 0.965452 0.0466448 
0.69579 0.609324 0.811928 0.632315 0.795375 
0.104162 0.312462 0.355997 0.927696 0.529486 
0.446285 0.0202066 0.155062 0.978149 0.453473 
0.281953 0.657435 0.692247 0.29482 0.56184 
0.345011 0.605657 0.90539 0.382865 0.306666 
0.379086 0.472136 0.187198 0.619223 0.983481 
0.703544 0.362417 0.337179 0.29916 0.717071 
0.631007 0.543291 0.184871 0.642632 0.798029 
0.954706 0.0765647 0.397888 0.247943 0.92579 
0.313272 0.422165 0.812379 0.289899 0.807121 
0.348283 0.298972 0.364536 0.193981 0.771488 
0.87937 0.0180541 0.721237 0.946944 0.902861 
0.756402 0.555506 0.923193 0.402654 0.13082 
0.810759 0.134208 0.80672 0.0944278 0.747622 
0.899851 0.978921 0.378484 0.599788 0.582856 
0.26411 0.178255 0.225709 0.773564 0.62577 
0.924256 0.100662 0.944384 0.367793 0.426414 
0.406189 0.550456 0.167668 0.781654 0.575183 
0.133151 0.688058 0.583834 0.516154 0.90772 
0.266381 0.177842 0.085466 0.18421 0.755001 
0.740789 0.624531 0.518097 0.214143 0.530884 
0.0859593 0.968155 0.936153 0.29036 0.910507 
0.485363 0.636406 0.371595 0.930866 0.565672 
0.911744 0.974604 0.266893 0.255713 0.471538 
0.884412 0.137785 0.145317 0.950609 0.514296 
0.712678 0.980352 0.129352 0.726683 0.360414 
0.00134182 0.0638961 0.792887 0.340949 0.996507 
0.791164 0.52955 0.302479 0.846245 0.967027 
0.0982704 0.203923 0.775846 0.584975 0.470819 
0.30734 0.0972021 0.486782 0.872952 0.129942 
0.696013 0.572408 0.176325 0.36541 0.250422 
0.998536 0.305558 0.90582 0.854727 0.332653 
0.075083 0.753218 0.61409 0.158868 0.400797 
0.19411 0.0654829 0.247223 0.5569 0.211952 
0.0587741 0.478702 0.236138 0.190825 0.233218 
0.161088 0.153435 0.767925 0.045375 0.594931 
0.815147 0.00852638 0.303457 0.0017343 0.956048 
0.442438 0.795463 0.0649324 0.983422 0.824148 
0.618262 0.904858 0.716082 0.545516 0.0335729 
0.69725 0.787868 0.519921 0.650434 0.0681173 
0.142857 0.00933336 0.930439 0.00512937 0.397985 
0.521315 0.0691306 0.728689 0.0902786 0.54977 
0.915286 0.288127 0.309536 0.129076 0.511257 
0.349197 0.645795 0.226792 0.930578 0.0814385 
0.940819 0.450373 0.122638 0.217879 0.0608965 
0.430591 0.51819 0.818406 0.613875 0.672499 
0.396568 0.827089 0.0925613 0.656885 0.570304 
0.244051 0.836275 0.959606 0.736462 0.105948 
0.144883 0.594669 0.653044 0.0837735 0.618229 
0.60105 0.260214 0.372363 0.0406029 0.6056 
0.987095 0.443228 0.967471 0.596508 0.622018 
0.595695 0.48992 0.502749 0.76786 0.684453 
0.189826 0.879976 0.70421 0.9768 0.353874 
0.927976 0.988439 0.341367 0.661586 0.713374 
0.640568 0.361208 0.1389 0.400073 0.497644 
0.603982 0.651655 0.639321 0.884108 0.450022 
0.754884 0.157584 0.179957 0.69539 0.325039 
0.819303 0.132687 0.339555 0.695062 0.344272 
0.0535123 0.263421 0.102649 0.385358 0.056154 
0.808222 0.471672 0.212557 0.947541 0.820189 
0.181398 0.290462 0.0167516 0.648954 0.62042 
0.136481 0.783926 0.656443 0.638713 0.0745616 
0.649799 0.339411 0.522113 0.0108892 0.167817 
0.438519 0.745137 0.34074 0.592947 0.815421 
0.372927 0.0666646 0.157933 0.758899 0.391818 
0.24687 0.00888333 0.105339 0.319839 0.164453 
0.635938 0.695205 0.227787 0.475714 0.583332 
0.642709 0.527423 0.550745 0.0539692 0.139712 
0.699771 0.5241 0.239536 0.033823 0.875018 
0.183926 0.192581 0.277894 0.802764 0.696302 
0.953659 0.493839 0.838737 0.863909 0.752842 
0.995945 0.213044 0.394042 0.00518668 0.987623 
0.211755 0.102466 0.52295 0.135221 0.321567 
0.670808 0.290534 0.359906 0.678824 0.95485 
0.838931 0.0983573 0.368662 0.0491518 0.387423 
0.9354 0.639866 0.212704 0.395878 0.190145 
0.675593 0.748406 0.0950519 0.217177 0.401942 
0.249681 0.478964 0.491096 0.775236 0.414942 
0.825471 0.719225 0.203027 0.158726 0.636646 
0.763088 0.856098 0.913101 0.7092 0.852374 
0.0543003 0.555321 0.830914 0.840111 0.947145 
0.625531 0.580008 0.202292 0.512548 0.773077 
0.870123 0.0510642 0.832573 0.34113 0.994797 
0.172945 0.618306 0.342468 0.601966 0.700283 
0.0681397 0.953885 0.335146 0.870712 0.0111585 
0.13651 0.280882 0.589783 0.528979 0.686913 
0.830344 0.651608 0.524482 0.271738 0.705433 
0.976412 0.420922 0.243409 0.0289331 0.55974 
0.345718 0.563244 0.27542 0.797636 0.194039 
0.946819 0.0525854 0.887508 0.0632422 0.633769 
0.42595 0.152641 0.663348 0.144564 0.92505 
0.287161 0.485738 0.282324 0.0164065 0.264737 
0.595897 0.171238 0.0372948 0.673501 0.393659 
0.625047 0.574071 0.492652 0.607055 0.250843 
0.0831786 0.591546 0.398072 0.150646 0.893299 
0.257924 0.234125 0.811904 0.809679 0.470935 
0.915928 0.713492 0.215702 0.861289 0.499413 
0.942703 0.336882 0.983057 0.814353 0.141775 
0.256007 0.342756 0.0740231 0.633916 0.0367448 
0.432261 0.603803 0.253598 0.255264 0.49051 
0.0438799 0.406765 0.265321 0.334898 0.629686 
0.506205 0.395958 0.714679 0.203994 0.787407 
0.812212 0.36967 0.747408 0.631651 0.784629 
0.18296 0.305362 0.422264 0.247524 0.293753 
0.1527 0.465895 0.681078 0.0956618 0.67277 
0.779619 0.905163 0.497366 0.356418 0.562504 
0.11922 0.917172 0.419088 0.177917 0.915064 
0.985141 0.866758 0.527106 0.0901153 0.04536 
0.588864 0.0980682 0.325874 0.642825 0.0257943 
0.808945 0.109001 0.814327 0.869898 0.398792 
0.116712 0.586298 0.498408 0.423779 0.00908739 
0.170894 0.999476 0.674972 0.394723 0.88218 
0.0271203 0.751488 0.728358 0.0475436 0.0868766 
0.915609 2.66587e-05 0.232696 0.336998 0.678749 
0.535774 0.226943 0.906065 0.102508 0.483087 
0.0667383 0.0324723 0.0392377 0.440695 0.392156 
0.950801 0.298889 0.933136 0.706306 0.5003 
0.587062 0.660001 0.717409 0.367614 0.765521 
0.0117623 0.694936 0.113433 0.245634 0.622501 
0.98575 0.342813 0.733185 0.954462 0.497348 
0.283318 0.438281 0.126365 0.537066 0.464034 
0.941622 0.376004 0.276676 0.452548 0.82856 
0.43695 0.767032 0.811234 0.761911 0.243547 
0.780193 0.359218 0.738024 0.994366 0.602066 
0.941947 0.0728315 0.279586 0.603339 0.409752 
0.391638 0.901222 0.47328 0.996189 0.193204 
0.585707 0.428988 0.270687 0.911985 0.26768 
0.659611 0.856559 0.428627 0.178045 0.17005 
0.881953 0.549535 0.415163 0.539089 0.0674083 
0.0465726 0.181191 0.156371 0.15492 0.180197 
0.420171 0.65684 0.211117 0.504262 0.09223 
0.416749 0.168263 0.1058 0.806281 0.525504 
0.952853 0.478455 0.504564 0.617554 0.134284 
0.645794 0.165418 0.899489 0.934791 0.704567 
0.928501 0.611299 0.0876133 0.120905 0.356973 
0.243811 0.875212 0.673389 0.33655 0.388414 
0.173843 0.672858 0.149033 0.582219 0.66846 
0.23661 0.283247 0.627529 0.891254 0.172209 
0.243362 0.102837 0.303276 0.945961 0.0853162 
0.0478491 0.84386 0.800237 0.330148 0.423435 
0.432897 0.410637 0.207844 0.18504 0.626132 
0.580103 0.429292 0.303304 0.467595 0.242337 
0.330041 0.575267 0.465264 0.713063 0.654962 
0.0106562 0.815598 0.195693 0.555826 0.0644597 
0.714952 0.379419 0.845283 0.787278 0.0904774 
0.651328 0.458741 0.959714 0.810148 0.119362 
0.117541 0.393453 0.467796 0.464908 0.729904 
0.329854 0.476577 0.211313 0.297615 0.655617 
0.664104 0.13495 0.68087 0.84291 0.681683 
0.197094 0.0286701 0.843862 0.787632 0.961271 
0.159414 0.0871615 0.194655 0.145318 0.396093 
0.623969 0.272601 0.0874214 0.764538 0.519417 
0.76608 0.417045 0.709818 0.977211 0.521559 
0.622097 0.177007 0.652034 0.853367 0.245894 
0.636308 0.0911263 0.129307 0.61649 0.137202 
0.694699 0.165541 0.517861 0.391345 0.619115 
0.0116381 0.983508 0.403467 0.00463755 0.15689 
0.0551123 0.94292 0.497385 0.754177 0.761813 
0.949912 0.0568371 0.662555 0.68212 0.0306234 
0.496207 0.390268 0.918372 0.777322 0.739664 
0.268151 0.802246 0.946211 0.3738 0.522754 
0.74416 0.288921 0.718645 0.753019 0.072683 
0.888114 0.233699 0.360791 0.0748663 0.889494 
