1300 5
0.330897 0.00725908 0.647529 0.0443917 0.92587 
0.673777 0.781458 0.990802 0.374174 0.244015 
0.579679 0.0693822 0.942905 0.298055 0.615258 
0.181879 0.600843 0.109131 0.903108 0.472122 
0.843187 0.913021 0.876873 0.44394 0.241162 
0.0546337 0.624095 0.106611 0.962916 0.402596 
0.725338 0.330526 0.458933 0.535142 0.873474 
1.84419e-05 0.580559 0.276752 0.112889 0.894982 
0.690986 0.386088 0.1909 0.794159 0.115284 
0.768383 0.237115 0.406825 0.31317 0.752442 
0.970677 0.0849163 0.559723 0.67727 0.792084 
0.439806 0.396273 0.0495895 0.615204 0.180992 
0.454948 0.56682 0.878674 0.663311 0.0520628 
0.948685 0.649131 0.63669 0.339264 0.0232915 
0.322524 0.391252 0.987619 0.455908 0.704531 
0.557003 0.38018 0.0678904 0.193967 0.61813 
0.611647 0.617809 0.455895 0.197523 0.319038 
0.842502 0.880586 0.803538 0.0765554 0.130576 
0.303916 0.153579 0.192145 0.0678728 0.34897 
0.00175187 0.138061 0.0205398 0.438228 0.348008 
0.45388 0.615307 0.653119 0.834681 0.697518 
0.496261 0.76637 0.421963 0.713207 0.379934 
0.828523 0.415928 0.649033 0.186225 0.500291 
0.671516 0.0761649 0.548235 0.232306 0.108817 
0.804606 0.294331 0.331711 0.601485 0.409642 
0.573457 0.1719 0.819685 0.82151 0.0402714 
0.386383 0.321555 0.205564 0.118169 0.0607703 
0.521352 0.758324 0.735399 0.865705 0.576215 
0.0674015 0.349434 0.103849 0.0396119 0.289082 
0.551888 0.17364 0.478165 0.0482734 0.199163 
0.803767 0.877147 0.0520679 0.407639 0.0711706 
0.745116 0.958178 0.0681576 0.149564 0.834314 
0.303204 0.702438 0.600831 0.159563 0.345417 
0.0392691 0.018616 0.0189064 0.159032 0.485123 
0.437376 0.653428 0.716397 0.976178 0.133378 
0.160791 0.982536 0.556247 0.988343 0.943028 
0.541845 0.117976 0.322261 0.771175 0.446473 
0.550304 0.626627 0.740934 0.48944 0.803457 
0.113481 0.918916 0.4819 0.876051 0.242304 
0.579646 0.532168 0.0322451 0.181213 0.593113 
0.169405 0.749722 0.0513458 0.0424202 0.715782 
0.164623 0.618464 0.362979 0.27519 0.307266 
0.445047 0.869043 0.0282022 0.0124446 0.819688 
0.235544 0.542872 0.788963 0.584362 0.126313 
0.211207 0.974084 0.107743 0.592973 0.597469 
0.974075 0.84658 0.195947 0.296871 0.0362581 
0.202665 0.45344 0.510835 0.87433 0.280532 
0.910256 0.967905 0.735776 0.471958 0.00348697 
0.723233 0.614024 0.157742 0.616318 0.756027 
0.184419 0.898055 0.339483 0.0580668 0.00343887 
0.193134 0.597204 0.579978 0.068831 0.232121 
0.871698 0.472851 0.201862 0.216561 0.47991 
0.703056 0.815352 0.924308 0.404707 0.826581 
0.216179 0.236021 0.804861 0.926111 0.694121 
0.310088 0.825301 0.868145 0.241053 0.313715 
0.189099 0.824829 0.682691 0.769352 0.925394 
0.0885396 0.689113 0.626149 0.0232631 0.935267 
0.555881 0.214171 0.0913165 0.940443 0.414565 
0.52416 0.46674 0.437917 0.75654 0.268633 
0.941945 0.82607 0.305939 0.404488 0.88036 
0.510492 0.603663 0.591766 0.63451 0.91048 
0.455295 0.428525 0.600241 0.910701 0.561822 
0.613394 0.637071 0.906063 0.708733 0.527169 
0.346726 0.722793 0.353893 0.962373 0.966382 
0.402129 0.769807 0.358229 0.057479 0.351498 
0.563834 0.47117 0.113539 0.199089 0.829984 
0.986341 0.389875 0.279616 0.594253 0.785009 
0.320907 0.829398 0.416151 0.330587 0.53242 
0.567508 0.359656 0.59712 0.715159 0.885648 
0.726594 0.628687 0.944741 0.824351 0.854088 
0.692749 0.611788 0.979018 0.633247 0.911501 
0.0534199 0.368013 0.41132 0.33086 0.39002 
0.264133 0.638231 0.450595 0.32608 0.162819 
0.0459391 0.229175 0.21069 0.308492 0.253308 
0.856317 0.514673 0.738293 0.984701 0.680874 
0.483932 0.139161 0.541876 0.917436 0.625262 
0.185329 0.358254 0.621788 0.598402 0.0955849 
0.572967 0.812263 0.365592 0.731721 0.974073 
0.86706 0.676375 0.412572 0.65322 0.734411 
0.906382 0.187079 0.627536 0.971826 0.463338 
0.338326 0.0812492 0.772837 0.54648 0.61902 
0.79162 0.303251 0.991322 0.414986 0.220994 
0.170712 0.549141 0.444825 0.308696 0.758485 
0.202526 0.10082 0.9801 0.0863711 0.970569 
0.930794 0.13086 0.299779 0.942395 0.291523 
0.0806295 0.82874 0.513366 0.987534 0.555361 
0.734605 0.727199 0.153075 0.122817 0.283059 
0.879504 0.784315 0.952309 0.544448 0.980029 
0.536254 0.627136 0.288107 0.365426 0.909393 
0.893779 0.337568 0.140213 0.512333 0.442763 
0.0749064 0.923419 0.262637 0.431648 0.156661 
0.326558 0.802689 0.257715 0.437259 0.236021 
0.318472 0.601759 0.994902 0.856172 0.29457 
0.399633 0.29514 0.476061 0.536259 0.897156 
0.830491 0.781658 0.691212 0.717748 0.582213 
0.514143 0.558997 0.206889 0.523261 0.552725 
0.244252 0.832941 0.789516 0.501885 0.7304 
0.288424 0.986117 0.978828 0.42342 0.179231 
0.0702762 0.745333 0.500825 0.40544 0.640547 
0.5081 0.425175 0.60717 0.595586 0.331164 
0.173004 0.0279696 0.14588 0.20293 0.360044 
0.310265 0.857387 0.828382 0.73875 0.296879 
0.381563 0.554619 0.000239212 0.329998 0.940101 
0.0211755 0.700344 0.278772 0.918866 0.316156 
0.120137 0.443133 0.0822472 0.337087 0.492514 
0.59899 0.622936 0.0620984 0.732359 0.384048 
0.581857 0.37573 0.696566 0.984303 0.532438 
0.0512243 0.696786 0.482137 0.0762517 0.678567 
0.879318 0.791655 0.181256 0.715121 0.750601 
0.49511 0.368158 0.903295 0.0832993 0.458126 
0.553641 0.606724 0.432 0.645769 0.450199 
0.347769 0.616821 0.632602 0.902459 0.707476 
0.357099 0.685993 0.765098 0.134391 0.470849 
0.813701 0.246274 0.638288 0.605432 0.91684 
0.15729 0.875542 0.154793 0.389405 0.526778 
0.295403 0.491592 0.840966 0.293592 0.00818121 
0.0602173 0.287833 0.735493 0.57779 0.975742 
0.548016 0.67057 0.758255 0.27529 0.486919 
0.176322 0.217972 0.236096 0.193695 0.427932 
0.259838 0.553923 0.780996 0.192215 0.0653557 
0.0121549 0.637691 0.514524 0.325238 0.872712 
0.49615 0.567994 0.656472 0.964452 0.399651 
0.741369 0.890248 0.532766 0.245036 0.482504 
0.466018 0.691356 0.397343 0.918976 0.467088 
0.661694 0.715705 0.735855 0.832992 0.0167337 
0.372477 0.763942 0.928578 0.321642 0.183151 
0.755926 0.726893 0.0166253 0.797083 0.383774 
0.615917 0.12098 0.344515 0.042156 0.314501 
0.819128 0.839837 0.615071 0.530577 0.416467 
0.635795 0.963652 0.335487 0.930041 0.341823 
0.39037 0.494971 0.160176 0.0948307 0.251061 
0.255433 0.411759 0.829428 0.941794 0.42037 
0.519653 0.605251 0.826658 0.899635 0.015049 
0.181537 0.341605 0.585322 0.241948 0.914917 
0.0161933 0.32014 0.928119 0.0402305 0.198485 
0.73777 0.466915 0.865169 0.284631 0.186484 
0.715686 0.770084 0.68695 0.908219 0.569591 
0.10547 0.901509 0.663517 0.129038 0.358967 
0.457099 0.702577 0.831694 0.466754 0.185104 
0.298143 0.0178582 0.646629 0.870522 0.293907 
0.93717 0.0185463 0.0411373 0.89132 0.119691 
0.423762 0.0638258 0.983044 0.357152 0.119741 
0.162701 0.0225256 0.566727 0.256482 0.773199 
0.741534 0.147759 0.586768 0.0939121 0.857317 
0.817575 0.70024 0.313804 0.303861 0.147792 
0.151232 0.209524 0.790797 0.122081 0.879293 
0.636393 0.5492 0.693518 0.475961 0.860329 
0.137608 0.987213 0.199711 0.777192 0.832167 
0.773922 0.292692 0.246449 0.100511 0.259049 
0.710686 0.434024 0.444375 0.457975 0.105698 
0.15137 0.222127 0.344983 0.030249 0.567311 
0.0942607 0.098826 0.95095 0.344597 0.655701 
0.7 0.68286 0.0665085 0.834081 0.0400669 
0.499292 0.874913 0.178391 0.929364 0.761933 
0.118623 0.631019 0.636714 0.131889 0.216535 
0.553302 0.721886 0.870482 0.594454 0.557826 
0.247615 0.308817 0.941298 0.489922 0.462462 
0.846509 0.33859 0.350629 0.0163485 0.386204 
0.387412 0.674285 0.360909 0.589968 0.0953026 
0.745304 0.340215 0.750176 0.784784 0.26016 
0.227636 0.807906 0.508624 0.413905 0.147122 
0.199153 0.29493 0.15802 0.348726 0.0340666 
0.601729 0.842874 0.316389 0.722688 0.63597 
0.171292 0.574783 0.778412 0.241001 0.500019 
0.128265 0.030026 0.252646 0.401913 0.9224 
0.692368 0.938961 0.84904 0.0861232 0.916743 
0.974547 0.536273 0.241443 0.263154 0.788153 
0.498413 0.197402 0.427283 0.546428 0.90039 
0.350924 0.69711 0.898374 0.868482 0.755943 
0.616369 0.983108 0.79703 0.690927 0.323053 
0.654806 0.988739 0.433009 0.770559 0.0376218 
0.758189 0.736974 0.298275 0.263018 0.729582 
0.106374 0.370379 0.573545 0.343898 0.806441 
0.27451 0.721954 0.928808 0.900998 0.636679 
0.736964 0.29712 0.0472619 0.447472 0.346606 
0.260277 0.962634 0.71625 0.640788 0.249835 
0.122536 0.473795 0.330986 0.4547 0.139628 
0.0535134 0.652654 0.787075 0.281234 0.16683 
0.319509 0.833043 0.492714 0.236408 0.144015 
0.472506 0.894889 0.785616 0.458677 0.348141 
0.00586184 0.635883 0.688917 0.757974 0.21271 
0.151177 0.934466 0.341876 0.475927 0.827561 
0.870127 0.985746 0.298289 0.359729 0.0515129 
0.00961504 0.376361 0.659986 0.561918 0.660468 
0.770794 0.527843 0.90843 0.9618 0.992961 
0.690527 0.592717 0.545187 0.844072 0.269181 
0.950742 0.777913 0.705595 0.507576 0.185862 
0.112186 0.414012 0.760613 0.487563 0.286893 
0.402098 0.306448 0.450191 0.150484 0.00919828 
0.482046 0.989683 0.010254 0.0374808 0.00244913 
0.0938225 0.00496427 0.579091 0.281829 0.0258476 
0.453596 0.310609 0.000541757 0.186445 0.47503 
0.907258 0.0822561 0.677362 0.710454 0.159114 
0.235016 0.17739 0.497374 0.625658 0.852621 
0.0204337 0.27428 0.0664945 0.889561 0.306062 
0.929453 0.996581 0.623112 0.212943 0.0822452 
0.961426 0.882741 0.256907 0.943818 0.933993 
0.638953 0.935278 0.336458 0.803278 0.87306 
0.8427 0.615413 0.0641768 0.745392 0.159416 
0.777491 0.900774 0.817663 0.95834 0.290791 
0.656528 0.707499 0.182375 0.945849 0.0235578 
0.127752 0.209876 0.933782 0.85168 0.823126 
0.413685 0.34724 0.666167 0.857186 0.629926 
0.484053 0.176153 0.378752 0.00381007 0.507335 
0.705454 0.256097 0.831138 0.787251 0.824787 
0.839816 0.694793 0.115408 0.740094 0.837385 
0.0553538 0.885041 0.463062 0.811356 0.38354 
0.308866 0.513749 0.705554 0.92245 0.620836 
0.942878 0.317022 0.654094 0.243232 0.893542 
0.0639908 0.977284 0.468088 0.573431 0.925698 
0.277984 0.0355153 0.718228 0.747861 0.406093 
0.797878 0.573074 0.908017 0.825884 0.986899 
0.879402 0.233596 0.0739854 0.326761 0.988751 
0.959896 0.872205 0.638975 0.254037 0.188264 
0.198689 0.723512 0.740489 0.0281566 0.219064 
0.469215 0.747935 0.484002 0.0913818 0.240513 
0.816061 0.941023 0.0875954 0.987856 0.511288 
0.102803 0.455444 0.241504 0.566174 0.62779 
0.532124 0.28399 0.0832897 0.682071 0.831315 
0.733128 0.713977 0.327025 0.0254505 0.149927 
0.425464 0.627152 0.911426 0.729057 0.622163 
0.291889 0.913066 0.150191 0.241931 0.243016 
0.801511 0.980447 0.732451 0.730071 0.937877 
0.413115 0.371151 0.327526 0.691626 0.0665017 
0.059105 0.142336 0.413871 0.731808 0.566493 
0.327455 0.531418 0.542261 0.815521 0.190876 
0.148594 0.358747 0.44677 0.324036 0.380398 
0.346111 0.297917 0.988753 0.666327 0.594309 
0.469483 0.833175 0.271837 0.153228 0.554334 
0.451674 0.956115 0.849409 0.25457 0.0464202 
0.288128 0.435579 0.243654 0.364865 0.153619 
0.500805 0.205537 0.241048 0.81894 0.222175 
0.526105 0.219585 0.363024 0.742244 0.234871 
0.853553 0.433697 0.574253 0.369656 0.404283 
0.258593 0.28975 0.740533 0.210058 0.128136 
0.16033 0.150834 0.876599 0.529018 0.356677 
0.805024 0.184404 0.670891 0.469963 0.186044 
0.996409 0.389963 0.920818 0.896982 0.148048 
0.941404 0.629466 0.649467 0.368975 0.375911 
0.609525 0.397975 0.0277303 0.949644 0.113411 
0.825599 0.790303 0.24946 0.0933128 0.26009 
0.547474 0.787025 0.294109 0.770011 0.728619 
0.468103 0.888869 0.0635973 0.137928 0.792086 
0.637813 0.135822 0.710469 0.612854 0.227522 
0.860251 0.0114434 0.127175 0.733545 0.737212 
0.505169 0.0836715 0.37502 0.775579 0.645533 
0.888002 0.281452 0.357397 0.164351 0.477862 
0.917723 0.34999 0.299799 0.623833 0.686021 
0.928807 0.0662495 0.0710371 0.414562 0.799119 
0.742178 0.740494 0.930305 0.849577 0.124872 
0.391681 0.193989 0.35937 0.991932 0.0690214 
0.421148 0.398812 0.612709 0.672592 0.658115 
0.89509 0.0705466 0.162415 0.950815 0.812848 
0.563777 0.713666 0.770475 0.864819 0.786015 
0.240778 0.275982 0.911898 0.255076 0.907132 
0.433785 0.361782 0.950702 0.509375 0.897968 
0.263855 0.920841 0.936496 0.184668 0.665927 
0.871018 0.106225 0.518617 0.668932 0.29689 
0.022041 0.488468 0.00343756 0.792597 0.648922 
0.698088 0.277728 0.527932 0.309685 0.06106 
0.841603 0.62481 0.7548 0.218075 0.711283 
0.493658 0.386078 0.141699 0.727523 0.933225 
0.0349868 0.71318 0.243038 0.746973 0.976689 
0.577037 0.393787 0.1735 0.165525 0.359546 
0.958967 0.748282 0.272449 0.735469 0.714639 
0.0851447 0.39403 0.85845 0.24427 0.225028 
0.980824 0.923879 0.91919 0.600324 0.699475 
0.495769 0.72107 0.0958666 0.774347 0.983319 
0.54858 0.529626 0.0519018 0.638164 0.0309334 
0.607841 0.270518 0.791909 0.490592 0.907238 
0.848449 0.10097 0.926109 0.6275 0.896678 
0.876453 0.958184 0.619934 0.165586 0.345646 
0.0655062 0.152954 0.983363 0.703512 0.566472 
0.496687 0.290238 0.220158 0.0334281 0.116608 
0.700912 0.884899 0.747048 0.816176 0.11737 
0.743906 0.37403 0.00973574 0.306742 0.868811 
0.702274 0.795609 0.710175 0.872489 0.406292 
0.509906 0.763647 0.646667 0.631828 0.280179 
0.645656 0.412949 0.186079 0.360897 0.851647 
0.564496 0.58714 0.00359887 0.668661 0.400197 
0.989658 0.191918 0.311039 0.97781 0.970622 
0.181667 0.801597 0.650283 0.663458 0.0969916 
0.797408 0.218598 0.340775 0.166802 0.0586075 
0.398116 0.0535397 0.198112 0.220258 0.15146 
0.434079 0.2272 0.526257 0.388056 0.609933 
0.944182 0.142805 0.375 0.404715 0.165965 
0.470816 0.748185 0.764114 0.133807 0.8077 
0.280712 0.0640794 0.454273 0.0577352 0.985136 
0.80745 0.207685 0.326708 0.618803 0.214899 
0.377405 0.925828 0.646441 0.224681 0.926408 
0.582337 0.866611 0.619482 0.529162 0.543727 
0.699186 0.295357 0.418148 0.133409 0.039731 
0.272437 0.254045 0.0933446 0.221133 0.823673 
0.026248 0.920748 0.0533954 0.653782 0.274312 
0.260211 0.415228 0.435428 0.00720903 0.571043 
0.969321 0.823354 0.695849 0.710134 0.0146133 
0.605202 0.500172 0.129694 0.00437606 0.0458232 
0.226283 0.129971 0.971976 0.160948 0.113334 
0.991781 0.761456 0.603008 0.976017 0.160274 
0.696556 0.891101 0.451621 0.524598 0.914283 
0.834276 0.341733 0.874828 0.0393943 0.762631 
0.828778 0.916189 0.973303 0.352821 0.053776 
0.24622 0.923135 0.5567 0.478433 0.43114 
0.855525 0.703161 0.391432 0.137218 0.409852 
0.705907 0.0157248 0.0915665 0.351161 0.380812 
0.563606 0.693774 0.613752 0.959922 0.602502 
0.471226 0.458055 0.0267715 0.982432 0.975714 
0.512742 0.374601 0.350511 0.656401 0.645922 
0.423924 0.211878 0.70581 0.895678 0.350292 
0.578907 0.113161 0.699382 0.627468 0.423548 
0.0337046 0.959378 0.889719 0.186891 0.672929 
0.311035 0.0564317 0.310121 0.277648 0.359936 
0.905632 0.743645 0.886173 0.13223 0.924855 
0.532714 0.500429 0.399328 0.515627 0.987716 
0.617422 0.856235 0.386291 0.584681 0.563001 
0.615086 0.250959 0.710672 0.23736 0.178209 
0.393093 0.0110045 0.805506 0.367774 0.608291 
0.222464 0.450159 0.963217 0.0229314 0.785393 
0.478449 0.404768 0.569259 0.218236 0.395208 
0.000764175 0.859008 0.430921 0.144306 0.532813 
0.632273 0.0641274 0.227325 0.0777347 0.900061 
0.290586 0.897097 0.101761 0.684995 0.914215 
0.908107 0.63658 0.24306 0.840265 0.730374 
0.0911735 0.715391 0.908229 0.909937 0.11466 
0.346738 0.38443 0.397047 0.952508 0.178225 
0.764738 0.350873 0.543217 0.15416 0.886874 
0.828381 0.525575 0.0208471 0.993289 0.644373 
0.665698 0.81143 0.170409 0.663872 0.0899944 
0.696694 0.00289272 0.600536 0.30962 0.901767 
0.880279 0.137414 0.359658 0.839827 0.91485 
0.432335 0.630896 0.902317 0.643625 0.557771 
0.173146 0.707692 0.658515 0.612896 0.764408 
0.942795 0.678597 0.308623 0.0717448 0.602955 
0.860724 0.0411641 0.457461 0.203628 0.584292 
0.572002 0.421697 0.863628 0.210282 0.613453 
0.626594 0.803973 0.0739641 0.814607 0.43946 
0.0954696 0.32766 0.240077 0.528141 0.785045 
0.803025 0.367237 0.652443 0.339176 0.280411 
0.51363 0.0426458 0.643717 0.23785 0.351002 
0.235722 0.271351 0.477869 0.39716 0.805847 
0.981388 0.960971 0.330696 0.842915 0.414665 
0.915787 0.120956 0.365902 0.461932 0.164898 
0.729769 0.677178 0.251547 0.953263 0.0230016 
0.0220303 0.935476 0.831448 0.920158 0.737892 
0.59 0.0512928 0.939488 0.738631 0.606233 
0.877878 0.685509 0.211746 0.229009 0.106074 
0.732067 0.365669 0.454532 0.987322 0.0462873 
0.449053 0.527901 0.18352 0.831905 0.718162 
0.0640935 0.0367044 0.74816 0.541365 0.707734 
0.229068 0.232292 0.0572103 0.364595 0.039579 
0.612532 0.941657 0.230569 0.472623 0.312734 
0.0493123 0.185931 0.33658 0.449713 0.562833 
0.617466 0.602333 0.713912 0.125102 0.692922 
0.709849 0.930574 0.925995 0.528924 0.780245 
0.124408 0.150254 0.244654 0.844235 0.562838 
0.353181 0.351681 0.458503 0.67588 0.675845 
0.0484166 0.68882 0.662793 0.738648 0.304062 
0.316802 0.535061 0.723111 0.130559 0.0806801 
0.618834 0.99864 0.465249 0.785684 0.998701 
0.55379 0.439287 0.401503 0.211812 0.188238 
0.858641 0.503109 0.782041 0.263592 0.883058 
0.665905 0.577983 0.571648 0.630454 0.728076 
0.271065 0.433254 0.473829 0.382449 0.262276 
0.216314 0.674552 0.199073 0.983622 0.0796192 
0.313295 0.820157 0.586329 0.814349 0.255606 
0.149419 0.232086 0.0100902 0.847016 0.886845 
0.637804 0.0559135 0.994126 0.294578 0.943929 
0.594629 0.0142923 0.697912 0.631562 0.81225 
0.174738 0.694837 0.649046 0.5044 0.813813 
0.378673 0.38071 0.949394 0.920266 0.0383553 
0.0270805 0.733121 0.748238 0.896885 0.657605 
0.258565 0.0378214 0.089031 0.695235 0.173863 
0.92498 0.201983 0.540385 0.280206 0.155392 
0.287967 0.811036 0.00856237 0.415803 0.568338 
0.468276 0.70694 0.317256 0.0301639 0.498177 
0.77963 0.159206 0.787706 0.3644 0.375085 
0.488205 0.981735 0.932196 0.238443 0.261807 
0.488083 0.59337 0.25181 0.986701 0.452375 
0.298377 0.315064 0.516243 0.51284 0.0813224 
0.928436 0.856175 0.445178 0.720319 0.809868 
0.187378 0.509079 0.230073 0.766762 0.203011 
0.688257 0.841156 0.632698 0.141741 0.942507 
0.356518 0.0725136 0.0951441 0.436106 0.759611 
0.969392 0.803627 0.0541568 0.0767207 0.292941 
0.114294 0.334484 0.907704 0.125924 0.569929 
0.261264 0.931573 0.91171 0.804793 0.628183 
0.307232 0.249994 0.181701 0.23869 0.014778 
0.255628 0.316681 0.320711 0.223042 0.791508 
0.230596 0.251923 0.728458 0.192357 0.785432 
0.209333 0.599053 0.121727 0.546515 0.0556897 
0.631435 0.92932 0.870049 0.0993095 0.935869 
0.0315294 0.982539 0.159144 0.398728 0.611717 
0.405597 0.673113 0.324435 0.0842063 0.882491 
0.418043 0.914544 0.442901 0.501446 0.934708 
0.746534 0.282737 0.16351 0.810497 0.819626 
0.01251 0.460021 0.385459 0.0956615 0.837639 
0.132946 0.521752 0.986795 0.653436 0.590157 
0.720454 0.701734 0.695946 0.510178 0.0890363 
0.176329 0.252943 0.0759775 0.216722 0.210585 
0.602545 0.00765753 0.589432 0.161075 0.808832 
0.215495 0.943693 0.36834 0.356355 0.493999 
0.847555 0.736507 0.633897 0.00375277 0.684613 
0.930193 0.369811 0.786857 0.35946 0.940913 
0.696156 0.294411 0.353201 0.747136 0.261572 
0.700957 0.507505 0.275567 0.569004 0.370732 
0.643847 0.967403 0.78997 0.288306 0.568986 
0.633463 0.81308 0.671858 0.697088 0.434889 
0.575285 0.739198 0.414333 0.746989 0.379756 
0.145838 0.233096 0.0891885 0.327769 0.327772 
0.405045 0.919009 0.769491 0.13731 0.188704 
0.83968 0.276636 0.507639 0.25602 0.234292 
0.882876 0.719464 0.732388 0.462967 0.854849 
0.285014 0.0315214 0.947263 0.107338 0.95307 
0.884393 0.617842 0.104542 0.18971 0.420633 
0.331466 0.887321 0.801595 0.346416 0.551587 
0.736684 0.309371 0.636447 0.0354693 0.492417 
0.588917 0.818609 0.395782 0.465685 0.867029 
0.0557071 0.667789 0.654744 0.646932 0.794086 
0.427319 0.266523 0.441649 0.0682054 0.883988 
0.550402 0.104512 0.519577 0.960522 0.872674 
0.614592 0.644636 0.944792 0.559177 0.280208 
0.400126 0.803571 0.299651 0.315367 0.902993 
0.732683 0.146415 0.0104715 0.552872 0.967268 
0.0976551 0.218643 0.110161 0.187905 0.970927 
0.690375 0.559157 0.158656 0.0268549 0.013998 
0.37013 0.363569 0.145721 0.98944 0.498918 
0.383636 0.576151 0.22755 0.993901 0.110771 
0.418365 0.850228 0.721943 0.656426 0.991701 
0.644588 0.248038 0.207092 0.378229 0.99253 
0.103323 0.234254 0.892791 0.495858 0.944763 
0.849794 0.406395 0.710159 0.735528 0.753071 
0.563728 0.605457 0.675256 0.832205 0.587221 
0.163404 0.0828787 0.458597 0.405887 0.736093 
0.273218 0.349496 0.0695987 0.53147 0.432446 
0.732884 0.0425125 0.0983956 0.115566 0.251022 
0.894722 0.48822 0.230138 0.555242 0.668832 
0.689834 0.074845 0.466003 0.0303209 0.362933 
0.461633 0.805407 0.0374437 0.383845 0.877988 
0.332353 0.515785 0.282557 0.851415 0.379992 
0.32871 0.387457 0.506846 0.252826 0.524144 
0.332434 0.746418 0.91437 0.252259 0.376007 
0.644058 0.0660813 0.959145 0.892273 0.0653499 
0.996793 0.42629 0.856682 0.819236 0.405118 
0.192349 0.512019 0.695538 0.455732 0.209856 
0.40448 0.980976 0.171002 0.845136 0.340014 
0.933654 0.0756322 0.233635 0.99961 0.973949 
0.0683636 0.916029 0.980999 0.304053 0.322587 
0.724496 0.853552 0.104347 0.0755638 0.601434 
0.0763089 0.708245 0.78817 0.280387 0.967511 
0.108383 0.13443 0.214849 0.391125 0.494434 
0.887909 0.794684 0.547153 0.782639 0.428021 
0.413791 0.601261 0.105084 0.0460799 0.558096 
0.254453 0.416696 0.274528 0.889426 0.814695 
0.176604 0.21123 0.805528 0.00746271 0.329673 
0.684512 0.0215067 0.83692 0.406565 0.719533 
0.0155414 0.338147 0.0229217 0.812285 0.845109 
0.151312 0.988606 0.270135 0.565949 0.866895 
0.561771 0.669218 0.457705 0.39415 0.370152 
0.595933 0.415319 0.150111 0.983435 0.685389 
0.513924 0.101327 0.925889 0.446279 0.575738 
0.819749 0.40008 0.808289 0.898662 0.360813 
0.200519 0.698123 0.265234 0.244357 0.130634 
0.377021 0.287428 0.781741 0.12906 0.684264 
0.563175 0.735208 0.0862627 0.806574 0.0117262 
0.938625 0.558782 0.543648 0.352407 0.182705 
0.988636 0.637158 0.956515 0.489977 0.2532 
0.538288 0.0322022 0.601111 0.428928 0.682624 
0.199153 0.149893 0.62107 0.473378 0.751814 
0.317304 0.703298 0.759179 0.914142 0.121046 
0.426542 0.112276 0.663582 0.881958 0.462164 
0.30758 0.497425 0.583955 0.604218 0.630387 
0.0952009 0.569804 0.291205 0.463621 0.0329522 
0.268013 0.462554 0.17208 0.549496 0.565617 
0.387801 0.106976 0.573242 0.847306 0.725205 
0.340609 0.861575 0.780408 0.494497 0.624084 
0.289248 0.0655871 0.502213 0.604139 0.593658 
0.380813 0.0422092 0.808309 0.822459 0.152385 
0.61385 0.768655 0.890472 0.0574863 0.151827 
0.339835 0.882529 0.636174 0.146553 0.927655 
0.7716 0.771607 0.582249 0.156369 0.573408 
0.514597 0.740315 0.628377 0.899916 0.416842 
0.360672 0.768972 0.594255 0.102859 0.288971 
0.0136679 0.296679 0.436398 0.820738 0.373662 
0.452448 0.0835963 0.934954 0.143597 0.938473 
0.0779542 0.101284 0.753363 0.67502 0.865217 
0.922384 0.963076 0.732339 0.49172 0.638395 
0.43669 0.256344 0.275244 0.00446774 0.0343449 
0.74092 0.131048 0.885154 0.853286 0.508014 
0.0700086 0.557909 0.439307 0.887682 0.214886 
0.261928 0.317752 0.358359 0.460027 0.0807309 
0.216411 0.996983 0.723567 0.279887 0.0676984 
0.0152169 0.612625 0.985924 0.92238 0.370357 
0.0518097 0.285538 0.322487 0.967427 0.521854 
0.295206 0.375015 0.963029 0.460268 0.600038 
0.282811 0.156858 0.489048 0.805505 0.33872 
0.405531 0.00528211 0.665643 0.647967 0.0574603 
0.258874 0.718792 0.308929 0.952659 0.288957 
0.905543 0.220163 0.033256 0.138073 0.626218 
0.642512 0.641596 0.633952 0.253552 0.155551 
0.967469 0.716537 0.0638805 0.997946 0.596295 
0.13004 0.735726 0.154315 0.493159 0.880583 
0.311541 0.225229 0.792588 0.341739 0.198426 
0.00158038 0.878598 0.219374 0.0211627 0.533045 
0.0163238 0.42257 0.190892 0.0877433 0.584027 
0.812624 0.644524 0.753222 0.210256 0.159813 
0.243596 0.853419 0.452813 0.410771 0.247638 
0.463633 0.971311 0.161476 0.38903 0.923621 
0.43563 0.209058 0.0923772 0.976799 0.370178 
0.400438 0.604203 0.0385667 0.888378 0.383753 
0.656779 0.631259 0.580212 0.73975 0.184339 
0.553449 0.206863 0.918065 0.217682 0.564053 
0.379926 0.919201 0.0657942 0.536998 0.686699 
0.170135 0.856781 0.300013 0.892655 0.166261 
0.790366 0.355229 0.700675 0.107056 0.115357 
0.0322945 0.868619 0.786123 0.231068 0.675202 
0.25498 0.588341 0.979674 0.0234465 0.564951 
0.970988 0.8122 0.423697 0.30406 0.713429 
0.213613 0.679703 0.1378 0.7862 0.655951 
0.987173 0.749411 0.718195 0.887778 0.293005 
0.507507 0.46621 0.0891848 0.115482 0.384617 
0.0179587 0.889041 0.366258 0.258136 0.945098 
0.869488 0.42626 0.491891 0.237565 0.0729233 
0.713802 0.146136 0.332466 0.258279 0.57993 
0.406737 0.366201 0.257818 0.774646 0.0766123 
0.212626 0.493758 0.562494 0.46475 0.729015 
0.88112 0.694853 0.397041 0.684697 0.32378 
0.882295 0.535434 0.454918 0.55124 0.895431 
0.101874 0.139732 0.407524 0.66602 0.203334 
0.244189 0.829761 0.603248 0.610532 0.815123 
0.511789 0.889478 0.990419 0.454822 0.104262 
0.587796 0.16741 0.525703 0.599305 0.141154 
0.530828 0.954583 0.689086 0.487942 0.958993 
0.816846 0.949238 0.995492 0.0063086 0.189996 
0.887294 0.234717 0.98272 0.5106 0.690553 
0.599829 0.216732 0.383691 0.840752 0.641197 
0.791475 0.957233 0.741942 0.00810834 0.110942 
0.28006 0.739233 0.624808 0.852339 0.192812 
0.301618 0.103668 0.437678 0.156898 0.0670873 
0.211607 0.212524 0.047896 0.220196 0.536722 
0.742416 0.305135 0.164718 0.754902 0.251206 
0.390933 0.776726 0.886403 0.357928 0.849137 
0.526849 0.43025 0.232322 0.110864 0.92098 
0.981951 0.961809 0.0139629 0.467692 0.247125 
0.332725 0.675063 0.103303 0.619735 0.788889 
0.213066 0.806148 0.652976 0.0584488 0.517135 
0.300368 0.236983 0.0162605 0.674 0.391797 
0.512759 0.893185 0.273093 0.0283702 0.848996 
0.626812 0.133977 0.479496 0.73825 0.786443 
0.807975 0.129209 0.580061 0.0820624 0.961824 
0.471138 0.677057 0.201335 0.723682 0.307353 
0.570997 0.490037 0.48832 0.482985 0.753144 
0.064014 0.160591 0.233429 0.920193 0.391336 
0.475479 0.0435023 0.930132 0.0770059 0.838374 
0.561824 0.59136 0.119313 0.569689 0.503791 
0.47228 0.459657 0.209561 0.204042 0.649704 
0.540023 0.557271 0.633625 0.925374 0.318286 
0.564557 0.00753993 0.665935 0.552784 0.042496 
0.478629 0.461668 0.747942 0.950921 0.316678 
0.354477 0.189973 0.915654 0.13028 0.781371 
0.502833 0.946142 0.334741 0.966147 0.993278 
0.358364 0.256473 0.645914 0.814124 0.909788 
0.0891825 0.916392 0.395669 0.193563 0.167304 
0.737257 0.510562 0.216108 0.978745 0.515243 
0.25479 0.0904443 0.268488 0.148645 0.234141 
0.114085 0.832966 0.132872 0.480146 0.82687 
0.949994 0.635181 0.050111 0.714473 0.844246 
0.679519 0.396158 0.441616 0.534789 0.853446 
0.887756 0.859659 0.64366 0.965782 0.78582 
0.344561 0.569552 0.635056 0.135505 0.98307 
0.901222 0.891057 0.24258 0.241948 0.83362 
0.528331 0.124852 0.445362 0.115597 0.304738 
0.634962 0.5684 0.968664 0.254847 0.421424 
0.189205 0.792986 0.836979 0.647571 0.211764 
0.551853 0.916803 0.854739 0.493455 0.620112 
0.197849 0.823141 0.237425 0.396557 0.771242 
0.111709 0.678636 0.800552 0.85359 0.796078 
0.478169 0.256081 0.374992 0.554251 0.577558 
0.148297 0.874673 0.110586 0.995292 0.501291 
0.0363612 0.34612 0.725871 0.864006 0.532471 
0.252214 0.329438 0.594046 0.623222 0.332469 
0.29201 0.081717 0.742921 0.66478 0.925223 
0.958495 0.45595 0.130667 0.299725 0.757726 
0.247569 0.842801 0.379564 0.0287773 0.0612672 
0.782172 0.136153 0.160195 0.632998 0.607944 
0.066293 0.873967 0.998051 0.027348 0.595489 
0.150556 0.796883 0.583845 0.00459298 0.945634 
0.48162 0.267585 0.856835 0.00882166 0.274546 
0.823561 0.767201 0.412524 0.525779 0.112751 
0.812193 0.0818969 0.0942059 0.999044 0.184553 
0.414092 0.571459 0.918701 0.267464 0.948049 
0.966138 0.00390364 0.79748 0.400191 0.579225 
0.295026 0.887142 0.0572406 0.369794 0.967633 
0.750568 0.533925 0.271408 0.0806764 0.00604588 
0.84646 0.0917091 0.025543 0.0786361 0.296451 
0.514033 0.720978 0.897889 0.213965 0.780228 
0.147938 0.427764 0.896906 0.537383 0.827402 
0.947029 0.381756 0.563506 0.464598 0.387435 
0.500426 0.146567 0.553006 0.98239 0.423665 
0.0426453 0.315815 0.901623 0.123406 0.120232 
0.254842 0.694999 0.747659 0.499779 0.651488 
0.317708 0.231485 0.629125 0.18628 0.0755338 
0.0892202 0.762607 0.137033 0.251196 0.0309292 
0.0308886 0.237898 0.874772 0.421215 0.56055 
0.117691 0.815988 0.313332 0.00405355 0.422454 
0.0233083 0.665853 0.414756 0.655651 0.0608872 
0.601961 0.642316 0.816219 0.190021 0.287687 
0.288572 0.419608 0.702398 0.178062 0.397691 
0.325081 0.844539 0.746571 0.116996 0.727198 
0.872452 0.949528 0.106798 0.846642 0.985993 
0.916403 0.463851 0.93243 0.919872 0.663619 
0.29182 0.148813 0.885306 0.0729428 0.133384 
0.689159 0.825964 0.382392 0.311697 0.279778 
0.516124 0.400001 0.494573 0.347054 0.492139 
0.426575 0.170286 0.439905 0.0350336 0.817254 
0.760724 0.331174 0.260141 0.791267 0.296614 
0.118812 0.357888 0.418738 0.438134 0.907473 
0.504199 0.553546 0.743542 0.0521443 0.000471904 
0.386635 0.306427 0.679669 0.033363 0.336895 
0.239767 0.0758352 0.979048 0.882813 0.316307 
0.518805 0.794789 0.1276 0.936884 0.720921 
0.464222 0.666503 0.484342 0.896194 0.034686 
0.73358 0.212022 0.429235 0.133261 0.0190062 
0.56779 0.605797 0.659921 0.734153 0.647591 
0.0442986 0.211865 0.960081 0.944617 0.527638 
0.990774 0.58627 0.908247 0.299642 0.656068 
0.642768 0.574223 0.441963 0.406688 0.0508553 
0.418468 0.786944 0.684955 0.9524 0.50849 
0.467127 0.102155 0.596728 0.433099 0.0847461 
0.515732 0.278137 0.661111 0.607064 0.474997 
0.299565 0.0374882 0.837925 0.95844 0.0381786 
0.0295711 0.151628 0.249665 0.782679 0.00609687 
0.327568 0.144557 0.797673 0.369277 0.526828 
0.429522 0.41812 0.779657 0.678247 0.899605 
0.5794 0.91527 0.371361 0.985115 0.346262 
0.287603 0.384144 0.576805 0.546236 0.898164 
0.892237 0.881406 0.9933 0.908132 0.791284 
0.0828718 0.861171 0.00890176 0.85252 0.971349 
0.962339 0.0516237 0.529567 0.0558075 0.467595 
0.468223 0.530838 0.783563 0.223773 0.431126 
0.551553 0.124381 0.142762 0.4233 0.74076 
0.868709 0.120828 0.983143 0.356324 0.945272 
0.956988 0.0789688 0.735798 0.933982 0.393033 
0.732539 0.716451 0.499361 0.168498 0.300028 
0.764452 0.107968 0.162286 0.692681 0.977025 
0.199863 0.544573 0.278454 0.955186 0.4335 
0.486286 0.925761 0.240085 0.238784 0.747175 
0.466228 0.0138231 0.272915 0.766824 0.164907 
0.127997 0.0564587 0.739611 0.31649 0.940056 
0.321349 0.893988 0.363015 0.593222 0.702778 
0.178132 0.335656 0.304602 0.215252 0.231904 
0.939177 0.291215 0.469082 0.826161 0.117254 
0.796612 0.331878 0.673906 0.529072 0.435393 
0.167482 0.304696 0.746894 0.115785 0.790307 
0.406985 0.257296 0.382546 0.619705 0.57166 
0.197062 0.802522 0.604779 0.773837 0.806373 
0.99264 0.577113 0.148222 0.256326 0.59483 
0.685596 0.40563 0.00428325 0.262587 0.295608 
0.512779 0.389924 0.496313 0.980087 0.514438 
0.479022 0.0904413 0.22525 0.170694 0.303023 
0.450154 0.185114 0.0880725 0.158544 0.442461 
0.0761103 0.920133 0.652263 0.0768832 0.0218076 
0.956583 0.883864 0.525523 0.625546 0.625541 
0.32217 0.936783 0.0282116 0.337888 0.777816 
0.293 0.901386 0.0691324 0.0957084 0.841299 
0.652136 0.362318 0.336812 0.982488 0.878525 
0.949154 0.793466 0.627766 0.497858 0.617883 
0.0764169 0.323507 0.60742 0.950976 0.0231745 
0.835774 0.55941 0.68446 0.111741 0.672035 
0.0835816 0.889239 0.245389 0.709566 0.869026 
0.879139 0.38071 0.145913 0.660353 0.835689 
0.958112 0.570359 0.851788 0.87099 0.678926 
0.0885272 0.89725 0.510028 0.86041 0.415547 
0.357389 0.144968 0.820302 0.028706 0.362178 
0.665379 0.20304 0.590256 0.72743 0.503336 
0.747363 0.692787 0.561296 0.23572 0.562033 
0.929583 0.422267 0.0410905 0.112835 0.543905 
0.842269 0.84314 0.113054 0.984061 0.932383 
0.644674 0.577993 0.422655 0.858562 0.259216 
0.520866 0.185374 0.804845 0.879622 0.373596 
0.629362 0.201242 0.391259 0.618673 0.466024 
0.869192 0.722856 0.157045 0.0846948 0.301847 
0.52476 0.311939 0.0110708 0.30578 0.61196 
0.611965 0.78696 0.252912 0.344544 0.258942 
0.366626 0.705105 0.690726 0.453854 0.293167 
0.615413 0.703875 0.776289 0.806937 0.973448 
0.0882468 0.936172 0.752539 0.723206 0.863222 
0.904615 0.122821 0.887739 0.460597 0.185305 
0.837762 0.777568 0.787611 0.622837 0.536871 
0.792095 0.991622 0.0748407 0.428885 0.51897 
0.611774 0.91328 0.619009 0.24741 0.080541 
0.782707 0.500483 0.263808 0.654217 0.3057 
0.439561 0.699625 0.361433 0.912166 0.278272 
0.689234 0.763576 0.877947 0.118639 0.643764 
0.886666 0.29259 0.110538 0.151538 0.2595 
0.0985794 0.566229 0.535568 0.415478 0.932923 
0.204788 0.522072 0.898475 0.00302863 0.250201 
0.36893 0.670953 0.976028 0.67469 0.0671879 
0.495837 0.504263 0.416368 0.521748 0.836245 
0.484532 0.598679 0.648127 0.550264 0.358716 
0.547131 0.492451 0.528761 0.273061 0.175875 
0.548035 0.966119 0.726419 0.254071 0.61334 
0.200189 0.692174 0.59388 0.219484 0.681846 
0.537213 0.0940967 0.455153 0.525349 0.354178 
0.279356 0.681841 0.773682 0.132473 0.280647 
0.388898 0.364039 0.805365 0.387204 0.414932 
0.728606 0.511527 0.136398 0.344548 0.828681 
0.963816 0.108571 0.580264 0.736413 0.94306 
0.82261 0.365695 0.259092 0.951292 0.352903 
0.574356 0.981727 0.643489 0.984219 0.00954043 
0.291303 0.893367 0.608522 0.748489 0.55731 
0.0978359 0.329193 0.537494 0.76093 0.403749 
0.557898 0.05044 0.448501 0.584744 0.363672 
0.151456 0.988586 0.855519 0.39756 0.392199 
0.989743 0.832542 0.460437 0.911831 0.274548 
0.45534 0.90669 0.964305 0.0490839 0.790738 
0.708264 0.470358 0.250659 0.883502 0.0580763 
0.682548 0.976577 0.176785 0.666164 0.674471 
0.340816 0.500339 0.519088 0.174405 0.49533 
0.291182 0.926237 0.362732 0.828452 0.341506 
0.45406 0.374878 0.639205 0.239699 0.76902 
0.901202 0.154589 0.054068 0.961696 0.37714 
0.238987 0.757282 0.897 0.0460907 0.403105 
0.651757 0.0930935 0.491317 0.713335 0.887259 
0.245536 0.428227 0.22952 0.909009 0.0560482 
0.694273 0.166943 0.904437 0.576276 0.606115 
0.915338 0.957439 0.305811 0.33866 0.951872 
0.769799 0.443215 0.17016 0.887845 0.151373 
0.483964 0.00939498 0.0648798 0.721544 0.813245 
0.755006 0.0961294 0.897296 0.6648 0.342305 
0.349812 0.943022 0.0746128 0.0982367 0.910631 
0.495577 0.617816 0.768831 0.211386 0.387008 
0.295207 0.49773 0.0254386 0.171847 0.123953 
0.535168 0.268652 0.336144 0.165846 0.761331 
0.723597 0.871045 0.583067 0.650725 0.763085 
0.499493 0.96005 0.181175 0.0883789 0.506802 
0.850752 0.864345 0.475237 0.94536 0.418258 
0.914011 0.281038 0.936444 0.680847 0.897996 
0.0791221 0.337684 0.626499 0.760299 0.0509998 
0.88134 0.81891 0.60272 0.860995 0.839323 
0.854946 0.145692 0.334661 0.7786 0.0433769 
0.523435 0.581462 0.236438 0.867482 0.217447 
0.824669 0.873906 0.116596 0.383386 0.45998 
0.989961 0.474665 0.0553449 0.072276 0.885911 
0.183406 0.431122 0.797113 0.628384 0.591364 
0.51606 0.887463 0.54947 0.593925 0.0375177 
0.893838 0.245461 0.910844 0.970958 0.556356 
0.539115 0.289027 0.98887 0.860034 0.963635 
0.298471 0.686411 0.723044 0.124896 0.271416 
0.542267 0.720494 0.30548 0.338523 0.531868 
0.110443 0.80196 0.368837 0.22858 0.786237 
0.489672 0.794471 0.399725 0.0240318 0.472167 
0.0711681 0.280239 0.49226 0.673108 0.0703912 
0.164138 0.77029 0.840224 0.776597 0.939257 
0.106942 0.511346 0.623102 0.133478 0.593751 
0.0778494 0.0704491 0.638853 0.0706208 0.474986 
0.914261 0.532847 0.887521 0.242593 0.950635 
0.0423798 0.86243 0.376618 0.0024824 0.0946743 
0.929313 0.422378 0.568315 0.88791 0.169345 
0.10731 0.762967 0.505466 0.925658 0.153026 
0.355087 0.488167 0.188125 0.846297 0.465996 
0.35083 0.0444013 0.228215 0.0853494 0.736204 
0.432073 0.749848 0.123178 0.310393 0.0434612 
0.791574 0.237504 0.392753 0.232208 0.801635 
0.539739 0.884519 0.740681 0.158985 0.00595006 
0.199715 0.421595 0.0723101 0.481928 0.47895 
0.82704 0.724197 0.416432 0.572873 0.163386 
0.494916 0.940798 0.0950936 0.769622 0.787145 
0.74261 0.249986 0.520298 0.927804 0.866348 
0.952341 0.146384 0.422412 0.115705 0.899311 
0.434369 0.832291 0.818569 0.0642653 0.296047 
0.860504 0.0754357 0.222199 0.881008 0.198614 
0.129178 0.188205 0.747353 0.295679 0.313853 
0.284408 0.905805 0.615182 0.260285 0.603983 
0.610137 0.0637228 0.509267 0.850266 0.682779 
0.0929327 0.826512 0.416935 0.772717 0.572532 
0.929531 0.524619 0.352886 0.97125 0.659423 
0.993143 0.88328 0.317314 0.185991 0.467911 
0.450091 0.202876 0.437967 0.496283 0.370114 
0.905057 0.511374 0.89516 0.647219 0.541813 
0.748075 0.988328 0.269051 0.178933 0.69184 
0.74747 0.648731 0.817691 0.34892 0.708657 
0.0331625 0.0974397 0.731444 0.0745859 0.392073 
0.196921 0.91576 0.237114 0.461974 0.990574 
0.567672 0.930588 0.90679 0.383112 0.554094 
0.689213 0.196347 0.618796 0.395649 0.014617 
0.67995 0.0831463 0.689774 0.838883 0.987575 
0.996935 0.149832 0.662096 0.611205 0.296449 
0.702867 0.256938 0.103516 0.0557967 0.720157 
0.111593 0.580244 0.879948 0.547364 0.112807 
0.206454 0.29839 0.0545687 0.7164 0.588756 
0.962493 0.449672 0.126409 0.657011 0.898885 
0.396239 0.299792 0.746132 0.0491098 0.747198 
0.249278 0.0363257 0.0490956 0.694459 0.795597 
0.441682 0.300173 0.965548 0.127265 0.300892 
0.330003 0.743038 0.974317 0.0965148 0.082367 
0.170068 0.199161 0.454489 0.143951 0.341841 
0.927568 0.777914 0.155278 0.845354 0.0831438 
0.433567 0.643303 0.892952 0.115614 0.639683 
0.16292 0.849092 0.769464 0.169653 0.777583 
0.311361 0.681017 0.865628 0.665093 0.105034 
0.780643 0.71442 0.0687541 0.0424994 0.884248 
0.401873 0.535578 0.777228 0.17661 0.431561 
0.624643 0.000133269 0.935692 0.160881 0.099591 
0.251997 0.085695 0.12392 0.886321 0.573129 
0.623166 0.186516 0.980362 0.138238 0.719823 
0.466028 0.960544 0.924982 0.82678 0.645355 
0.568733 0.6558 0.0993768 0.629419 0.772396 
0.822978 0.870799 0.184215 0.96657 0.926829 
0.309219 0.485858 0.747646 0.255407 0.790063 
0.636285 0.261454 0.794537 0.721704 0.604499 
0.123877 0.0667555 0.0317745 0.366698 0.697326 
0.229546 0.22855 0.292123 0.642361 0.393176 
0.024485 0.446186 0.24934 0.345085 0.449379 
0.188359 0.289487 0.3218 0.638527 0.412465 
0.348897 0.280492 0.435361 0.776629 0.960173 
0.149328 0.860119 0.672399 0.751884 0.75399 
0.901923 0.697778 0.540719 0.521907 0.7299 
0.65412 0.511693 0.697296 0.257291 0.190619 
0.57387 0.526318 0.91501 0.0769946 0.209944 
0.0818955 0.65752 0.513158 0.207254 0.935365 
0.310447 0.331533 0.238215 0.583736 0.160322 
0.238219 0.752552 0.386809 0.274532 0.0217418 
0.038244 0.823459 0.912739 0.429717 0.551962 
0.767267 0.903357 0.384071 0.830125 0.557266 
0.851637 0.612263 0.874776 0.918032 0.587193 
0.288039 0.154758 0.582246 0.343428 0.790026 
0.880112 0.803227 0.157269 0.732304 0.325838 
0.440436 0.349337 0.734749 0.33087 0.587317 
0.935799 0.369328 0.112319 0.754814 0.0338697 
0.278171 0.864341 0.319905 0.658432 0.0483437 
0.880633 0.590208 0.0249749 0.333369 0.473739 
0.83403 0.354205 0.98585 0.871096 0.191625 
0.337141 0.51571 0.185045 0.21691 0.777353 
0.000184179 0.352663 0.9853 0.154405 0.664302 
0.779645 0.570975 0.0869109 0.0164472 0.88042 
0.140782 0.5751 0.844249 0.200611 0.318186 
0.127383 0.422959 0.590059 0.593024 0.360658 
0.487293 0.774548 0.0586728 0.328149 0.770609 
0.131636 0.621984 0.469275 0.491284 0.866349 
0.493467 0.0518724 0.653794 0.245747 0.294245 
0.535012 0.750098 0.753291 0.56144 0.0283253 
0.198263 0.0878837 0.874741 0.071467 0.502681 
0.922571 0.445104 0.819193 0.378019 0.28263 
0.267218 0.886302 0.131958 0.403259 0.0905975 
0.221674 0.556764 0.0728731 0.299495 0.116916 
0.985516 0.921325 0.52362 0.232087 0.605581 
0.628134 0.39433 0.497763 0.482983 0.965188 
0.2395 0.933802 0.37752 0.775761 0.36904 
0.88487 0.697537 0.942551 0.498043 0.0833187 
0.746321 0.948123 0.0819843 0.0194746 0.81425 
0.238067 0.398387 0.191344 0.516183 0.938172 
0.846375 0.0923139 0.862746 0.981972 0.936337 
0.0810661 0.01862 0.83516 0.501783 0.854109 
0.273449 0.560503 0.753336 0.202998 0.840359 
0.840379 0.527143 0.743322 0.611028 0.439751 
0.282274 0.306454 0.657337 0.302784 0.591004 
0.409591 0.19997 0.769919 0.275778 0.228112 
0.969317 0.112974 0.322483 0.308411 0.39653 
0.922203 0.220406 0.600256 0.929311 0.534365 
0.653901 0.920658 0.481796 0.363711 0.148944 
0.10042 0.240849 0.853956 0.431839 0.522806 
0.0316494 0.594301 0.142953 0.956217 0.480617 
0.327313 0.843 0.444311 0.427183 0.582652 
0.425325 0.065054 0.554678 0.624076 0.40922 
0.533841 0.375834 0.112453 0.442058 0.051884 
0.740772 0.441504 0.109906 0.734527 0.947346 
0.632865 0.653439 0.424418 0.571272 0.823615 
0.43537 0.858007 0.979919 0.436602 0.421342 
0.776324 0.489684 0.0278664 0.315523 0.184828 
0.116104 0.369813 0.876376 0.990381 0.0358781 
0.733869 0.0820969 0.677727 0.140129 0.182389 
0.953898 0.0703556 0.520793 0.180901 0.413535 
0.853532 0.646527 0.0472691 0.625437 0.523854 
0.351579 0.770407 0.0928649 0.845908 0.132125 
0.024773 0.583184 0.400747 0.155995 0.244385 
0.724488 0.968225 0.49066 0.915539 0.015758 
0.776081 0.684493 0.521004 0.938994 0.402786 
0.633698 0.999775 0.681249 0.903838 0.454711 
0.033685 0.95102 0.187553 0.0283055 0.863675 
0.564745 0.651835 0.233853 0.600313 0.0988184 
0.322926 0.542534 0.0358606 0.524306 0.943202 
0.355774 0.0494438 0.641452 0.0205696 0.878275 
0.197193 0.404053 0.35123 0.728973 0.185597 
0.169342 0.0829237 0.0999004 0.442037 0.0767913 
0.614201 0.743824 0.156284 0.20063 0.88473 
0.414934 0.937326 0.806682 0.300458 0.564109 
0.561523 0.476385 0.887748 0.678365 0.66107 
0.638997 0.386064 0.538816 0.132718 0.691479 
0.25076 0.980177 0.435044 0.239868 0.113906 
0.504352 0.16502 0.0168621 0.516928 0.882149 
0.0244395 0.418985 0.713127 0.649232 0.407857 
0.737838 0.472801 0.169304 0.904825 0.727812 
0.425812 0.0851724 0.394959 0.0713757 0.808324 
0.505379 0.443449 0.511579 0.198435 0.816495 
0.856444 0.33237 0.0459505 0.256714 0.284795 
0.586578 0.470172 0.611859 0.419725 0.630474 
0.696131 0.434403 0.426884 0.917861 0.190738 
0.397867 0.342021 0.453644 0.505585 0.0861617 
0.911628 0.494367 0.935132 0.806529 0.305695 
0.806481 0.773939 0.312578 0.0604145 0.897236 
0.0770466 0.742465 0.153535 0.183798 0.543908 
0.120684 0.165054 0.3596 0.536501 0.0781957 
0.0260089 0.510486 0.893528 0.739529 0.174665 
0.181394 0.62319 0.699356 0.181003 0.0640217 
0.534198 0.0206826 0.0485376 0.588159 0.888063 
0.434387 0.727881 0.128822 0.964799 0.849467 
0.0360685 0.672968 0.383076 0.948274 0.362709 
0.292711 0.507338 0.713146 0.97116 0.989093 
0.679721 0.512678 0.638646 0.397456 0.29308 
0.787795 0.631082 0.808596 0.883011 0.718686 
0.132658 0.4172 0.719045 0.194583 0.206079 
0.917824 0.417814 0.991978 0.592248 0.91762 
0.899776 0.438273 0.554287 0.280108 0.788915 
0.48566 0.360615 0.945248 0.335802 0.774919 
0.505894 0.821658 0.0766987 0.110117 0.492118 
0.980226 0.932431 0.539197 0.400386 0.938019 
0.426073 0.107714 0.762741 0.793523 0.284315 
0.431766 0.709275 0.292496 0.864792 0.0344703 
0.548594 0.259357 0.519836 0.280729 0.907432 
0.0762732 0.354094 0.900748 0.462285 0.0724121 
0.818229 0.384159 0.917319 0.169288 0.282143 
0.13208 0.850407 0.949796 0.47035 0.0949484 
0.177358 0.882602 0.876954 0.730133 0.38909 
0.970623 0.117232 0.508869 0.989889 0.673872 
0.0390772 0.171114 0.00228361 0.713248 0.998145 
0.26352 0.449146 0.271913 0.211505 0.228638 
0.3742 0.853828 0.0262084 0.819593 0.572672 
0.568753 0.39811 0.230143 0.0232798 0.938816 
0.280939 0.174174 0.698866 0.232492 0.116933 
0.258782 0.285399 0.032417 0.338413 0.419874 
0.9382 0.531786 0.816274 0.460686 0.373356 
0.193164 0.922551 0.155997 0.941965 0.671796 
0.467958 0.690285 0.880981 0.0344048 0.772478 
0.68197 0.0201291 0.749039 0.463956 0.936506 
0.828117 0.667777 0.999664 0.458039 0.248156 
0.264138 0.657763 0.843638 0.373038 0.305356 
0.375872 0.883035 0.586089 0.204523 0.850242 
0.60166 0.588502 0.242631 0.22382 0.338221 
0.987671 0.347906 0.4737 0.227891 0.751444 
0.863882 0.178057 0.987054 0.103781 0.765383 
0.763397 0.690329 0.636442 0.985089 0.648949 
0.739143 0.0631159 0.903875 0.940302 0.988792 
0.588308 0.472291 0.613665 0.0299183 0.856434 
0.518895 0.797198 0.34138 0.432661 0.462432 
0.222539 0.983247 0.835934 0.183449 0.111224 
0.325473 0.32406 0.595617 0.962334 0.687599 
0.538447 0.0461429 0.744822 0.288577 0.385546 
0.165246 0.436213 0.0482266 0.967488 0.0773772 
0.965629 0.777083 0.137481 0.577552 0.237229 
0.254542 0.599144 0.914092 0.915504 0.28689 
0.0412206 0.781917 0.357211 0.42058 0.254222 
0.903926 0.509109 0.339464 0.794221 0.0983507 
0.00241511 0.26726 0.795569 0.104503 0.541185 
0.925225 0.266655 0.471905 0.431868 0.491404 
0.820123 0.269552 0.351617 0.740808 0.423423 
0.0442139 0.140527 0.485109 0.250794 0.545399 
0.759326 0.574733 0.897349 0.70125 0.290907 
0.297195 0.851961 0.607568 0.182131 0.673054 
0.671355 0.621621 0.0610619 0.852326 0.993395 
0.0141375 0.0910123 0.930814 0.632948 0.151924 
0.691942 0.36528 0.21507 0.184105 0.528988 
0.972737 0.287863 0.575381 0.917129 0.458149 
0.383593 0.812125 0.730063 0.722473 0.383269 
0.713621 0.554708 0.0994846 0.431188 0.564816 
0.184525 0.93531 0.461018 0.24582 0.878771 
0.240413 0.404364 0.860576 0.44783 0.648942 
0.581143 0.918254 0.449426 0.881176 0.968099 
0.573235 0.96457 0.877268 0.445709 0.723842 
0.596535 0.58015 0.37252 0.786921 0.737615 
0.888121 0.152182 0.217249 0.476813 0.377487 
0.821203 0.690109 0.826026 0.446933 0.218349 
0.0499594 0.783162 0.213923 0.768532 0.644086 
0.283973 0.97073 0.53135 0.909833 0.414376 
0.4827 0.248532 0.300645 0.783385 0.461375 
0.356994 0.93222 0.367862 0.0715269 0.753996 
0.928458 0.100941 0.0322309 0.753174 0.678255 
0.777575 0.542613 0.222482 0.770008 0.917744 
0.398996 0.266766 0.0748508 0.15881 0.318092 
0.232112 0.847312 0.0375608 0.78296 0.879302 
0.299908 0.647542 0.0946176 0.581103 0.34428 
0.59677 0.932271 0.360013 0.07091 0.669917 
0.438507 0.0783786 0.134982 0.890435 0.648088 
0.55089 0.128731 0.0414989 0.331897 0.620118 
0.127851 0.725082 0.993534 0.350152 0.118446 
0.344867 0.233974 0.282123 0.57333 0.420401 
0.499009 0.509316 0.409427 0.280549 0.969503 
0.797187 0.0901677 0.00859481 0.602452 0.186856 
0.540827 0.631989 0.811728 0.4479 0.717039 
0.0510851 0.367145 0.427106 0.222445 0.863837 
0.317314 0.854571 0.58897 0.58291 0.0856812 
0.164027 0.692688 0.924596 0.134812 0.483087 
0.12703 0.971124 0.940508 0.155233 0.384632 
0.802584 0.215521 0.197992 0.847338 0.600621 
0.41006 0.872871 0.0981045 0.568958 0.69507 
0.34152 0.967217 0.422241 0.533966 0.84312 
0.979672 0.342651 0.387751 0.14419 0.456277 
0.524838 0.266611 0.80041 0.353727 0.370769 
0.768149 0.385958 0.937983 0.534044 0.891537 
0.975767 0.771435 0.161172 0.604962 0.119278 
0.127483 0.654051 0.289379 0.920081 0.113245 
0.253064 0.688022 0.373385 0.117391 0.979192 
0.489413 0.233591 0.288295 0.464212 0.254926 
0.524223 0.831374 0.390024 0.778927 0.974935 
0.125618 0.163109 0.632946 0.176359 0.997475 
0.242277 0.104122 0.649322 0.0345507 0.18076 
0.519131 0.212506 0.0125112 0.5149 0.686408 
0.497382 0.62661 0.861725 0.876923 0.624133 
0.944151 0.610355 0.365625 0.765288 0.770286 
0.503165 0.169433 0.739069 0.952978 0.36387 
0.0423362 0.529423 0.345904 0.54645 0.135253 
0.815781 0.31108 0.824186 0.578692 0.102361 
0.802761 0.192817 0.74972 0.256811 0.404229 
0.993387 0.602462 0.630485 0.427557 0.499331 
0.173719 0.83254 0.169395 0.593348 0.939777 
0.687453 0.576809 0.0379165 0.511496 0.395208 
0.990919 0.302854 0.216838 0.892087 0.654845 
0.2423 0.719349 0.273441 0.487948 0.569079 
0.257834 0.86766 0.649641 0.20305 0.731226 
0.354191 0.23118 0.214085 0.317134 0.156994 
0.0129815 0.573521 0.239318 0.973227 0.972047 
0.756428 0.876356 0.884504 0.950981 0.450276 
0.30859 0.774952 0.724707 0.430102 0.723447 
0.337483 0.349601 0.747864 0.477773 0.604693 
0.417297 0.769684 0.546877 0.248282 0.931947 
0.0374289 0.279583 0.274918 0.453307 0.347741 
0.184308 0.163336 0.82518 0.192314 0.0443801 
0.382336 0.0212372 0.487204 0.230209 0.0645857 
0.480879 0.18168 0.758431 0.377075 0.178091 
0.476952 0.213115 0.98509 0.179129 0.0808092 
0.465328 0.419746 0.653985 0.987564 0.557724 
0.440733 0.887643 0.657125 0.0927744 0.956538 
0.0550858 0.274691 0.272639 0.209952 0.339678 
0.0780805 0.308257 0.190838 0.0386612 0.783235 
0.924926 0.113958 0.197501 0.639301 0.339643 
0.878072 0.756401 0.610651 0.15853 0.531159 
0.51342 0.281891 0.620215 0.754081 0.467556 
0.735423 0.963815 0.492207 0.738482 0.695722 
0.48946 0.726802 0.806586 0.607022 0.791275 
0.628057 0.271876 0.937669 0.278967 0.768667 
0.49878 0.0178915 0.12967 0.444911 0.670927 
0.264327 0.157184 0.942586 0.0153609 0.147593 
0.274944 0.94355 0.362409 0.863372 0.581263 
0.480011 0.407843 0.411553 0.9611 0.633074 
0.0595171 0.0421099 0.467377 0.679372 0.771413 
