800 5
0.809689 0.523277 0.940415 0.63288 0.660371 
0.571824 0.521595 0.605186 0.110194 0.985795 
0.15596 0.692295 0.319418 0.22937 0.775222 
0.866146 0.460589 0.485829 0.745595 0.0452308 
0.102572 0.132016 0.998974 0.856925 0.767853 
0.789082 0.257412 0.195372 0.276383 0.516459 
0.199775 0.0237955 0.423336 0.328063 0.482631 
0.963665 0.242044 0.314386 0.968407 0.750704 
0.0611904 0.554051 0.195617 0.848781 0.74008 
0.371859 0.845949 0.500154 0.140452 0.892167 
0.65997 0.95217 0.231439 0.38454 0.202472 
0.84068 0.733417 0.34998 0.900599 0.971473 
0.67051 0.386643 0.0584093 0.580913 0.819766 
0.393487 0.268533 0.454284 0.374532 0.294173 
0.00861921 0.496021 0.70288 0.681289 0.17611 
0.545281 0.504739 0.560528 0.766979 0.959396 
0.596013 0.45561 0.644141 0.325744 0.753439 
0.347346 0.413769 0.278996 0.0965275 0.327885 
0.20845 0.271004 0.652511 0.672463 0.428217 
0.619514 0.168945 0.568698 0.634323 0.635045 
0.186385 0.857054 0.0548659 0.0940176 0.755305 
0.293879 0.536967 0.488866 0.240427 0.157538 
0.0912315 0.47885 0.78293 0.448669 0.834123 
0.573975 0.312633 0.201799 0.157387 0.963046 
0.568404 0.410298 0.501752 0.935134 0.402847 
0.409179 0.483342 0.164978 0.446314 0.255509 
0.101411 0.854318 0.365439 0.53787 0.58911 
0.203586 0.795087 0.991063 0.285409 0.934057 
0.545935 0.95383 0.525438 0.277742 0.658662 
0.173425 0.109087 0.280277 0.0946451 0.633013 
0.647453 0.559907 0.443527 0.118223 0.33097 
9.88802e-05 0.757531 0.718637 0.322626 0.0590968 
0.651519 0.967412 0.500597 0.891443 0.0737782 
0.0238749 0.0999146 0.745548 0.634755 0.205925 
0.405462 0.411067 0.718753 0.39793 0.775969 
0.847036 0.999805 0.428579 0.109518 0.77829 
0.980509 0.43919 0.629539 0.78519 0.985651 
0.862707 0.642392 0.276403 0.014906 0.216308 
0.372787 0.850362 0.306169 4.10312e-05 0.331871 
0.0418041 0.628711 0.620176 0.759928 0.345977 
0.265826 0.992314 0.668843 0.795551 0.466776 
0.125373 0.27028 0.658277 0.965789 0.459891 
0.486926 0.689592 0.877928 0.428838 0.0540258 
0.750043 0.653214 0.536489 0.472395 0.598138 
0.565403 0.552081 0.233826 0.298506 0.761399 
0.778092 0.542586 0.705544 0.755779 0.0451207 
0.321103 0.63785 0.842295 0.951174 0.569373 
0.511431 0.113745 0.0416855 0.418857 0.803771 
0.821094 0.922867 0.920503 0.675007 0.531924 
0.205339 0.424985 0.0868242 0.424768 0.993547 
0.445989 0.541998 0.0943333 0.478029 0.260017 
0.00294201 0.309977 0.586988 0.81573 0.375742 
0.0398092 0.064842 0.00271602 0.585725 0.961633 
0.641798 0.156988 0.626983 0.395936 0.705589 
0.604779 0.0240907 0.849555 0.623414 0.0177215 
0.058018 0.414476 0.0686315 0.043911 0.395156 
0.11533 0.249935 0.508318 0.563867 0.118103 
0.491252 0.88565 0.656637 0.0969972 0.508468 
0.13783 0.41885 0.2969 0.120063 2.43817e-06 
0.879067 0.289759 0.580472 0.343097 0.524714 
0.469985 0.727125 0.183598 0.676462 0.0546016 
0.737506 0.292292 0.0899166 0.379454 0.505657 
0.294451 0.85142 0.0351698 0.333312 0.442296 
0.902549 0.832952 0.743679 0.530371 0.0217503 
0.0857802 0.92259 0.962373 0.430083 0.272256 
0.233289 0.966992 0.35953 0.884917 0.31813 
0.758599 0.0573569 0.238326 0.529839 0.537471 
0.434443 0.516937 0.906278 0.814705 0.0920991 
0.551076 0.655132 0.360473 0.211643 0.738555 
0.814514 0.329432 0.761764 0.979279 0.206752 
0.51271 0.494474 0.0442544 0.37096 0.0248469 
0.585505 0.564215 0.747984 0.266524 0.711295 
0.85385 0.146651 0.684339 0.140639 0.582538 
0.0955624 0.70857 0.584509 0.0633867 0.822715 
0.556162 0.606056 0.0151321 0.298008 0.61417 
0.254672 0.918311 0.10553 0.258775 0.720668 
0.459259 0.88135 0.77414 0.0686071 0.70459 
0.507085 0.638836 0.987246 0.494485 0.126926 
0.724767 0.650871 0.565553 0.926896 0.507218 
0.0938732 0.905469 0.74659 0.222954 0.106039 
0.740481 0.0579419 0.425025 0.00763419 0.633614 
0.995382 0.786831 0.612501 0.393368 0.533934 
0.872085 0.393618 0.396633 0.364525 0.373976 
0.671073 0.573412 0.185054 0.680734 0.812519 
0.335832 0.526436 0.663121 0.513914 0.977169 
0.696217 0.164645 0.127907 0.0318607 0.414545 
0.905608 0.835479 0.336358 0.305644 0.64641 
0.0461953 0.00804773 0.057621 0.436018 0.544508 
0.00537203 0.880416 0.379577 0.737526 0.171686 
0.912958 0.551196 0.307988 0.18051 0.517634 
0.032114 0.435925 0.33455 0.215385 0.460081 
0.403291 0.963994 0.687427 0.540285 0.710634 
0.515575 0.552081 0.258472 0.784418 0.333779 
0.504076 0.794606 0.945018 0.435277 0.248087 
0.168626 0.510375 0.158206 0.381761 0.927048 
0.0660027 0.171543 0.221005 0.0493518 0.195297 
0.394185 0.113745 0.649057 0.500014 0.100788 
0.247794 0.815581 0.388408 0.59605 0.175086 
0.224638 0.0548439 0.898835 0.280901 0.461598 
0.691466 0.718137 0.0365226 0.62131 0.151173 
0.929098 0.446578 0.611726 0.45418 0.553576 
0.192613 0.886167 0.577211 0.294763 0.138976 
0.783276 0.194616 0.401885 0.0711866 0.932401 
0.0885823 0.334352 0.538976 0.503782 0.142671 
0.196676 0.456396 0.433585 0.978631 0.687722 
0.969793 0.191867 0.286735 0.496582 0.978492 
0.811159 0.441379 0.511266 0.651923 0.0798559 
0.0257349 0.181537 0.90919 0.0699362 0.670935 
0.454634 0.401451 0.71377 0.822414 0.889814 
0.108338 0.120178 0.144969 0.860333 0.359318 
0.106165 0.198087 0.10813 0.0572063 0.00146903 
0.430266 0.14859 0.589657 0.230467 0.227822 
0.0145472 0.0517089 0.382562 0.813427 0.704072 
0.914775 0.100888 0.710783 0.789948 0.514406 
0.0844803 0.574226 0.41877 0.924892 0.838602 
0.162887 0.0550679 0.127559 0.173222 0.564553 
0.138122 0.22679 0.495646 0.681825 0.246633 
0.427295 0.955831 0.264777 0.663527 0.137922 
0.844809 0.44647 0.771857 0.129277 0.406276 
0.596157 0.71906 0.150094 0.0902263 0.71152 
0.0517977 0.763463 0.162068 0.356653 0.411175 
0.801708 0.372744 0.482547 0.714551 0.347075 
0.14396 0.574229 0.0175657 0.626768 0.195964 
0.866579 0.548789 0.570895 0.482143 0.57776 
0.747332 0.293373 0.268376 0.394059 0.355202 
0.0996096 0.1019 0.821166 0.788523 0.835293 
0.15839 0.761677 0.929376 0.252009 0.39564 
0.418084 0.81903 0.898354 0.638248 0.123223 
0.880645 0.103621 0.799899 0.648622 0.61579 
0.879538 0.273048 0.456802 0.137855 0.288815 
0.825659 0.202428 0.65874 0.503507 0.121753 
0.42165 0.308849 0.627683 0.390091 0.190094 
0.0950016 0.246962 0.503462 0.398609 0.336814 
0.612993 0.883123 0.858107 0.883986 0.289359 
0.949542 0.281014 0.616838 0.79218 0.385229 
0.311547 0.690233 0.551436 0.622002 0.571075 
0.109671 0.829358 0.335497 0.486032 0.622767 
0.747444 0.409058 0.219788 0.863374 0.507425 
0.0762617 0.065732 0.852866 0.565307 0.127718 
0.512718 0.66598 0.667409 0.57242 0.378384 
0.901758 0.497868 0.457383 0.912614 0.21709 
0.969503 0.959411 0.546199 0.606839 0.223378 
0.729739 0.204395 0.648403 0.238438 0.835052 
0.322718 0.684183 0.181095 0.896925 0.888191 
0.66919 0.83379 0.302438 0.393265 0.854786 
0.607919 0.654266 0.769557 0.699965 0.30565 
0.701149 0.540605 0.401155 0.35555 0.303781 
0.814471 0.767775 0.243763 0.738441 0.989627 
0.858768 0.245801 0.286641 0.959345 0.521413 
0.838355 0.378368 0.617941 0.461631 0.200481 
0.967037 0.320694 0.703389 0.0125646 0.135517 
0.175835 0.77353 0.870161 0.47047 0.285635 
0.630755 0.215783 0.962157 0.716019 0.744948 
0.119058 0.557685 0.607556 0.566179 0.971253 
0.365671 0.668281 0.155156 0.589861 0.595361 
0.939776 0.527007 0.0561761 0.518542 0.741424 
0.118953 0.208206 0.361833 0.835758 0.874974 
0.807424 0.204544 0.776279 0.598405 0.257387 
0.164436 0.444556 0.622445 0.104592 0.0816235 
0.439224 0.572376 0.395724 0.225003 0.0968831 
0.440995 0.634318 0.592905 0.0868608 0.125424 
0.937961 0.861177 0.0703179 0.367735 0.537528 
0.167571 0.293189 0.247434 0.669439 0.789339 
0.0530779 0.589566 0.0489113 0.493926 0.330319 
0.727281 0.154557 0.371523 0.691128 0.160218 
0.943548 0.157041 0.178092 0.750634 0.321892 
0.516267 0.642113 0.775187 0.665307 0.66792 
0.859457 0.858044 0.957867 0.696447 0.704605 
0.609875 0.230654 0.197415 0.17801 0.254614 
0.591477 0.556964 0.236741 0.61816 0.355067 
0.345707 0.83199 0.475331 0.119415 0.592985 
0.260828 0.64171 0.439305 0.151844 0.969742 
0.499002 0.0906548 0.788617 0.357316 0.523153 
0.228201 0.964999 0.212216 0.0905368 0.166008 
0.655783 0.391748 0.315385 0.816376 0.841139 
0.21537 0.316979 0.667158 0.198509 0.0169291 
0.993471 0.651767 0.0558864 0.776938 0.214361 
0.310182 0.711079 0.726273 0.600799 0.674423 
0.820227 0.569397 0.048604 0.311731 0.121336 
0.319395 0.3715 0.483533 0.729735 0.35778 
0.947163 0.158328 0.858377 0.978262 0.357241 
0.590341 0.721307 0.601861 0.421316 0.134116 
0.32055 0.0986819 0.996943 0.900869 0.41091 
0.263967 0.671714 0.752538 0.735223 0.340938 
0.423942 0.800349 0.192472 0.702589 0.205472 
0.148856 0.994958 0.652104 0.265073 0.32318 
0.511073 0.64516 0.428672 0.696125 0.540361 
0.750545 0.96219 0.982574 0.104773 0.999071 
0.529376 0.14956 0.377692 0.118277 0.594794 
0.928503 0.174064 0.44114 0.428966 0.643712 
0.648058 0.479523 0.750875 0.701052 0.437263 
0.916425 0.0835835 0.506675 0.956611 0.21279 
0.636807 0.989426 0.329783 0.151567 0.207235 
0.385607 0.17693 0.983957 0.0292791 0.563356 
0.94609 0.961121 0.408072 0.270845 0.22094 
0.113544 0.156214 0.0192583 0.906757 0.50826 
0.801592 0.222181 0.010297 0.694968 0.547154 
0.570777 0.900751 0.289654 0.54347 0.506211 
0.99098 0.272057 0.0637019 0.954362 0.909402 
0.534719 0.621294 0.636268 0.879886 0.592994 
0.792736 0.820637 0.421271 0.410751 0.134283 
0.413191 0.887019 0.0856962 0.151919 0.296306 
0.514223 0.0519646 0.891904 0.00750567 0.455217 
0.966809 0.571201 0.761468 0.648649 0.763633 
0.793342 0.541711 0.563358 0.0145663 0.971032 
0.312185 0.0629244 0.181792 0.37277 0.0226602 
0.667612 0.786508 0.857976 0.220158 0.868236 
0.154832 0.0960489 0.591117 0.530435 0.453819 
0.542919 0.677333 0.791812 0.82536 0.867717 
0.665723 0.351024 0.37491 0.414514 0.132197 
0.324168 0.346726 0.731526 0.0223045 0.256586 
0.566577 0.877099 0.267947 0.97049 0.348771 
0.0432433 0.0480933 0.582353 0.421508 0.578251 
0.275158 0.165107 0.114049 0.930475 0.735285 
0.339494 0.834263 0.661018 0.985615 0.162655 
0.495553 0.443408 0.936915 0.508458 0.536571 
0.039633 0.313043 0.223658 0.947838 0.22416 
0.902258 0.218907 0.554085 0.0527531 0.9534 
0.984124 0.8517 0.774132 0.44759 0.415644 
0.904763 0.524704 0.226672 0.22941 0.239197 
0.226426 0.854246 0.380678 0.372739 0.44804 
0.370095 0.840259 0.514185 0.209585 0.73504 
0.630234 0.111572 0.0894362 0.430876 0.702019 
0.970099 0.653229 0.538531 0.73194 0.372661 
0.330325 0.960322 0.464337 0.467048 0.738138 
0.872599 0.939939 0.357484 0.940434 0.654143 
0.15262 0.605467 0.146961 0.329525 0.716786 
0.123077 0.614427 0.955495 0.9226 0.624379 
0.0673555 0.0727893 0.150624 0.118817 0.272399 
0.301391 0.594905 0.197797 0.578764 0.759132 
0.481039 0.498028 0.457149 0.212115 0.649957 
0.822712 0.524103 0.128339 0.0442958 0.918664 
0.823426 0.312668 0.16279 0.740547 0.206658 
0.60264 0.359864 0.968948 0.987098 0.460789 
0.301244 0.271278 0.414466 0.555414 0.949602 
0.316111 0.303108 0.825422 0.0448754 0.609198 
0.335423 0.277329 0.660312 0.0713072 0.663805 
0.988942 0.827514 0.682747 0.490152 0.128576 
0.252418 0.986702 0.906807 0.56328 0.629689 
0.310351 0.761367 0.52918 0.716282 0.373014 
0.112556 0.873435 0.254079 0.258798 0.311187 
0.755946 0.217371 0.961252 0.412482 0.6075 
0.272654 0.747691 0.234836 0.368758 0.436293 
0.121185 0.711603 0.161858 0.844491 0.451963 
0.28079 0.120837 0.332228 0.587233 0.69895 
0.557262 0.138793 0.0566434 0.996119 0.551149 
0.151515 0.879734 0.583977 0.132362 0.380212 
0.00696417 0.30579 0.183144 0.83969 0.184187 
0.357272 0.609533 0.365009 0.56322 0.186353 
0.44018 0.355317 0.361685 0.635251 0.868764 
0.568269 0.494439 0.593857 0.796298 0.931393 
0.0254242 0.40663 0.717524 0.00562752 0.258099 
0.446246 0.341974 0.629964 0.565787 0.049811 
0.562563 0.73443 0.861086 0.68241 0.501692 
0.0356454 0.365979 0.137147 0.384346 0.793086 
0.653124 0.901164 0.329975 0.0832192 0.301926 
0.334573 0.229519 0.683167 0.149456 0.844661 
0.458242 0.705212 0.654031 0.514625 0.0360866 
0.826999 0.973191 0.467198 0.635851 0.299106 
0.538373 0.624808 0.901702 0.0701578 0.843607 
0.594173 0.623683 0.670805 0.304686 0.895684 
0.266287 0.967042 0.803451 0.929259 0.702748 
0.856956 0.245794 0.618696 0.39437 0.454244 
0.768437 0.824638 0.22106 0.143388 0.103662 
0.9911 0.984398 0.0546627 0.905333 0.230789 
0.996109 0.489805 0.646292 0.415514 0.0206672 
0.624166 0.757234 0.445168 0.681953 0.892989 
0.315269 0.341987 0.736838 0.276884 0.968601 
0.78501 0.828143 0.082979 0.73674 0.432871 
0.952932 0.983159 0.016918 0.928255 0.083117 
0.00125892 0.616851 0.0973377 0.535609 0.465605 
0.595769 0.896911 0.470435 0.530971 0.698716 
0.881454 0.0123239 0.397987 0.718922 0.0680398 
0.691213 0.776737 0.589116 0.617564 0.790086 
0.988444 0.670706 0.569431 0.165508 0.82477 
0.596874 0.224611 0.715509 0.894967 0.972909 
0.300557 0.496797 0.614451 0.294024 0.198397 
0.467549 0.942918 0.201158 0.47982 0.170068 
0.964917 0.504917 0.619598 0.541218 0.558058 
0.783909 0.187231 0.634953 0.39263 0.676631 
0.46815 0.6415 0.344952 0.761313 0.242766 
0.990559 0.153997 0.75957 0.135018 0.55069 
0.101051 0.585369 0.182257 0.353959 0.256534 
0.74986 0.328726 0.44282 0.386215 0.264964 
0.40961 0.382558 0.745873 0.242772 0.979969 
0.962822 0.689549 0.761141 0.889476 0.165956 
0.991688 0.249158 0.619009 0.90789 0.85277 
0.868179 0.224583 0.037508 0.0387063 0.116079 
0.94864 0.251417 0.269781 0.400325 0.721503 
0.809335 0.0734738 0.838812 0.928159 0.51932 
0.432611 0.0250112 0.921499 0.380984 0.175707 
0.237936 0.513977 0.557349 0.972202 0.0347528 
0.275742 0.386373 0.546045 0.831376 0.68762 
0.408088 0.629437 0.816902 0.345389 0.822271 
0.815192 0.00398497 0.822784 0.797282 0.637318 
0.0890676 0.391995 0.0843967 0.925168 0.680107 
0.979072 0.595498 0.816835 0.157925 0.617004 
0.26892 0.345849 0.25223 0.717047 0.299815 
0.321475 0.377276 0.291681 0.423684 0.48211 
0.258821 0.370495 0.566353 0.145387 0.8406 
0.83628 0.87892 0.558215 0.28217 0.69637 
0.500665 0.970835 0.276127 0.247752 0.506459 
0.53005 0.322832 0.517394 0.879146 0.423156 
0.710715 0.798327 0.466263 0.841278 0.287344 
0.481042 0.930846 0.323451 0.621783 0.402855 
0.867879 0.479813 0.640277 0.272445 0.237474 
0.252488 0.80864 0.803869 0.785354 0.634135 
0.743967 0.448516 0.59666 0.986084 0.540806 
0.869844 0.117377 0.707912 0.175775 0.704292 
0.628007 0.969671 0.126236 0.22015 0.770368 
0.180847 0.627955 0.0485136 0.185553 0.518299 
0.656812 0.279272 0.557186 0.801464 0.442509 
0.248053 0.218132 0.455585 0.795693 0.838989 
0.467177 0.70535 0.877062 0.943346 0.0683829 
0.276212 0.209235 0.868459 0.0209041 0.937661 
0.0227413 0.648805 0.143293 0.784073 0.436065 
0.351914 0.346456 0.487227 0.593384 0.73533 
0.627542 0.2731 0.5465 0.374069 0.154139 
0.900135 0.0742679 0.934616 0.0438602 0.0104216 
0.0982706 0.866829 0.274497 0.371081 0.20291 
0.167357 0.411675 0.865813 0.699065 0.925342 
0.299387 0.059169 0.632968 0.184228 0.336986 
0.683239 0.951233 0.284734 0.430806 0.929826 
0.582273 0.214566 0.925041 0.0544514 0.728927 
0.938692 0.228049 0.758719 0.125357 0.644116 
0.131225 0.430679 0.333652 0.125158 0.0659328 
0.0385403 0.764817 0.373892 0.0961697 0.289759 
0.0680119 0.371885 0.359553 0.126073 0.257644 
0.568463 0.0615591 0.315002 0.370575 0.311644 
0.0731309 0.134607 0.0334301 0.237089 0.833709 
0.777948 0.197371 0.672905 0.560782 0.861399 
0.443307 0.753367 0.475875 0.841406 0.8234 
0.739321 0.0478701 0.151488 0.550069 0.956845 
0.143547 0.585545 0.80833 0.733804 0.273211 
0.52181 0.712174 0.0859156 0.844584 0.719969 
0.306301 0.896924 0.844522 0.000151377 0.97153 
0.210483 0.470337 0.587182 0.310596 0.603227 
0.843683 0.812445 0.223832 0.0709707 0.212481 
0.919935 0.0219101 0.495752 0.109294 0.996461 
0.958249 0.00774288 0.331614 0.451443 0.182797 
0.379233 0.0636972 0.893607 0.520865 0.143992 
0.602264 0.286345 0.285945 0.895879 0.219722 
0.456962 0.0747644 0.958653 0.74601 0.72376 
0.0479955 0.694025 0.0154802 0.824458 0.0962064 
0.381173 0.610329 0.413305 0.183759 0.466715 
0.898478 0.949041 0.0385728 0.259517 0.649662 
0.386393 0.844449 0.0292818 0.711142 0.555316 
0.086902 0.942844 0.358792 0.865461 0.0964706 
0.932617 0.372592 0.831364 0.939688 0.840987 
0.0290139 0.319393 0.98333 0.665688 0.701502 
0.707851 0.629152 0.979271 0.174046 0.796829 
0.205088 0.532234 0.449133 0.473367 0.714734 
0.0221419 0.653337 0.527402 0.870827 0.261724 
0.844088 0.257375 0.719328 0.0116997 0.512174 
0.669072 0.56133 0.084507 0.185259 0.405862 
0.110355 0.13283 0.762322 0.373353 0.55674 
0.482704 0.722143 0.94498 0.283407 0.0155353 
0.384891 0.0628209 0.397184 0.875794 0.304588 
0.456488 0.478096 0.0645362 0.27832 0.881503 
0.546778 0.996896 0.722606 0.315267 0.229796 
0.0936358 0.45129 0.0648869 0.857975 0.487698 
0.487003 0.422066 0.555239 0.88817 0.926207 
0.709269 0.667228 0.892876 0.290446 0.476437 
0.689581 0.662618 0.96092 0.163047 0.13854 
0.797193 0.371119 0.757204 0.833963 0.538975 
0.556145 0.993373 0.900008 0.103165 0.322982 
0.830079 0.856352 0.290581 0.00423845 0.16611 
0.833126 0.176683 0.249977 0.336529 0.832039 
0.191531 0.0392916 0.202893 0.918847 0.313298 
0.580179 0.772599 0.989767 0.2024 0.654478 
0.617235 0.369775 0.296923 0.0626963 0.964291 
0.48614 0.441679 0.718526 0.811509 0.45368 
0.453875 0.627818 0.701095 0.943497 0.759094 
0.457601 0.941696 0.495321 0.0304624 0.116595 
0.00880293 0.417961 0.890561 0.345339 0.908506 
0.0239353 0.14618 0.0405507 0.831692 0.929194 
0.74696 0.405727 0.694161 0.0605437 0.218 
0.143395 0.284042 0.89242 0.359923 0.88911 
0.909979 0.0197472 0.908359 0.798159 0.578401 
0.338324 0.118575 0.0982521 0.524015 0.790463 
0.94393 0.34381 0.0977735 0.133725 0.13851 
0.0741294 0.0597571 0.0467003 0.472436 0.339489 
0.777935 0.363421 0.567821 0.320525 0.23813 
0.618254 0.152828 0.284709 0.305807 0.974795 
0.779258 0.340364 0.308472 0.627299 0.237245 
0.038947 0.351269 0.841501 0.138679 0.654082 
0.557272 0.833709 0.665309 0.614495 0.719438 
0.689249 0.641058 0.943009 0.638363 0.563554 
0.367373 0.791303 0.462682 0.692279 0.211013 
0.421705 0.649016 0.000571598 0.374615 0.731373 
0.292803 0.125604 0.779468 0.582924 0.141196 
0.773867 0.155813 0.0232164 0.564355 0.215749 
0.0819182 0.658868 0.675157 0.218561 0.868571 
0.679295 0.701567 0.373183 0.530809 0.0394574 
0.201744 0.573634 0.319086 0.353376 0.783592 
0.348876 0.550825 0.306503 0.400834 0.645878 
0.793434 0.549086 0.12672 0.858733 0.794077 
0.602852 0.353004 0.304173 0.199606 0.812741 
0.466143 0.0836861 0.361809 0.502759 0.58169 
0.905642 0.756552 0.383185 0.0625507 0.238333 
0.405281 0.47517 0.0551603 0.900467 0.163615 
0.204318 0.344292 0.505859 0.879739 0.281057 
0.512852 0.125613 0.413209 0.824448 0.202867 
0.253854 0.0748898 0.60031 0.122233 0.769499 
0.368414 0.394933 0.513955 0.888976 0.292229 
0.802865 0.0153462 0.714525 0.255269 0.536978 
0.134635 0.574063 0.104664 0.267077 0.792076 
0.702175 0.152498 0.54642 0.706055 0.345237 
0.236387 0.615963 0.915879 0.164027 0.681621 
0.191717 0.0354554 0.381164 0.996387 0.2928 
0.350325 0.43375 0.506188 0.888915 0.268988 
0.143943 0.169078 0.471079 0.657007 0.970183 
0.161202 0.716594 0.850504 0.839336 0.98384 
0.0806334 0.949646 0.948114 0.00221864 0.0178504 
0.37203 0.046199 0.536996 0.619753 0.463808 
0.569369 0.080455 0.607267 0.830122 0.920637 
0.764696 0.0845059 0.643172 0.0135076 0.452216 
0.655456 0.0928126 0.814486 0.128144 0.977425 
0.961541 0.105503 0.851558 0.415583 0.300492 
0.466023 0.0414027 0.314898 0.677163 0.873488 
0.136999 0.309219 0.556276 0.672462 0.960389 
0.738107 0.933205 0.45807 0.76595 0.483136 
0.167317 0.633075 0.483508 0.985814 0.223108 
0.677874 0.374946 0.952911 0.414928 0.297493 
0.818546 0.836668 0.285393 0.107215 0.4164 
0.456245 0.689583 0.172532 0.982067 0.694911 
0.576617 0.212532 0.889587 0.0876953 0.26677 
0.631401 0.996243 0.529676 0.407669 0.47089 
0.543574 0.741532 0.218821 0.898127 0.0525818 
0.111395 0.333414 0.803631 0.400953 0.110559 
0.590071 0.363113 0.325537 0.472228 0.20564 
0.274082 0.405716 0.53892 0.146793 0.748055 
0.75614 0.314538 0.990375 0.586244 0.950379 
0.479053 0.738307 0.0714705 0.683167 0.157697 
0.518166 0.238408 0.701387 0.0593004 0.0600792 
0.0416033 0.953531 0.599872 0.507718 0.347459 
0.817856 0.967421 0.0268753 0.023843 0.602339 
0.61747 0.126921 0.832889 0.389303 0.673507 
0.0908593 0.630653 0.3421 0.54564 0.918862 
0.409973 0.129487 0.00240854 0.0300804 0.396823 
0.682702 0.239545 0.911448 0.924539 0.617115 
0.766289 0.668961 0.576017 0.0794551 0.592045 
0.709545 0.895785 0.918606 0.95583 0.500048 
0.585603 0.514681 0.947258 0.745542 0.738687 
0.0348275 0.383898 0.192069 0.658723 0.282963 
0.426089 0.873874 0.0150464 0.468109 0.29144 
0.175022 0.969985 0.952392 0.447505 0.6595 
0.785676 0.936916 0.42837 0.911116 0.577237 
0.872225 0.241961 0.295837 0.305296 0.761293 
0.795931 0.0263781 0.751323 0.815515 0.835533 
0.649718 0.600413 0.961828 0.825918 0.308947 
0.722816 0.932059 0.13762 0.149676 0.0165078 
0.1838 0.576725 0.473445 0.156699 0.897362 
0.34897 0.190239 0.94911 0.630157 0.957351 
0.9678 0.993329 0.901234 0.855458 0.0898759 
0.590161 0.705239 0.439699 0.0598748 0.735849 
0.180752 0.206001 0.697682 0.244953 0.785109 
0.100758 0.340917 0.754467 0.496034 0.417893 
0.872209 0.948208 0.700897 0.0533449 0.891831 
0.809295 0.28829 0.0149275 0.177655 0.783882 
0.322729 0.868174 0.650191 0.871487 0.601755 
0.230941 0.501723 0.684977 0.975967 0.416313 
0.873021 0.794835 0.949107 0.553945 0.19435 
0.884649 0.590972 0.262104 0.397973 0.759436 
0.0450592 0.165969 0.895878 0.878193 0.132278 
0.380156 0.144745 0.351836 0.115408 0.669997 
0.425403 0.591799 0.992292 0.756429 0.555566 
0.200851 0.549107 0.102247 0.171463 0.544855 
0.52888 0.996412 0.688829 0.537666 0.196247 
0.010539 0.370546 0.578495 0.583766 0.0138832 
0.145245 0.984858 0.310219 0.401791 0.960348 
0.31524 0.820265 0.189733 0.115084 0.105418 
0.402744 0.970659 0.717286 0.216359 0.325457 
0.277854 0.17523 0.656064 0.664408 0.505626 
0.718686 0.906068 0.912523 0.213026 0.262057 
0.580497 0.681117 0.571364 0.795471 0.451528 
0.975568 0.685582 0.0978707 0.602293 0.582317 
0.0721516 0.155095 0.743208 0.0456857 0.58834 
0.450277 0.693964 0.72039 0.0676008 0.947888 
0.446051 0.487957 0.765112 0.825668 0.912825 
0.576008 0.131254 0.612445 0.270086 0.45792 
0.0733017 0.229924 0.993829 0.17444 0.0133913 
0.264846 0.51313 0.11027 0.48772 0.858824 
0.139875 0.21865 0.694778 0.20878 0.768631 
0.121846 0.673619 0.7886 0.748032 0.369426 
0.565886 0.906479 0.366562 0.728552 0.657829 
0.0174852 0.731961 0.223734 0.669772 0.988244 
0.176561 0.732473 0.525872 0.691939 0.804501 
0.46098 0.797515 0.604622 0.649986 0.519872 
0.784577 0.179127 0.536283 0.826807 0.119783 
0.448778 0.442489 0.106428 0.583163 0.729638 
0.572213 0.836175 0.106924 0.179508 0.372243 
0.830865 0.53313 0.743694 0.0654153 0.559759 
0.925527 0.437214 0.448638 0.819477 0.165816 
0.061289 0.797445 0.235783 0.543256 0.0115039 
0.140349 0.221495 0.625127 0.359904 0.672783 
0.383232 0.62288 0.198731 0.259114 0.284972 
0.439206 0.233741 0.237794 0.76595 0.947121 
0.78117 0.963764 0.443359 0.826463 0.750513 
0.144645 0.0921109 0.322127 0.61719 0.892159 
0.116644 0.78367 0.786948 0.658405 0.768148 
0.569645 0.910271 0.426519 0.750071 0.00181763 
0.65776 0.188153 0.353495 0.705078 0.285545 
0.711234 0.482782 0.343565 0.410828 0.992141 
0.507247 0.99251 0.0881634 0.142192 0.339229 
0.298171 0.831132 0.122889 0.0347723 0.618679 
0.814571 0.456281 0.420327 0.199515 0.88692 
0.807081 0.925088 0.0692671 0.079697 0.381859 
0.387001 0.0776774 0.670801 0.707045 0.348162 
0.269189 0.137001 0.184392 0.623334 0.842547 
0.614941 0.567921 0.846489 0.296263 0.00697405 
0.707217 0.748623 0.619611 0.612425 0.451299 
0.675388 0.239869 0.103012 0.381362 0.0735507 
0.0724379 0.00525318 0.585882 0.822577 0.28613 
0.0440719 0.229004 0.505451 0.397672 0.665287 
0.916522 0.91979 0.728655 0.187718 0.0650017 
0.508545 0.942145 0.536568 0.195147 0.875683 
0.153189 0.0297716 0.281112 0.255684 0.0529306 
0.205585 0.506315 0.0011303 0.487397 0.887157 
0.374799 0.763092 0.210727 0.324041 0.189148 
0.572798 0.96779 0.360743 0.879034 0.0861571 
0.139393 0.146873 0.542831 0.790631 0.980013 
0.281321 0.643775 0.1287 0.876625 0.149412 
0.409022 0.239882 0.78412 0.804309 0.550521 
0.523249 0.972572 0.0339798 0.0945392 0.818863 
0.267352 0.73087 0.0613215 0.26574 0.779241 
0.220199 0.457084 0.0985212 0.711661 0.996464 
0.690143 0.433862 0.824098 0.267072 0.90251 
0.40669 0.245044 0.637322 0.500397 0.211946 
0.918993 0.71936 0.826764 0.550585 0.56677 
0.266028 0.403465 0.462842 0.0836367 0.73221 
0.796024 0.214113 0.0701035 0.716888 0.0335166 
0.0309799 0.0677475 0.772479 0.278936 0.230554 
0.567741 0.00579976 0.457811 0.379887 0.666712 
0.884736 0.995968 0.506961 0.560842 0.498394 
0.0738531 0.39022 0.12198 0.638639 0.133254 
0.622568 0.55266 0.241995 0.853668 0.00904932 
0.390645 0.814367 0.141762 0.912933 0.122374 
0.873952 0.791065 0.639911 0.705021 0.124207 
0.199808 0.585186 0.499569 0.809163 0.83859 
0.616146 0.160688 0.386121 0.80596 0.52588 
0.921355 0.241023 0.634986 0.325155 0.119922 
0.756111 0.74709 0.450644 0.599192 0.764132 
0.904731 0.401951 0.501916 0.687304 0.74298 
0.256153 0.956404 0.72792 0.239514 0.758137 
0.58779 0.665079 0.90889 0.90629 0.427256 
0.0124415 0.386726 0.353767 0.329748 0.820148 
0.168473 0.416459 0.0132865 0.19315 0.0274772 
0.836072 0.737377 0.271749 0.30219 0.197125 
0.88013 0.658584 0.885886 0.988524 0.659495 
0.355006 0.478795 0.493783 0.6926 0.191847 
0.329628 0.555666 0.368965 0.148716 0.863774 
0.67046 0.247696 0.536366 0.0432254 0.051631 
0.82811 0.105043 0.712187 0.875047 0.786986 
0.595212 0.00886918 0.137381 0.947177 0.0860653 
0.697797 0.830236 0.974871 0.616608 0.50514 
0.139835 0.115243 0.483451 0.390903 0.7574 
0.0171784 0.53651 0.793222 0.682925 0.406792 
0.285413 0.858884 0.728669 0.952417 0.0308223 
0.146009 0.61315 0.188294 0.786312 0.312212 
0.586569 0.789533 0.13134 0.962467 0.390352 
0.726943 0.675063 0.311055 0.217071 0.26308 
0.756237 0.780038 0.726375 0.55528 0.010414 
0.384228 0.781387 0.397706 0.544265 0.739466 
0.283724 0.905089 0.217576 0.582274 0.346951 
0.826692 0.533812 0.929115 0.740204 0.0991751 
0.186953 0.194853 0.265823 0.995865 0.582004 
0.156597 0.897059 0.352272 0.584052 0.912785 
0.989914 0.91485 0.898787 0.768876 0.573517 
0.708205 0.372464 0.529166 0.459364 0.299289 
0.818993 0.113518 0.918537 0.117733 0.755749 
0.204524 0.0510297 0.0595772 0.455263 0.897822 
0.806222 0.642947 0.933023 0.529917 0.966458 
0.264088 0.723908 0.501559 0.611688 0.115648 
0.704562 0.862213 0.992851 0.270056 0.71741 
0.74417 0.992795 0.270294 0.317267 0.286129 
0.940287 0.160888 0.173068 0.319023 0.177334 
0.96137 0.653308 0.893841 0.746781 0.834387 
0.0244064 0.800718 0.264289 0.833641 0.314047 
0.540531 0.423906 0.816301 0.745987 0.0159718 
0.0615751 0.40056 0.952935 0.442364 0.773209 
0.856229 0.507913 0.379739 0.948467 0.243898 
0.0155479 0.944534 0.593833 0.368281 0.574697 
0.975723 0.207213 0.881635 0.270272 0.791548 
0.439908 0.00101044 0.0561166 0.953149 0.0799639 
0.314064 0.375151 0.549597 0.888807 0.0087576 
0.268533 0.980484 0.181228 0.290899 0.0191924 
0.661088 0.80842 0.471926 0.667264 0.733024 
0.59262 0.797688 0.440751 0.58499 0.794757 
0.0691584 0.652762 0.171834 0.517582 0.201624 
0.313689 0.427962 0.826883 0.25151 0.268373 
0.647656 0.391863 0.414538 0.36348 0.319415 
0.904493 0.947487 0.0237574 0.624394 0.35698 
0.300087 0.166774 0.317816 0.628237 0.140062 
0.553515 0.657731 0.115852 0.141087 0.968919 
0.50291 0.609963 0.324454 0.284969 0.387137 
0.678814 0.623055 0.318473 0.684493 0.503303 
0.164378 0.535577 0.760626 0.440821 0.964491 
0.639615 0.21855 0.354154 0.8951 0.957576 
0.80291 0.951101 0.575272 0.0321746 0.903083 
0.447616 0.728839 0.994836 0.689444 0.709922 
0.846929 0.826575 0.276368 0.345225 0.0384937 
0.222611 0.374917 0.40011 0.393968 0.960253 
0.309701 0.163278 0.505254 0.6182 0.663477 
0.0494489 0.158948 0.0538744 0.856235 0.600979 
0.163275 0.55001 0.318657 0.746459 0.115654 
0.634225 0.698182 0.320422 0.315479 0.170581 
0.196534 0.118994 0.070093 0.652382 0.125264 
0.711466 0.0076494 0.742392 0.84827 0.146047 
0.100477 0.0995372 0.824656 0.841093 0.871928 
0.971149 0.588152 0.165122 0.14048 0.563272 
0.772446 0.383905 0.403146 0.936174 0.896317 
0.371852 0.0792834 0.754938 0.92302 0.21121 
0.694352 0.454757 0.575644 0.772095 0.712958 
0.13992 0.686564 0.445896 0.559767 0.896214 
0.0942998 0.583511 0.85229 0.443643 0.670956 
0.873113 0.876176 0.277709 0.0447028 0.596375 
0.598868 0.947154 0.276714 0.655971 0.959253 
0.320727 0.774449 0.262937 0.609321 0.625155 
0.673082 0.0491321 0.9205 0.827632 0.827375 
0.397917 0.314592 0.491202 0.917308 0.57361 
0.641722 0.047837 0.451108 0.00748163 0.771222 
0.321776 0.308331 0.351056 0.789739 0.373356 
0.344577 0.979042 0.3905 0.823029 0.25248 
0.720523 0.742504 0.0580968 0.900687 0.764579 
0.787875 0.875077 0.542177 0.76271 0.146002 
0.128958 0.0096344 0.236643 0.618785 0.772195 
0.95559 0.377821 0.20542 0.0508097 0.942598 
0.384275 0.568496 0.432086 0.679038 0.415816 
0.459872 0.687699 0.256167 0.988551 0.0585439 
0.511371 0.601701 0.709008 0.76582 0.00665363 
0.266583 0.524107 0.529388 0.237498 0.520122 
0.25396 0.678194 0.108066 0.0522619 0.053041 
0.731493 0.957246 0.232553 0.984366 0.851398 
0.228234 0.789323 0.274331 0.201952 0.637272 
0.554558 0.715596 0.722554 0.760789 0.535178 
0.557925 0.460742 0.888055 0.908017 0.613321 
0.158714 0.74958 0.809329 0.97208 0.792043 
0.989529 0.431314 0.558377 0.224411 0.190459 
0.910191 0.934404 0.264474 0.743039 0.397002 
0.738206 0.218344 0.555783 0.998116 0.0183524 
0.628469 0.15336 0.857768 0.392151 0.675606 
0.603425 0.312772 0.520178 0.735479 0.991841 
0.299338 0.0338763 0.0510408 0.539716 0.154641 
0.136019 0.586451 0.000623125 0.0281919 0.846822 
0.447882 0.717391 0.785816 0.133065 0.89708 
0.579018 0.979607 0.0682971 0.266589 0.538599 
0.312662 0.946224 0.663815 0.566828 0.530664 
0.741844 0.544924 0.111914 0.226649 0.263825 
0.136158 0.169363 0.642422 0.00118405 0.326403 
0.511926 0.293709 0.0407253 0.57639 0.524939 
0.642183 0.585406 0.908029 0.433364 0.292516 
0.319896 0.4278 0.913549 0.452532 0.284119 
0.542146 0.815241 0.0793697 0.263254 0.559846 
0.766106 0.494934 0.348431 0.0103739 0.244568 
0.369519 0.379068 0.0411739 0.569239 0.121089 
0.0150978 0.11913 0.00874038 0.70328 0.514954 
0.222393 0.198222 0.94918 0.164988 0.672731 
0.56651 0.419355 0.920558 0.531899 0.0261216 
0.938062 0.879524 0.737607 0.375269 0.309713 
0.502337 0.903788 0.477482 0.148607 0.187146 
0.503032 0.494321 0.850812 0.524884 0.27619 
0.766883 0.0846491 0.484439 0.35212 0.792195 
0.795126 0.499336 0.72778 0.726611 0.307941 
0.518949 0.591377 0.143911 0.298611 0.404503 
0.0747489 0.257927 0.677407 0.397255 0.738814 
0.836889 0.524316 0.911493 0.908138 0.563682 
0.158246 0.826766 0.800386 0.0413978 0.421097 
0.00859891 0.924895 0.974151 0.154754 0.871084 
0.985304 0.477169 0.213944 0.187437 0.689414 
0.389808 0.542817 0.975301 0.236121 0.353843 
0.725093 0.961464 0.116478 0.327675 0.314849 
0.484886 0.620752 0.813491 0.442303 0.391126 
0.902702 0.508867 0.23514 0.70941 0.782398 
0.521247 0.924393 0.562334 0.124464 0.537496 
0.00757913 0.613389 0.369308 0.195069 0.406607 
0.0274404 0.408505 0.997111 0.208812 0.705072 
0.218788 0.946305 0.396122 0.964934 0.0643915 
0.900059 0.129258 0.517034 0.960951 0.521483 
0.706931 0.0469824 0.595309 0.795078 0.453386 
0.855394 0.437729 0.426106 0.110155 0.649081 
0.830011 0.418371 0.640679 0.874541 0.00389922 
0.347535 0.547188 0.308853 0.964719 0.119976 
0.884192 0.159524 0.542263 0.761385 0.497828 
0.959268 0.241104 0.336303 0.0388355 0.79218 
0.145837 0.744374 0.522836 0.468721 0.764872 
0.781281 0.864145 0.0182607 0.613238 0.225947 
0.928778 0.110334 0.243503 0.960474 0.752161 
0.87565 0.653648 0.936522 0.333486 0.808729 
0.173137 0.16381 0.390507 0.0875373 0.0894962 
0.641802 0.151585 0.925647 0.377882 0.253435 
0.83922 0.550895 0.0232806 0.876654 0.576881 
0.2612 0.36889 0.325107 0.471165 0.448842 
0.155321 0.839771 0.498178 0.0226383 0.995677 
0.0301923 0.637529 0.612315 0.893168 0.667668 
0.965788 0.18591 0.190115 0.956452 0.967633 
0.991178 0.181246 0.789264 0.672398 0.309227 
0.772293 0.0886876 0.20097 0.83633 0.978569 
0.834339 0.152981 0.821126 0.825812 0.581496 
0.161233 0.4654 0.0664738 0.936586 0.81212 
0.18729 0.548663 0.958711 0.807775 0.251208 
0.775122 0.907003 0.3239 0.392968 0.665912 
0.119375 0.982182 0.508283 0.686178 0.824669 
0.268291 0.216535 0.31306 0.459156 0.0127695 
0.561754 0.301317 0.562503 0.280916 0.506811 
0.655348 0.399527 0.582387 0.836298 0.450296 
0.564847 0.994001 0.880691 0.15876 0.834194 
0.982953 0.164635 0.51752 0.756146 0.406 
0.853936 0.0440723 0.42015 0.396966 0.338855 
0.0386884 0.968021 0.274854 0.527402 0.489115 
0.342035 0.545048 0.676647 0.182031 0.727031 
0.800747 0.792587 0.933615 0.0161737 0.47694 
0.322115 0.840135 0.0855616 0.490157 0.581849 
0.223753 0.442812 0.310068 0.335415 0.169206 
0.394667 0.979951 0.348728 0.580436 0.549939 
0.308352 0.390456 0.583639 0.71128 0.77942 
0.88765 0.609201 0.994056 0.802423 0.678454 
0.227807 0.0814166 0.708947 0.440817 0.652692 
0.856628 0.567836 0.245072 0.95384 0.579499 
0.442704 0.397485 0.432491 0.925798 0.072939 
0.52362 0.19253 0.932969 0.298154 0.875251 
0.0286761 0.330423 0.608726 0.294524 0.946131 
0.933793 0.303034 0.709705 0.982059 0.577981 
0.771027 0.689117 0.418565 0.146388 0.51487 
0.0715295 0.696054 0.250501 0.872918 0.481758 
0.502938 0.0536584 0.210296 0.850528 0.214081 
0.532694 0.250143 0.1405 0.749114 0.96046 
0.523625 0.0753716 0.840247 0.257417 0.65323 
0.638562 0.732189 0.178634 0.303096 0.628713 
0.1703 0.84282 0.615759 0.0514375 0.670491 
0.897605 0.627178 0.62724 0.624485 0.722912 
0.653319 0.510443 0.271102 0.976771 0.37759 
0.838018 0.487045 0.362786 0.308678 0.989693 
0.490244 0.640362 0.820126 0.0135484 0.2865 
0.511121 0.454995 0.797148 0.89523 0.564277 
0.234375 0.959921 0.273498 0.462933 0.179812 
0.398653 0.865307 0.313117 0.0291247 0.120305 
0.0964424 0.145432 0.696922 0.371956 0.318582 
0.609225 0.681624 0.894358 0.225407 0.0444245 
0.226175 0.581791 0.722585 0.486065 0.783218 
0.582707 0.963905 0.345641 0.422151 0.659301 
0.173989 0.535228 0.946947 0.249619 0.0811559 
0.0672888 0.898128 0.304146 0.826501 0.975619 
0.394337 0.797902 0.376657 0.22525 0.288162 
0.255778 0.871591 0.639527 0.954101 0.731336 
0.567117 0.0841523 0.110603 0.879651 0.885366 
0.744913 0.207664 0.882813 0.902019 0.76286 
0.77586 0.500136 0.335917 0.303119 0.226929 
0.390149 0.344294 0.206594 0.997801 0.643817 
0.232224 0.0150493 0.418558 0.183609 0.252919 
0.64609 0.343931 0.821069 0.131667 0.550476 
0.530291 0.67859 0.107506 0.312966 0.0408587 
0.0166355 0.51574 0.153468 0.199848 0.232936 
0.517182 0.871714 0.531054 0.907497 0.736729 
0.76506 0.32776 0.149682 0.22762 0.410722 
0.523409 0.712974 0.291283 0.876261 0.29678 
0.208594 0.759133 0.908149 0.436089 0.899979 
0.318001 0.31799 0.665584 0.208666 0.762507 
0.954586 0.708096 0.298573 0.573961 0.71234 
0.505146 0.545435 0.738805 0.446424 0.0883856 
0.222496 0.558739 0.393069 0.091308 0.904062 
0.435378 0.613799 0.194284 0.340693 0.789745 
0.545426 0.48911 0.946887 0.795185 0.838 
0.0907657 0.93648 0.656594 0.302091 0.0202981 
0.761844 0.997063 0.907495 0.455029 0.44378 
0.883659 0.297964 0.424739 0.417104 0.985415 
0.462005 0.492935 0.289977 0.831053 0.274054 
0.171561 0.688492 0.846632 0.964453 0.222524 
0.648775 0.825579 0.878241 0.232463 0.504769 
0.45778 0.952345 0.256581 0.33028 0.14353 
0.477375 0.0285715 0.527608 0.678651 0.706703 
0.735638 0.647185 0.747443 0.767207 0.864572 
0.195894 0.407546 0.497525 0.671981 0.864952 
0.34187 0.515358 0.676965 0.169165 0.159835 
0.203065 0.0590866 0.425252 0.569948 0.496192 
0.0105462 0.695245 0.0236715 0.447515 0.614918 
0.285876 0.552882 0.0715922 0.933584 0.784741 
0.130559 0.326968 0.357315 0.400199 0.512289 
0.536742 0.327252 0.208401 0.106366 0.165942 
0.346315 0.759026 0.957619 0.101622 0.588269 
0.365973 0.305827 0.675923 0.927907 0.575409 
0.610811 0.24391 0.907597 0.673104 0.947589 
0.339571 0.837541 0.634252 0.646412 0.447155 
0.391917 0.478003 0.290851 0.268553 0.535429 
0.859533 0.715748 0.981995 0.32859 0.947157 
0.0389966 0.276421 0.39061 0.61417 0.590213 
0.140277 0.961248 0.185289 0.154282 0.896698 
0.173112 0.255898 0.258587 0.516611 0.876279 
0.464456 0.242975 0.106159 0.751845 0.993064 
0.69792 0.93036 0.858158 0.379862 0.837782 
0.957147 0.983046 0.72916 0.332623 0.304162 
0.267148 0.82125 0.143639 0.321137 0.743071 
0.641779 0.151427 0.300261 0.259284 0.171171 
0.201977 0.228705 0.917937 0.595958 0.35897 
0.518683 0.601327 0.467535 0.178017 0.790562 
0.0414444 0.557433 0.432602 0.781544 0.214104 
0.680809 0.394359 0.424647 0.357593 0.156977 
0.587704 0.684115 0.00867224 0.712262 0.0273622 
0.905172 0.770088 0.533544 0.183788 0.687586 
0.337551 0.736689 0.152272 0.453143 0.588325 
