4100 5
0.587328 0.798857 0.897323 0.165209 0.372028 
0.576324 0.381889 0.186683 0.596793 0.258181 
0.763894 0.687482 0.69084 0.707724 0.672099 
0.593273 0.830346 0.373858 0.918857 0.446611 
0.655946 0.948488 0.792356 0.727302 0.00888784 
0.232908 0.108214 0.216342 0.915522 0.516127 
0.0178755 0.621554 0.399626 0.117944 0.489719 
0.0399437 0.236901 0.292805 0.845151 0.195222 
0.803874 0.855492 0.0900885 0.167613 0.408965 
0.201125 0.139301 0.42038 0.431794 0.734074 
0.476167 0.703592 0.507605 0.182164 0.535071 
0.122848 0.133401 0.320246 0.0561202 0.480019 
0.581562 0.221637 0.733573 0.00704833 0.367044 
0.210479 0.00939176 0.111316 0.807046 0.151739 
0.891472 0.860698 0.604056 0.230368 0.713687 
0.0632796 0.8521 0.0235181 0.0724101 0.485434 
0.937983 0.100985 0.885377 0.760148 0.0592157 
0.790579 0.783555 0.24395 0.775887 0.034825 
0.953484 0.558974 0.0868475 0.759831 0.419381 
0.797935 0.188059 0.661981 0.545498 0.419591 
0.119363 0.30924 0.680259 0.221186 0.265083 
0.0419376 0.140806 0.412561 0.776101 0.905706 
0.867529 0.704428 0.469109 0.449813 0.136089 
0.353679 0.61836 0.341753 0.200171 0.384186 
0.848219 0.878022 0.501716 0.797371 0.693041 
0.166879 0.126366 0.990946 0.733278 0.114227 
0.0339174 0.422059 0.897014 0.784269 0.189307 
0.132219 0.137804 0.14435 0.0683285 0.966735 
0.480805 0.711043 0.0183944 0.302303 0.782533 
0.632973 0.968412 0.887851 0.871035 0.548825 
0.638574 0.954964 0.16052 0.758082 0.174764 
0.386616 0.828318 0.839024 0.952544 0.726406 
0.156291 0.107424 0.740232 0.385621 0.000784885 
0.596334 0.8826 0.577323 0.13018 0.216943 
0.952004 0.765752 0.78933 0.851829 0.30891 
0.680923 0.218046 0.649756 0.103084 0.269673 
0.440968 0.132477 0.425756 0.967888 0.622413 
0.331876 0.685849 0.853733 0.832627 0.815623 
0.309355 0.645756 0.755871 0.570149 0.575372 
0.737625 0.764742 0.631296 0.53565 0.230736 
0.557564 0.116921 0.446353 0.3736 0.516072 
0.857032 0.684552 0.573351 0.719966 0.515779 
0.387014 0.314001 0.25379 0.620319 0.385 
0.491878 0.838453 0.432206 0.219234 0.445658 
0.928996 0.94733 0.470131 0.877928 0.789207 
0.0680971 0.885076 0.136713 0.327493 0.589984 
0.345168 0.122804 0.767665 0.973987 0.846787 
0.601469 0.179622 0.901674 0.941028 0.62804 
0.088591 0.0483324 0.615696 0.684895 0.641806 
0.99427 0.460523 0.910806 0.869089 0.686965 
0.608994 0.672597 0.644541 0.904144 0.597089 
0.0519868 0.0955895 0.443232 0.204762 0.182525 
0.388131 0.565592 0.349925 0.885919 0.0289081 
0.136787 0.182181 0.182754 0.501571 0.513964 
0.0551813 0.353909 0.666976 0.423622 0.82777 
0.0378863 0.0702307 0.984095 0.905564 0.675203 
0.0483391 0.56794 0.723388 0.372322 0.12531 
0.988895 0.265024 0.976533 0.0183546 0.924045 
0.0227641 0.48243 0.977984 0.696897 0.888172 
0.53079 0.269138 0.354671 0.731684 0.989997 
0.596379 0.559508 0.909735 0.914492 0.895969 
0.754436 0.390673 0.0961317 0.589733 0.287994 
0.844433 0.823696 0.663486 0.939171 0.917823 
0.529746 0.486315 0.421331 0.297542 0.196405 
0.778472 0.914369 0.513679 0.918569 0.49821 
0.963779 0.636008 0.986156 0.258831 0.531138 
0.184244 0.894948 0.132739 0.100161 0.55001 
0.709606 0.486461 0.243695 0.946823 0.424742 
0.382993 0.43501 0.913053 0.469751 0.243621 
0.613407 0.791115 0.984554 0.339972 0.336652 
0.637283 0.309957 0.73694 0.0532694 0.930918 
0.349627 0.160101 0.304334 0.206958 0.413639 
0.293036 0.194178 0.362321 0.145975 0.720837 
0.372554 0.755411 0.126304 0.382818 0.515062 
0.736602 0.768608 0.018727 0.802088 0.409568 
0.137241 0.888711 0.89489 0.705566 0.949675 
0.139089 0.000549239 0.115256 0.0585563 0.7866 
0.948968 0.790731 0.640214 0.306544 0.218768 
0.703185 0.845903 0.097525 0.235676 0.882934 
0.336131 0.244724 0.776663 0.801573 0.829758 
0.168501 0.399871 0.969715 0.880776 0.45116 
0.282214 0.465433 0.840859 0.775333 0.119645 
0.178043 0.210625 0.805284 0.185126 0.901171 
0.691792 0.497062 0.166441 0.45202 0.989664 
0.868899 0.745153 0.289995 0.824045 0.725079 
0.654314 0.075735 0.0985449 0.0106155 0.672892 
0.878663 0.0779024 0.881485 0.340269 0.813325 
0.811646 0.238053 0.36983 0.610039 0.799363 
0.893861 0.418278 0.540981 0.818716 0.690213 
0.942068 0.696827 0.103478 0.510896 0.106035 
0.619474 0.293995 0.107846 0.0670087 0.664726 
0.971014 0.687192 0.45478 0.889652 0.746951 
0.984416 0.775021 0.362568 0.863699 0.0416043 
0.456123 0.354042 0.0255237 0.14253 0.461029 
0.230813 0.943576 0.802369 0.509467 0.12206 
0.942581 0.361429 0.135301 0.836036 0.77762 
0.0779483 0.794273 0.624517 0.826444 0.754828 
0.00787235 0.764274 0.775273 0.918408 0.409286 
0.301265 0.799389 0.505362 0.172706 0.253628 
0.786678 0.102949 0.881981 0.843166 0.133662 
0.81532 0.534558 0.98433 0.867251 0.690047 
0.550028 0.97385 0.723225 0.111496 0.745728 
0.337205 0.543608 0.0893805 0.135401 0.487366 
0.0418445 0.465864 0.425619 0.151627 0.120257 
0.101212 0.242917 0.82454 0.604999 0.208014 
0.225878 0.487283 0.915417 0.607185 0.509301 
0.750298 0.982976 0.150442 0.386044 0.478247 
0.594646 0.924792 0.231657 0.408567 0.670767 
0.347524 0.353624 0.380717 0.322509 0.259858 
0.347543 0.879051 0.819398 0.154631 0.226735 
0.0349197 0.117832 0.945881 0.0542021 0.604067 
0.917915 0.961863 0.339212 0.029317 0.620646 
0.184949 0.902549 0.354775 0.28853 0.725169 
0.443273 0.453972 0.722388 0.199736 0.371933 
0.0014902 0.0646729 0.0988566 0.308299 0.473936 
0.383203 0.61764 0.352472 0.899529 0.876144 
0.724087 0.26154 0.950787 0.609012 0.786134 
0.814466 0.785898 0.225825 0.2301 0.281203 
0.589891 0.92848 0.762166 0.211746 0.599143 
0.707394 0.229904 0.86069 0.583345 0.112658 
0.224212 0.159339 0.375404 0.831883 0.812364 
0.505079 0.959766 0.647745 0.00439689 0.711303 
0.805484 0.210377 0.0362688 0.983684 0.0534277 
0.70511 0.167689 0.389696 0.597003 0.200789 
0.0598646 0.772681 0.479933 0.465128 0.962384 
0.16379 0.577467 0.293128 0.920543 0.244144 
0.146006 0.1007 0.570893 0.686993 0.692718 
0.1291 0.263883 0.536701 0.713905 0.728573 
0.108454 0.829125 0.804521 0.502354 0.815843 
0.917162 0.884647 0.0432365 0.924159 0.76079 
0.563535 0.143909 0.696379 0.82724 0.79289 
0.519103 0.811682 0.878641 0.895266 0.292721 
0.683724 0.850211 0.954781 0.231826 0.00322001 
0.377303 0.980903 0.477838 0.587334 0.928846 
0.153893 0.799077 0.672892 0.0533801 0.0283041 
0.770253 0.175152 0.698747 0.383227 0.569322 
0.702309 0.0464577 0.327437 0.150218 0.236827 
0.677333 0.759945 0.463362 0.373745 0.122986 
0.558566 0.209921 0.669072 0.182543 0.726989 
0.264439 0.458454 0.466077 0.684902 0.998743 
0.896209 0.381559 0.0596428 0.617119 0.503658 
0.540679 0.590127 0.186665 0.249417 0.0183318 
0.328649 0.271762 0.294719 0.632169 0.901263 
0.0113907 0.812138 0.0987368 0.850641 0.840925 
0.511091 0.210663 0.643301 0.191474 0.745426 
0.763728 0.649027 0.123236 0.124438 0.0484705 
0.791894 0.850412 0.574869 0.249157 0.607743 
0.0462943 0.910604 0.594065 0.527306 0.690162 
0.327704 0.0934879 0.488408 0.535443 0.0376215 
0.817661 0.30136 0.507064 0.00941681 0.314565 
0.812989 0.555248 0.99933 0.944929 0.7921 
0.0872442 0.914443 0.970963 0.0231847 0.296525 
0.62049 0.874045 0.0633194 0.627913 0.760844 
0.552563 0.118955 0.571884 0.909932 0.711596 
0.111029 0.83858 0.198748 0.989954 0.0667617 
0.485303 0.122256 0.159828 0.383406 0.742134 
0.477625 0.151605 0.685679 0.0151631 0.0706224 
0.526769 0.212499 0.826903 0.729304 0.324108 
0.482408 0.58694 0.662434 0.711075 0.436036 
0.671847 0.715018 0.458588 0.45728 0.975073 
0.344536 0.784489 0.0943385 0.737381 0.916234 
0.516476 0.446158 0.134013 0.195147 0.57948 
0.575465 0.462344 0.358731 0.628473 0.815065 
0.77031 0.415554 0.479954 0.332821 0.0711922 
0.909603 0.184252 0.836617 0.188047 0.412933 
0.548588 0.373047 0.0892315 0.980653 0.111661 
0.818166 0.95256 0.56446 0.302239 0.117349 
0.824803 0.0310634 0.489854 0.798265 0.992412 
0.625964 0.650969 0.51559 0.662387 0.0586798 
0.742256 0.783847 0.223035 0.370886 0.709901 
0.155001 0.849792 0.339622 0.707376 0.89837 
0.169605 0.202213 0.305438 0.273435 0.718681 
0.979727 0.498303 0.265884 0.159633 0.896454 
0.258485 0.344987 0.722585 0.448591 0.252412 
0.53202 0.493783 0.370863 0.458447 0.53818 
0.199042 0.167042 0.92961 0.626758 0.108206 
0.017878 0.432707 0.044455 0.463388 0.973503 
0.00778569 0.0294716 0.155603 0.989508 0.432346 
0.442742 0.696649 0.749708 0.142719 0.0216624 
0.14763 0.437455 0.784107 0.924652 0.48976 
0.882886 0.918775 0.366745 0.220072 0.807483 
0.441586 0.540139 0.626853 0.943952 0.677897 
0.420771 0.772372 0.493016 0.997036 0.961593 
0.736808 0.577059 0.452038 0.768413 0.0735544 
0.374834 0.431389 0.320416 0.709919 0.284804 
0.0107351 0.782711 0.280251 0.823902 0.249875 
0.874909 0.701829 0.960859 0.250267 0.676338 
0.436665 0.759948 0.66429 0.936605 0.262531 
0.309439 0.605195 0.49084 0.842746 0.653963 
0.141585 0.0388102 0.73287 0.783414 0.948004 
0.28719 0.386433 0.393073 0.308711 0.198744 
0.282348 0.59915 0.0675721 0.640616 0.622753 
0.418881 0.482914 0.893478 0.443837 0.636618 
0.993128 0.900297 0.0415626 0.872344 0.643806 
0.979186 0.997642 0.300497 0.135896 0.453228 
0.267521 0.466821 0.5587 0.581402 0.864357 
0.182476 0.189604 0.17285 0.508964 0.118745 
0.927193 0.00361096 0.842119 0.355177 0.700176 
0.057599 0.512518 0.247991 0.165095 0.528328 
0.900488 0.201717 0.665798 0.379242 0.260167 
0.884947 0.466978 0.453074 0.907091 0.310715 
0.470027 0.028545 0.859074 0.304691 0.660686 
0.561261 0.262515 0.589445 0.343192 0.211079 
0.710098 0.812419 0.716572 0.170814 0.337824 
0.226344 0.949487 0.204817 0.929413 0.799349 
0.500094 0.433218 0.861516 0.401473 0.968476 
0.503388 0.825143 0.0834155 0.740678 0.897324 
0.853075 0.0585396 0.838465 0.718278 0.244195 
0.944821 0.117761 0.0645422 0.213767 0.11232 
0.743178 0.954086 0.538744 0.226408 0.367557 
0.286077 0.528446 0.849193 0.774244 0.15505 
0.169913 0.400916 0.854681 0.302957 0.177858 
0.868956 0.758093 0.138885 0.987742 0.13926 
0.989222 0.041543 0.530453 0.155091 0.332243 
0.980939 0.878355 0.837337 0.995259 0.161866 
0.123526 0.0314618 0.683771 0.636845 0.396112 
0.410944 0.47847 0.139888 0.786278 0.0129374 
0.552925 0.562072 0.849217 0.83824 0.165207 
0.614696 0.934818 0.390985 0.614775 0.691174 
0.000319825 0.777152 0.32832 0.636388 0.486728 
0.205189 0.100288 0.280734 0.583277 0.898459 
0.601768 0.0497375 0.972295 0.913291 0.531288 
0.268586 0.0868559 0.359131 0.631922 0.493369 
0.747843 0.716924 0.472366 0.84965 0.171582 
0.641431 0.298818 0.829888 0.733716 0.453339 
0.307694 0.629785 0.369363 0.0719227 0.481925 
0.633222 0.504135 0.506166 0.512036 0.853132 
0.524082 0.830242 0.21818 0.849273 0.998758 
0.869684 0.352735 0.351811 0.771785 0.714516 
0.333406 0.655545 0.530637 0.961076 0.0411208 
0.928559 0.629788 0.613897 0.987582 0.396008 
0.391085 0.765905 0.805857 0.971068 0.209037 
0.278048 0.949713 0.549132 0.494973 0.985996 
0.217446 0.768817 0.112689 0.998626 0.793283 
0.145313 0.818357 0.751534 0.963258 0.0359377 
0.733838 0.1841 0.0367016 0.722241 0.462201 
0.140558 0.1572 0.396241 0.459697 0.249701 
0.0455153 0.601239 0.113776 0.38303 0.715478 
0.305421 0.409595 0.909613 0.441395 0.486425 
0.201178 0.372607 0.945329 0.114044 0.674902 
0.292426 0.285231 0.185837 0.923512 0.831957 
0.744079 0.833417 0.0782489 0.313648 0.977458 
0.683293 0.650594 0.11805 0.590986 0.929548 
0.74757 0.838441 0.268715 0.615686 0.152254 
0.747647 0.705605 0.23624 0.927256 0.555882 
0.649962 0.969261 0.320527 0.595662 0.62954 
0.513972 0.673442 0.995707 0.321498 0.957691 
0.718032 0.946859 0.0547177 0.824311 0.443792 
0.418433 0.767791 0.584744 0.347089 0.665234 
0.539249 0.220586 0.437982 0.7338 0.712485 
0.128207 0.0299959 0.166017 0.226354 0.109383 
0.736611 0.0939919 0.429001 0.196817 0.167611 
0.398997 0.527844 0.475583 0.813083 0.704294 
0.871828 0.0189685 0.531747 0.560377 0.148354 
0.90985 0.746071 0.234479 0.307151 0.0404382 
0.909874 0.125595 0.292746 0.400512 0.139153 
0.577858 0.347461 0.811854 0.305178 0.721406 
0.738099 0.98919 0.032681 0.896995 0.983941 
0.498686 0.796288 0.790277 0.767232 0.234328 
0.0777465 0.331758 0.202703 0.803339 0.914383 
0.582657 0.13574 0.769545 0.522672 0.244184 
0.877195 0.222686 0.655131 0.920581 0.71047 
0.649507 0.488135 0.683271 0.718959 0.69103 
0.407544 0.90911 0.640947 0.570983 0.00985905 
0.119126 0.134892 0.460618 0.402992 0.874666 
0.570856 0.812663 0.192947 0.569261 0.093613 
0.285511 0.865805 0.824978 0.313557 0.660333 
0.54838 0.168904 0.458784 0.875792 0.255395 
0.880926 0.957401 0.549261 0.0424542 0.393784 
0.50001 0.0394711 0.514752 0.904367 0.736774 
0.42285 0.0349619 0.357562 0.319268 0.914754 
0.734273 0.49529 0.837686 0.50247 0.817999 
0.867812 0.824625 0.24383 0.252094 0.759055 
0.554473 0.50421 0.807633 0.482065 0.546307 
0.632272 0.937008 0.73984 0.358515 0.305818 
0.57547 0.318875 0.193014 0.822195 0.635931 
0.725726 0.601062 0.696686 0.927408 0.707853 
0.229892 0.181874 0.81995 0.635006 0.476019 
0.807881 0.0768793 0.796501 0.347824 0.856389 
0.492627 0.107495 0.230043 0.248532 0.64116 
0.084114 0.474672 0.518544 0.24899 0.434855 
0.45511 0.414683 0.221257 0.78756 0.426582 
0.71633 0.462071 0.943724 0.927018 0.155568 
0.850302 0.885053 0.773398 0.38571 0.336271 
0.221574 0.605784 0.25711 0.362333 0.757401 
0.226941 0.652963 0.316741 0.714739 0.6006 
0.263269 0.823863 0.0143383 0.649272 0.198601 
0.827795 0.540635 0.0877253 0.0654775 0.603657 
0.341644 0.184387 0.533236 0.253176 0.775756 
0.25832 0.473592 0.675673 0.901006 0.487623 
0.44623 0.411003 0.306076 0.151674 0.172007 
0.0618389 0.722087 0.956822 0.343118 0.332502 
0.687254 0.275041 0.326319 0.149886 0.0530856 
0.813616 0.9906 0.226395 0.45643 0.908876 
0.996145 0.13076 0.329793 0.337312 0.119341 
0.621343 0.219878 0.613566 0.791655 0.295209 
0.139329 0.0291911 0.762105 0.335473 0.805665 
0.766178 0.269618 0.0188286 0.772973 0.576876 
0.783328 0.562209 0.508354 0.415581 0.734167 
0.694383 0.8593 0.628723 0.404673 0.2425 
0.542289 0.558599 0.893953 0.661398 0.924899 
0.561924 0.0177062 0.240872 0.0284558 0.552981 
0.781735 0.928125 0.829557 0.773735 0.226122 
0.6046 0.974107 0.582004 0.975134 0.85053 
0.494967 0.142937 0.0543185 0.893323 0.617345 
0.117874 0.194799 0.881581 0.244033 0.33163 
0.856672 0.332134 0.66474 0.779826 0.921576 
0.112672 0.655751 0.767557 0.214718 0.840608 
0.742132 0.51284 0.678973 0.247908 0.266325 
0.207037 0.683136 0.958181 0.345562 0.624947 
0.372506 0.244655 0.514012 0.994396 0.158931 
0.928985 0.448547 0.684259 0.357875 0.574085 
0.465311 0.989026 0.878765 0.277844 0.355992 
0.193874 0.404964 0.794549 0.513226 0.269104 
0.066659 0.110808 0.924472 0.685939 0.408778 
0.295591 0.11571 0.420938 0.823888 0.659305 
0.957339 0.301173 0.545349 0.813589 0.575756 
0.390582 0.280185 0.0836039 0.063011 0.532514 
0.0428433 0.198219 0.842063 0.750691 0.580647 
0.857433 0.136611 0.327856 0.146129 0.259452 
0.252694 0.360969 0.208978 0.908884 0.203901 
0.104861 0.936771 0.116346 0.395885 0.349237 
0.765463 0.176336 0.549323 0.676022 0.339505 
0.55961 0.0759323 0.492025 0.77132 0.738659 
0.796174 0.496738 0.511923 0.491046 0.844083 
0.269797 0.967221 0.271492 0.50103 0.167093 
0.0989361 0.384463 0.0573725 0.0508927 0.446568 
0.126012 0.936888 0.426813 0.940275 0.988389 
0.158366 0.325925 0.281414 0.284519 0.00986411 
0.308564 0.801074 0.689017 0.955588 0.351886 
0.551451 0.0760316 0.628898 0.0265942 0.39879 
0.680203 0.0414015 0.64788 0.591387 0.772638 
0.0838731 0.930449 0.544157 0.377957 0.439935 
0.387754 0.410003 0.844812 0.459408 0.580117 
0.0523424 0.740224 0.690558 0.256917 0.368494 
0.602038 0.0964956 0.274607 0.881146 0.677358 
0.539645 0.9573 0.908883 0.81149 0.965235 
0.466006 0.0975389 0.205205 0.557346 0.207727 
0.614436 0.465294 0.794363 0.470858 0.459399 
0.572633 0.647138 0.621992 0.697236 0.0889472 
0.447296 0.330572 0.731075 0.10719 0.870629 
0.097617 0.459158 0.631939 0.12872 0.0376521 
0.725513 0.0313046 0.504205 0.0541666 0.580106 
0.0926072 0.842802 0.276534 0.497196 0.330658 
0.343852 0.170023 0.401697 0.325023 0.18568 
0.150306 0.565927 0.466295 0.838178 0.852146 
0.832013 0.889872 0.582546 0.121459 0.578985 
0.0284804 0.0169251 0.437014 0.886646 0.183425 
0.973931 0.0886886 0.0118228 0.424954 0.37328 
0.0953121 0.794459 0.5663 0.932621 0.638863 
0.808231 0.724777 0.385834 0.506001 0.885438 
0.639196 0.16724 0.351113 0.498861 0.519491 
0.906926 0.54786 0.879708 0.947638 0.614904 
0.00957696 0.705852 0.245263 0.906543 0.00289377 
0.811284 0.469763 0.823847 0.0644881 0.416566 
0.295837 0.387164 0.465163 0.291014 0.17824 
0.529865 0.652362 0.325497 0.267902 0.060992 
0.549303 0.340039 0.21683 0.270327 0.332809 
0.0507624 0.979478 0.596565 0.809776 0.549388 
0.767695 0.316771 0.675471 0.119217 0.742019 
0.426076 0.648981 0.819876 0.496697 0.866476 
0.153121 0.10643 0.0511032 0.382512 0.0364946 
0.737282 0.346328 0.242604 0.0556777 0.177942 
0.602217 0.565331 0.265397 0.463888 0.776671 
0.198551 0.150017 0.44386 0.22858 0.557909 
0.333408 0.0808851 0.947105 0.241688 0.358002 
0.587659 0.65832 0.984061 0.840715 0.923152 
0.725131 0.0184472 0.497414 0.0433184 0.410253 
0.90364 0.288496 0.544708 0.0317261 0.80443 
0.0324723 0.154168 0.174667 0.40749 0.26693 
0.0477974 0.726552 0.944522 0.693171 0.158441 
0.332834 0.709318 0.883262 0.369259 0.837513 
0.599834 0.40225 0.267567 0.0702337 0.144778 
0.952556 0.843542 0.848564 0.959568 0.0830901 
0.293121 0.775273 0.704844 0.540599 0.568589 
0.378205 0.301829 0.0953513 0.609704 0.0228219 
0.768919 0.0719712 0.63449 0.111556 0.393451 
0.992268 0.177642 0.168423 0.167276 0.220346 
0.947315 0.442671 0.477164 0.11498 0.225023 
0.0517194 0.0483235 0.860541 0.0164087 0.650641 
0.549727 0.639028 0.682362 0.699398 0.0273969 
0.857154 0.288252 0.0618948 0.661007 0.147592 
0.412057 0.594972 0.664579 0.288245 0.920183 
0.523265 0.853435 0.621968 0.466637 0.13243 
0.248954 0.190313 0.887211 0.0432235 0.732005 
0.5372 0.512228 0.792052 0.0327424 0.362761 
0.184749 0.061839 0.205878 0.0178426 0.2504 
0.666798 0.0293225 0.861488 0.398978 0.0355936 
0.617743 0.661051 0.606654 0.439049 0.841242 
0.0408919 0.549828 0.6497 0.558786 0.330853 
0.994877 0.85648 0.726788 0.155849 0.110472 
0.776289 0.118218 0.176179 0.549638 0.259205 
0.198568 0.258535 0.874388 0.0138053 0.0478124 
0.608448 0.242072 0.78869 0.0446424 0.221163 
0.132236 0.0579289 0.445028 0.978856 0.923497 
0.404692 0.839992 0.94891 0.733863 0.211812 
0.083516 0.0294193 0.934877 0.545838 0.719238 
0.80421 0.993374 0.364947 0.38767 0.517341 
0.454088 0.279989 0.754187 0.319088 0.342407 
0.0549248 0.740474 0.0437112 0.546898 0.227336 
0.256314 0.896902 0.623117 0.816995 0.158401 
0.330844 0.097501 0.304723 0.0280927 0.528353 
0.386103 0.986557 0.922587 0.641298 0.755911 
0.982982 0.947061 0.682117 0.871813 0.990499 
0.297311 0.163843 0.9583 0.749593 0.301697 
0.484456 0.407383 0.998646 0.510528 0.198488 
0.371076 0.886941 0.386254 0.421611 0.072716 
0.539551 0.728041 0.593179 0.0185223 0.107482 
0.874143 0.422171 0.128754 0.724493 0.00416083 
0.194863 0.175788 0.356052 0.119849 0.123061 
0.274717 0.0527594 0.551025 0.7326 0.402274 
0.0211587 0.555559 0.0240138 0.159356 0.372221 
0.622291 0.956131 0.166581 0.275652 0.12118 
0.749292 0.969446 0.181849 0.398479 0.663717 
0.0305343 0.592827 0.269866 0.51382 0.0992696 
0.0614088 0.888903 0.451169 0.467808 0.711762 
0.540476 0.0188019 0.364459 0.222032 0.973388 
0.941736 0.733115 0.736928 0.0101525 0.886823 
0.86257 0.199281 0.570036 0.741543 0.843863 
0.192589 0.17803 0.800385 0.977598 0.850881 
0.740388 0.349599 0.460368 0.75894 0.340729 
0.423636 0.82159 0.526804 0.763422 0.372532 
0.338722 0.356686 0.737927 0.136741 0.932943 
0.0170962 0.101035 0.777243 0.163334 0.891557 
0.71058 0.465739 0.620318 0.321505 0.271363 
0.896585 0.734225 0.31488 0.601774 0.41569 
0.735443 0.478845 0.313303 0.0135541 0.103691 
0.61265 0.695883 0.518375 0.425579 0.311898 
0.157837 0.110447 0.364977 0.214777 0.713165 
0.0228443 0.409413 0.829751 0.895896 0.787255 
0.269862 0.960175 0.105963 0.899926 0.908375 
0.889391 0.488584 0.374937 0.555165 0.241045 
0.306301 0.589999 0.0390235 0.699555 0.524176 
0.176429 0.423849 0.17499 0.462785 0.86079 
0.532814 0.536185 0.731444 0.986541 0.731348 
0.0754429 0.148928 0.932806 0.190645 0.554034 
0.629863 0.671964 0.562953 0.499481 0.100291 
0.606117 0.396319 0.41615 0.517436 0.947084 
0.815581 0.0847141 0.470393 0.0984735 0.784221 
0.814488 0.564411 0.921851 0.576198 0.272564 
0.398733 0.270759 0.786887 0.298849 0.417793 
0.832654 0.408914 0.483348 0.466642 0.0825418 
0.90748 0.948548 0.194186 0.538181 0.914438 
0.832008 0.295034 0.904735 0.817556 0.562695 
0.0345558 0.21418 0.155722 0.503702 0.0650935 
0.937376 0.964157 0.369994 0.243245 0.195987 
0.116177 0.853358 0.305231 0.300153 0.632418 
0.229649 0.133281 0.499738 0.0596873 0.427761 
0.209424 0.175292 0.539858 0.322241 0.0542809 
0.592238 0.711258 0.592874 0.814546 0.153865 
0.687981 0.224558 0.273456 0.913585 0.667874 
0.30577 0.557649 0.610911 0.231635 0.734422 
0.561439 0.585619 0.723896 0.00788203 0.32161 
0.822161 0.261019 0.610414 0.786478 0.16615 
0.54839 0.975369 0.824355 0.602745 0.96612 
0.00885315 0.502905 0.0990726 0.12087 0.730148 
0.831553 0.874265 0.565093 0.0118315 0.0779756 
0.0524427 0.0636813 0.148612 0.678728 0.857702 
0.749712 0.781496 0.110779 0.226583 0.44094 
0.906483 0.367915 0.523847 0.33705 0.548038 
0.734208 0.971625 0.360526 0.748362 0.119002 
0.204349 0.153192 0.938951 0.863076 0.788168 
0.453378 0.909743 0.379457 0.34864 0.0196431 
0.913299 0.935148 0.118725 0.946414 0.781446 
0.605461 0.0608072 0.0641863 0.575554 0.18883 
0.052659 0.683352 0.812789 0.913825 0.348048 
0.306883 0.69017 0.967476 0.726925 0.160207 
0.193417 0.359688 0.988453 0.110902 0.0204104 
0.401915 0.531876 0.347431 0.222516 0.984276 
0.275754 0.735039 0.338681 0.778878 0.20457 
0.135681 0.904195 0.307973 0.418815 0.624506 
0.365919 0.442249 0.0886244 0.935313 0.913681 
0.224058 0.49443 0.781867 0.843965 0.70159 
0.0539564 0.615895 0.798502 0.437839 0.77041 
0.0668086 0.758414 0.307034 0.0105216 0.636191 
0.610336 0.634693 0.238596 0.313284 0.729325 
0.822268 0.563072 0.89069 0.190729 0.876612 
0.322739 0.699514 0.517385 0.574399 0.0686533 
0.722564 0.34451 0.895351 0.144399 0.387764 
0.895315 0.76474 0.0807179 0.659189 0.112512 
0.911116 0.117519 0.0512308 0.0330646 0.498466 
0.432998 0.40003 0.805297 0.442306 0.969736 
0.404719 0.794927 0.692678 0.090638 0.676104 
0.619323 0.460932 0.93448 0.0955266 0.578495 
0.61692 0.971216 0.53669 0.0600476 0.475721 
0.560546 0.844331 0.763053 0.276407 0.700289 
0.471368 0.914724 0.16306 0.888902 0.713413 
0.361642 0.530513 0.47912 0.384122 0.314275 
0.766093 0.551483 0.599301 0.1614 0.967355 
0.780211 0.718079 0.36228 0.0420348 0.0311377 
0.84192 0.708932 0.0308641 0.0136171 0.09977 
0.0650682 0.716026 0.393953 0.451149 0.425357 
0.579018 0.405936 0.704677 0.762278 0.767022 
0.305278 0.0257267 0.642897 0.00198587 0.825035 
0.567916 0.386255 0.701153 0.818147 0.883145 
0.997799 0.566799 0.699461 0.0673957 0.632225 
0.760799 0.837947 0.136504 0.0508168 0.945012 
0.287199 0.317216 0.487351 0.957412 0.818598 
0.749984 0.409593 0.0638124 0.550398 0.908239 
0.799888 0.93361 0.423442 0.468176 0.878942 
0.145415 0.872098 0.783667 0.58635 0.691034 
0.0499059 0.426798 0.142076 0.785889 0.469859 
0.183817 0.220193 0.0516291 0.645319 0.492738 
0.751199 0.951387 0.502026 0.24883 0.387241 
0.795527 0.210098 0.445467 0.419148 0.395568 
0.686524 0.316929 0.395698 0.0273974 0.72824 
0.273443 0.242338 0.343415 0.764672 0.13697 
0.266892 0.735567 0.0763636 0.76756 0.054088 
0.914636 0.165178 0.352843 0.0304295 0.855819 
0.153618 0.65068 0.51501 0.132835 0.30169 
0.0156056 0.061151 0.598489 0.658311 0.626946 
0.300965 0.612249 0.776789 0.401822 0.0487669 
0.819091 0.529353 0.853277 0.694835 0.363041 
0.658445 0.0733308 0.587137 0.394299 0.333677 
0.149717 0.859364 0.97091 0.827319 0.703941 
0.161374 0.723429 0.800464 0.586337 0.400485 
0.82744 0.317134 0.658348 0.160977 0.815738 
0.50309 0.571091 0.775527 0.987218 0.948379 
0.785651 0.156951 0.075002 0.889383 0.735894 
0.314497 0.620904 0.0903664 0.361967 0.863751 
0.672685 0.618156 0.100283 0.339233 0.44311 
0.374889 0.285049 0.860456 0.521712 0.129267 
0.741435 0.406435 0.306265 0.140373 0.433128 
0.0713112 0.823045 0.4873 0.135856 0.382453 
0.669977 0.691092 0.521144 0.25052 0.569257 
0.786358 0.117907 0.824054 0.991609 0.885978 
0.654531 0.676599 0.50985 0.945222 0.875074 
0.609213 0.539864 0.0357014 0.429112 0.798244 
0.119405 0.0449114 0.887816 0.726116 0.402737 
0.483112 0.790972 0.78581 0.673319 0.068899 
0.56636 0.688396 0.0795559 0.318154 0.440464 
0.462813 0.540702 0.118293 0.433756 0.646333 
0.792801 0.0540416 0.652848 0.989629 0.71395 
0.981772 0.768642 0.490951 0.410961 0.819077 
0.773513 0.19395 0.729692 0.911276 0.175241 
0.755727 0.726858 0.314731 0.288654 0.878098 
0.00955346 0.87188 0.504567 0.997056 0.131096 
0.461041 0.32661 0.390974 0.692368 0.728268 
0.467276 0.49461 0.372009 0.845344 0.832371 
0.656546 0.350783 0.513864 0.506553 0.716343 
0.403035 0.538823 0.389175 0.435705 0.431424 
0.455632 0.0340358 0.0731221 0.202994 0.632387 
0.0447663 0.761357 0.118084 0.192277 0.339433 
0.00820785 0.758723 0.258328 0.819669 0.621547 
0.697188 0.826266 0.684744 0.397955 0.35602 
0.19798 0.799091 0.436096 0.81133 0.249953 
0.573118 0.758475 0.0607794 0.480221 0.344734 
0.908264 0.708669 0.924293 0.584975 0.238121 
0.790268 0.434065 0.040202 0.440865 0.604659 
0.43853 0.84144 0.386492 0.350202 0.157726 
0.669108 0.892276 0.0467467 0.859034 0.110448 
0.545197 0.608111 0.349068 0.634053 0.82354 
0.786512 0.084012 0.844968 0.622005 0.792799 
0.626936 0.760123 0.792784 0.879659 0.322257 
0.97642 0.6701 0.4981 0.416164 0.310956 
0.546181 0.821201 0.861806 0.100472 0.0634476 
0.588779 0.898754 0.0713325 0.239549 0.576068 
0.475311 0.188857 0.469608 0.762496 0.922009 
0.714629 0.231138 0.564891 0.416003 0.540964 
0.637769 0.668185 0.386384 0.425074 0.712641 
0.0585945 0.411904 0.127832 0.351749 0.543362 
0.186648 0.932685 0.466787 0.97146 0.846996 
0.174815 0.393542 0.493819 0.532798 0.73763 
0.710928 0.158968 0.731531 0.771767 0.339158 
0.420909 0.944647 0.66447 0.0391034 0.293842 
0.0778874 0.338024 0.585294 0.953248 0.533643 
0.336069 0.6333 0.435867 0.968599 0.538333 
0.943195 0.159888 0.842988 0.0958038 0.656944 
0.490754 0.616917 0.674151 0.230591 0.238908 
0.259188 0.544333 0.965101 0.403132 0.700604 
0.861108 0.698732 0.166971 0.144841 0.908925 
0.899418 0.247424 0.220736 0.200039 0.507251 
0.365705 0.75442 0.721287 0.8408 0.635834 
0.533992 0.690997 0.0618222 0.874757 0.904597 
0.2471 0.208829 0.784003 0.384151 0.832232 
0.634311 0.126734 0.6392 0.87932 0.234509 
0.939846 0.51788 0.727938 0.120251 0.234554 
0.671673 0.817797 0.0821235 0.163394 0.491187 
0.744549 0.470161 0.429771 0.206255 0.498022 
0.300108 0.652047 0.902707 0.120032 0.989976 
0.998106 0.372392 0.429055 0.93501 0.194309 
0.109111 0.6185 0.805339 0.983722 0.911523 
0.49319 0.972369 0.0758597 0.43005 0.0391247 
0.495674 0.73773 0.610829 0.592273 0.803588 
0.964315 0.952415 0.426552 0.395739 0.516499 
0.662456 0.98878 0.288413 0.399891 0.193802 
0.308867 0.509392 0.0317246 0.613455 0.21787 
0.565061 0.841919 0.26566 0.5278 0.331996 
0.806242 0.796421 0.63856 0.689359 0.928569 
0.221719 0.477334 0.312445 0.361772 0.71633 
0.166801 0.801148 0.692979 0.593365 0.314559 
0.633218 0.744147 0.0293696 0.538769 0.419182 
0.637751 0.66375 0.589155 0.624725 0.353765 
0.0840771 0.64684 0.0705297 0.772209 0.303515 
0.536229 0.791177 0.728592 0.772422 0.764854 
0.534765 0.246844 0.0169966 0.366503 0.258271 
0.768813 0.483393 0.049389 0.721147 0.939446 
0.374175 0.484128 0.398845 0.521006 0.17832 
0.596001 0.64204 0.0509654 0.995311 0.0768945 
0.141526 0.0228328 0.314427 0.968785 0.0801876 
0.884013 0.603827 0.267005 0.384623 0.996517 
0.138933 0.956121 0.210972 0.767461 0.297071 
0.316977 0.798974 0.580328 0.545257 0.0791883 
0.693574 0.345564 0.175134 0.651522 0.367246 
0.105786 0.118715 0.836101 0.838388 0.942437 
0.558885 0.0574996 0.751006 0.872273 0.755392 
0.939776 0.530054 0.0379155 0.0950148 0.575949 
0.96991 0.39702 0.368648 0.99911 0.543246 
0.551718 0.222911 0.0790866 0.338887 0.890845 
0.224353 0.899218 0.774486 0.03488 0.541873 
0.611546 0.590348 0.243617 0.240884 0.322482 
0.997784 0.956009 0.833278 0.9348 0.0922858 
0.519106 0.767378 0.233922 0.590194 0.488185 
0.144924 0.220614 0.456688 0.950172 0.000841129 
0.127816 0.250484 0.00677995 0.689967 0.242507 
0.275727 0.0808816 0.621582 0.0355248 0.182178 
0.652084 0.254502 0.142353 0.340352 0.508046 
0.0886012 0.301487 0.929669 0.459583 0.782887 
0.876022 0.365717 0.0321897 0.374381 0.576936 
0.531059 0.534698 0.888912 0.555567 0.903828 
0.942398 0.139198 0.992258 0.470719 0.737251 
0.133499 0.276291 0.0729929 0.711357 0.908616 
0.995548 0.123398 0.801535 0.0270881 0.464798 
0.745469 0.255432 0.455337 0.0689262 0.228976 
0.713327 0.842101 0.0385767 0.799464 0.00143133 
0.685918 0.904175 0.197782 0.576859 0.121226 
0.0179624 0.967277 0.0195369 0.0130008 0.159481 
0.700834 0.177397 0.236156 0.101108 0.8866 
0.130013 0.347105 0.474945 0.614139 0.750292 
0.41628 0.71122 0.0554392 0.506522 0.736762 
0.195297 0.965674 0.592279 0.0583461 0.630153 
0.427329 0.895504 0.809124 0.0278425 0.845294 
0.119844 0.856249 0.3602 0.325112 0.109967 
0.132277 0.431315 0.641411 0.663343 0.793286 
0.0393043 0.643001 0.521317 0.748331 0.550061 
0.703241 0.442162 0.0756023 0.057097 0.10284 
0.584986 0.879326 0.310109 0.903596 0.303116 
0.398403 0.429962 0.70656 0.0185853 0.592674 
0.122767 0.262008 0.983868 0.972068 0.0260719 
0.390493 0.102515 0.263296 0.56655 0.524631 
0.212216 0.200406 0.896571 0.00414598 0.73196 
0.295162 0.261328 0.467683 0.541381 0.132795 
0.761233 0.164546 0.467336 0.273427 0.734797 
0.265763 0.829181 0.0707321 0.676922 0.950005 
0.843971 0.863744 0.761163 0.559345 0.0993205 
0.789136 0.759905 0.0954237 0.609319 0.0686625 
0.111849 0.394047 0.105807 0.0329188 0.0348309 
0.511201 0.509944 0.575031 0.64832 0.132284 
0.142089 0.420593 0.0105166 0.794563 0.374695 
0.381357 0.731077 0.844179 0.0883775 0.271508 
0.609659 0.594742 0.683628 0.0716863 0.533704 
0.865363 0.0844046 0.904961 0.468118 0.337017 
0.00932385 0.315571 0.0616584 0.844028 0.00641132 
0.867459 0.668168 0.262961 0.837732 0.198599 
0.657602 0.114467 0.636525 0.968675 0.739377 
0.614372 0.340472 0.750508 0.2094 0.175628 
0.250412 0.999556 0.278345 0.180897 0.903591 
0.887212 0.969801 0.140609 0.868435 0.862421 
0.264883 0.581806 0.720902 0.134362 0.481466 
0.586608 0.810462 0.987089 0.942239 0.563564 
0.786555 0.847027 0.920707 0.702489 0.191982 
0.0686033 0.910076 0.713814 0.764897 0.213233 
0.784329 0.79689 0.308299 0.764218 0.330857 
0.0133151 0.542619 0.907147 0.186598 0.293356 
0.412548 0.001292 0.061512 0.989024 0.837443 
0.466303 0.793119 0.181277 0.750452 0.945202 
0.715598 0.988502 0.433602 0.628704 0.999287 
0.953962 0.95895 0.541331 0.452319 0.814183 
0.330308 0.677376 0.934557 0.52578 0.676919 
0.414656 0.666654 0.221413 0.14472 0.431255 
0.189016 0.00137464 0.0247056 0.662657 0.4945 
0.570481 0.0927819 0.244772 0.953298 0.187096 
0.233705 0.41683 0.975624 0.487462 0.975277 
0.570739 0.33118 0.401033 0.438251 0.631039 
0.683704 0.673894 0.535249 0.600045 0.132707 
0.867112 0.59002 0.969869 0.98838 0.446272 
0.104137 0.334116 0.356986 0.928287 0.304921 
0.837066 0.888601 0.0786088 0.352692 0.915477 
0.493339 0.27639 0.599336 0.0757792 0.541501 
0.0583265 0.301354 0.306223 0.410328 0.737329 
0.619932 0.323739 0.0354527 0.631309 0.128956 
0.367994 0.833383 0.471932 0.396142 0.244529 
0.665006 0.493513 0.54534 0.244782 0.87874 
0.428984 0.574256 0.632312 0.366669 0.35166 
0.101766 0.815684 0.189566 0.350552 0.444151 
0.74178 0.686855 0.802797 0.70747 0.821738 
0.625745 0.35779 0.135128 0.41602 0.553134 
0.160826 0.707808 0.25723 0.232524 0.956442 
0.591047 0.730375 0.910976 0.516426 0.375985 
0.952338 0.67684 0.268445 0.793896 0.869632 
0.859708 0.39356 0.411222 0.0375023 0.467802 
0.667541 0.81147 0.0391707 0.293143 0.551488 
0.133157 0.436188 0.582669 0.983923 0.0735413 
0.624845 0.971644 0.00413844 0.43215 0.329895 
0.848915 0.903874 0.00863813 0.144465 0.00378252 
0.34334 0.79119 0.797047 0.918858 0.332252 
0.280468 0.809901 0.742335 0.791135 0.748893 
0.0473029 0.209042 0.661278 0.275489 0.584593 
0.859353 0.386832 0.920008 0.242635 0.901 
0.916584 0.238086 0.856435 0.817528 0.0649499 
0.30613 0.612637 0.559568 0.836712 0.0187855 
0.0589269 0.00311753 0.906609 0.549276 0.800707 
0.391598 0.715004 0.0667494 0.365668 0.585974 
0.62772 0.102537 0.175524 0.422976 0.128595 
0.176371 0.286633 0.915626 0.0686062 0.0320012 
0.82735 0.495829 0.430265 0.860836 0.647043 
0.234979 0.463866 0.705047 0.591564 0.63939 
0.0207723 0.974112 0.271907 0.614151 0.989582 
0.427059 0.135598 0.0225659 0.577722 0.731992 
0.113531 0.814928 0.924292 0.915996 0.574106 
0.106381 0.998134 0.779021 0.919925 0.0953807 
0.145319 0.530053 0.298211 0.175415 0.613525 
0.345767 0.990559 0.402798 0.823516 0.350515 
0.366829 0.356552 0.458319 0.667938 0.364325 
0.512651 0.128844 0.176586 0.817579 0.727192 
0.836366 0.308789 0.878991 0.144119 0.758014 
0.833383 0.0830344 0.746311 0.643437 0.298326 
0.443024 0.0504032 0.0360004 0.636419 0.68754 
0.167627 0.176291 0.605598 0.32975 0.395517 
0.696393 0.674086 0.162126 0.72955 0.224098 
0.990078 0.200039 0.826719 0.483357 0.216824 
0.0353653 0.640295 0.0729565 0.872537 0.606367 
0.375732 0.898435 0.853674 0.747592 0.979262 
0.552832 0.268948 0.823105 0.474702 0.822168 
0.265343 0.801327 0.00481226 0.807069 0.973863 
0.29254 0.831778 0.893837 0.479203 0.670636 
0.974573 0.329152 0.455577 0.905573 0.482826 
0.880393 0.31411 0.371881 0.120656 0.851532 
0.976809 0.806966 0.769545 0.494461 0.0456048 
0.149592 0.76902 0.909029 0.087793 0.421226 
0.109235 0.761031 0.198722 0.771373 0.668951 
0.395285 0.777642 0.721417 0.385066 0.298253 
0.684297 0.590161 0.16325 0.423986 0.520046 
0.513165 0.525386 0.288303 0.421036 0.733538 
0.647303 0.0279724 0.708602 0.225175 0.760055 
0.81916 0.0540192 0.645619 0.267862 0.358773 
0.394544 0.752272 0.611377 0.144616 0.140036 
0.159624 0.252294 0.432387 0.498416 0.862856 
0.819836 0.961939 0.371898 0.0405304 0.760306 
0.068225 0.537497 0.528632 0.402054 0.66036 
0.38458 0.198512 0.122781 0.51954 0.925325 
0.471195 0.757325 0.359326 0.185424 0.0662619 
0.707576 0.439339 0.442568 0.173085 0.279107 
0.884291 0.285074 0.148947 0.952187 0.881295 
0.706418 0.589853 0.897561 0.39927 0.360579 
0.088365 0.224236 0.759581 0.424475 0.174618 
0.853135 0.473194 0.125919 0.463186 0.509298 
0.173664 0.507981 0.0861028 0.817342 0.820669 
0.152325 0.5304 0.428152 0.990748 0.269955 
0.357425 0.736676 0.684189 0.4595 0.428213 
0.585983 0.405451 0.205614 0.612881 0.46153 
0.282537 0.498811 0.902847 0.766773 0.443912 
0.563226 0.785486 0.738154 0.195312 0.236336 
0.364768 0.626688 0.0221548 0.292746 0.736447 
0.800695 0.504705 0.660711 0.0304578 0.704401 
0.820801 0.717056 0.311756 0.0762918 0.872582 
0.824682 0.925374 0.861939 0.421977 0.362221 
0.722406 0.804219 0.321619 0.569291 0.270682 
0.753632 0.744203 0.319305 0.83096 0.561309 
0.114026 0.784617 0.877365 0.66532 0.316766 
0.802686 0.052824 0.504329 0.782808 0.854501 
0.979336 0.0347029 0.281884 0.829043 0.419372 
0.38241 0.091802 0.408025 0.414616 0.919847 
0.645966 0.217256 0.107596 0.594712 0.309316 
0.896157 0.266771 0.247001 0.0764748 0.764718 
0.470131 0.923735 0.464175 0.644406 0.162574 
0.538761 0.87436 0.653037 0.0861156 0.987305 
0.351576 0.997352 0.656322 0.184093 0.943332 
0.248573 0.044029 0.978276 0.656061 0.63366 
0.404619 0.717201 0.704119 0.667513 0.555882 
0.175057 0.951595 0.984496 0.742046 0.673176 
0.0938271 0.521409 0.690538 0.303483 0.834026 
0.0774523 0.93525 0.0164466 0.0775104 0.187217 
0.33524 0.869031 0.965832 0.822256 0.328074 
0.543912 0.168464 0.0732431 0.975125 0.227901 
0.821895 0.739117 0.602029 0.790572 0.0662653 
0.435343 0.374488 0.169946 0.400862 0.605126 
0.255196 0.695915 0.132262 0.136601 0.809972 
0.476162 0.686462 0.0617891 0.993527 0.777129 
0.774645 0.375985 0.0645288 0.117607 0.62603 
0.279054 0.418745 0.301181 0.0664274 0.842136 
0.439314 0.0358136 0.373737 0.399969 0.47449 
0.262576 0.623062 0.18907 0.725741 0.555634 
0.0121263 0.969604 0.330526 0.282504 0.875622 
0.672244 0.424422 0.0188647 0.174647 0.996153 
0.187858 0.00344433 0.478983 0.0188835 0.322792 
0.885086 0.475325 0.658131 0.943942 0.0685613 
0.566065 0.387667 0.377987 0.663591 0.0216561 
0.515755 0.390239 0.722952 0.803716 0.39901 
0.00693797 0.613578 0.252843 0.39785 0.423104 
0.0865977 0.585838 0.413959 0.888702 0.428585 
0.35053 0.587272 0.15502 0.185885 0.149153 
0.769941 0.208746 0.12097 0.27508 0.420619 
0.45288 0.206811 0.483748 0.174023 0.287287 
0.439203 0.965546 0.693457 0.6167 0.538291 
0.360295 0.277164 0.110962 0.975003 0.42574 
0.444541 0.41317 0.0809428 0.676849 0.492317 
0.227747 0.514134 0.131635 0.177716 0.251691 
0.880078 0.320843 0.723983 0.183141 0.749548 
0.619037 0.716712 0.48698 0.242896 0.634272 
0.567225 0.0810934 0.462361 0.677896 0.892569 
0.0535281 0.00848644 0.793541 0.886672 0.504537 
0.998093 0.312291 0.482736 0.929085 0.656217 
0.914101 0.372826 0.354442 0.332861 0.0687943 
0.906181 0.707922 0.0921002 0.23582 0.562158 
0.746848 0.869621 0.0285943 0.842672 0.229689 
0.128103 0.927226 0.717736 0.655362 0.111286 
0.349683 0.252383 0.962349 0.460739 0.77603 
0.407995 0.214092 0.564836 0.147824 0.491373 
0.658371 0.955011 0.523815 0.55966 0.116315 
0.144345 0.457375 0.716925 0.118834 0.187785 
0.34702 0.771924 0.358907 0.142934 0.824697 
0.149906 0.00596427 0.596154 0.134971 0.976488 
0.482235 0.322738 0.989708 0.363272 0.61348 
0.356648 0.871712 0.73438 0.333779 0.27226 
0.0945623 0.411637 0.36151 0.0589313 0.987989 
0.706271 0.526564 0.0105224 0.345102 0.593838 
0.403396 0.251301 0.683276 0.0633255 0.643667 
0.569592 0.0569376 0.308249 0.631518 0.673997 
0.104143 0.724558 0.375715 0.741254 0.878921 
0.902689 0.109896 0.763687 0.00209182 0.629993 
0.433566 0.321726 0.15974 0.762292 0.35742 
0.725513 0.180813 0.944691 0.0293844 0.316984 
0.853303 0.854725 0.434463 0.992206 0.338847 
0.498443 0.0499531 0.334584 0.170821 0.681472 
0.854292 0.902585 0.950144 0.0761902 0.477972 
0.85557 0.322587 0.846229 0.21263 0.115987 
0.285123 0.494112 0.289676 0.309484 0.63382 
0.727446 0.156162 0.780029 0.949982 0.485549 
0.348693 0.570943 0.125047 0.249057 0.49649 
0.0420551 0.0973631 0.369076 0.529262 0.855643 
0.340877 0.561392 0.588035 0.30102 0.213241 
0.483366 0.0714513 0.912623 0.264189 0.436103 
0.0973893 0.072802 0.919092 0.546204 0.362134 
0.663498 0.378306 0.196973 0.263781 0.824288 
0.907934 0.921089 0.125037 0.64798 0.792903 
0.925657 0.262618 0.525617 0.869772 0.659284 
0.308751 0.440645 0.811136 0.689724 0.670793 
0.00666365 0.171208 0.923147 0.313733 0.553362 
0.493933 0.250751 0.82165 0.528423 0.188705 
0.633453 0.851537 0.255475 0.271821 0.341779 
0.149345 0.653723 0.86598 0.87186 0.601677 
0.464167 0.775457 0.00658999 0.975916 0.62297 
0.66693 0.926257 0.787825 0.995774 0.069323 
0.280916 0.535578 0.408821 0.894646 0.00403778 
0.393025 0.370397 0.932015 0.0747185 0.866565 
0.642015 0.956014 0.442092 0.33397 0.418862 
0.536173 0.255732 0.694882 0.239602 0.901051 
0.35395 0.972108 0.283837 0.240026 0.623454 
0.797062 0.45212 0.479967 0.660321 0.815789 
0.33634 0.882974 0.634041 0.4224 0.971341 
0.461457 0.521663 0.84733 0.880286 0.650287 
0.127518 0.0771963 0.350827 0.37519 0.0746068 
0.216794 0.01007 0.876977 0.950123 0.401144 
0.98077 0.210789 0.187281 0.974665 0.199126 
0.32575 0.468737 0.214856 0.513893 0.696789 
0.814148 0.766814 0.0664648 0.56239 0.860589 
0.639756 0.615556 0.777832 0.354949 0.496579 
0.643757 0.272226 0.528701 0.513912 0.501479 
0.262128 0.0151899 0.415648 0.314321 0.920597 
0.659538 0.519857 0.484143 0.0923106 0.517393 
0.548751 0.881901 0.299466 0.938353 0.419625 
0.111819 0.458664 0.102943 0.950655 0.793835 
0.792969 0.770687 0.0158907 0.199881 0.230488 
0.492185 0.838404 0.821438 0.920414 0.171576 
0.330998 0.551518 0.397559 0.985693 0.582595 
0.199253 0.140582 0.258939 0.367459 0.0585607 
0.24816 0.823488 0.459975 0.455747 0.605522 
0.604231 0.739455 0.502429 0.773581 0.918277 
0.801546 0.928095 0.684843 0.517968 0.0751915 
0.680984 0.0740712 0.249244 0.670259 0.487587 
0.636972 0.729683 0.745319 0.336614 0.612865 
0.312619 0.314157 0.265359 0.403786 0.385081 
0.71083 0.341066 0.866953 0.855649 0.539086 
0.531627 0.841354 0.67619 0.165357 0.0339202 
0.966947 0.594162 0.796646 0.690883 0.573993 
0.957542 0.750301 0.649861 0.259848 0.750036 
0.884971 0.448397 0.799449 0.49694 0.280455 
0.00700613 0.124675 0.577358 0.553537 0.476228 
0.0495515 0.891631 0.692374 0.479617 0.800447 
0.607202 0.997402 0.689379 0.960781 0.573987 
0.616971 0.725628 0.148064 0.88546 0.256446 
0.501885 0.846794 0.404564 0.628965 0.910051 
0.0829299 0.348965 0.11379 0.260287 0.150604 
0.673589 0.420328 0.939944 0.27335 0.051421 
0.831593 0.292475 0.710496 0.894969 0.117159 
0.308719 0.237515 0.728488 0.981702 0.675744 
0.218225 0.367664 0.114229 0.0286697 0.988294 
0.487618 0.849399 0.372407 0.0957322 0.40568 
0.502069 0.0944575 0.511467 0.787199 0.237254 
0.494716 0.748635 0.677568 0.168923 0.857717 
0.285197 0.659654 0.865498 0.658843 0.495608 
0.882841 0.197089 0.96842 0.689069 0.905858 
0.15558 0.880678 0.245779 0.777711 0.30365 
0.410196 0.228055 0.141551 0.546837 0.357448 
0.791777 0.07639 0.528958 0.728901 0.866837 
0.370082 0.243213 0.269645 0.737565 0.0394855 
0.480018 0.312838 0.730524 0.606766 0.98847 
0.7374 0.472799 0.90643 0.415052 0.588353 
0.668052 0.742972 0.736879 0.258611 0.121304 
0.744661 0.0780389 0.602994 0.22254 0.845083 
0.468715 0.224762 0.484191 0.81559 0.559131 
0.175373 0.81184 0.657521 0.289193 0.926848 
0.809457 0.498683 0.210659 0.161229 0.832135 
0.000506368 0.311864 0.326323 0.352817 0.192941 
0.473828 0.741434 0.0883946 0.853404 0.480793 
0.31935 0.96736 0.529686 0.00981773 0.796563 
0.725427 0.768233 0.888018 0.925241 0.110513 
0.612027 0.932019 0.632922 0.897835 0.0645108 
0.47779 0.802538 0.757276 0.520789 0.89182 
0.702236 0.549357 0.806865 0.803917 0.876909 
0.551836 0.244321 0.512792 0.0170865 0.0318727 
0.972269 0.0170151 0.21419 0.728198 0.468243 
0.612331 0.112797 0.661075 0.342181 0.103684 
0.060471 0.0505094 0.527225 0.22205 0.853363 
0.705754 0.50545 0.982476 0.630755 0.691377 
0.944715 0.874098 0.813193 0.812098 0.478784 
0.714365 0.0115279 0.395846 0.346252 0.543947 
0.380031 0.589956 0.491237 0.166977 0.54016 
0.220614 0.917992 0.114206 0.736288 0.884359 
0.72598 0.397489 0.245719 0.769328 0.0367247 
0.933297 0.00639572 0.481655 0.980348 0.20198 
0.986872 0.604083 0.595616 0.786276 0.248114 
0.107527 0.773293 0.649839 0.28913 0.140426 
0.0363698 0.976058 0.662035 0.511353 0.742287 
0.178634 0.209196 0.445647 0.00979344 0.439398 
0.505684 0.748976 0.189666 0.923751 0.92911 
0.820672 0.827018 0.8632 0.810374 0.596881 
0.919768 0.259848 0.507605 0.821284 0.804134 
0.792449 0.165157 0.534037 0.619711 0.642134 
0.778573 0.0691513 0.74269 0.86157 0.437153 
0.394171 0.8112 0.670624 0.112942 0.275422 
0.718585 0.810065 0.622186 0.0834715 0.051429 
0.743287 0.872371 0.337393 0.333981 0.75818 
0.187211 0.265025 0.989241 0.880026 0.555182 
0.525567 0.451303 0.187405 0.389926 0.323818 
0.380577 0.204012 0.957314 0.505188 0.501196 
0.0937153 0.00212469 0.57958 0.754042 0.577359 
0.132785 0.0919594 0.831416 0.14449 0.552408 
0.378033 0.125695 0.292644 0.606627 0.498844 
0.00552031 0.0207701 0.51697 0.029729 0.706164 
0.0359083 0.768367 0.221063 0.141619 0.21059 
0.533818 0.740578 0.551209 0.979544 0.628779 
0.385967 0.433074 0.369126 0.710392 0.34607 
0.581197 0.48866 0.490019 0.495127 0.758103 
0.98877 0.760116 0.612726 0.164528 0.996051 
0.6056 0.432403 0.718069 0.297178 0.0459332 
0.640549 0.505257 0.659676 0.115596 0.927121 
0.899443 0.838062 0.243584 0.525547 0.314956 
0.377766 0.122209 0.0435415 0.835981 0.080902 
0.69361 0.579337 0.797197 0.840652 0.583233 
0.44534 0.634183 0.0212317 0.72553 0.589957 
0.403357 0.375922 0.570226 0.273395 0.182959 
0.184947 0.0182046 0.256532 0.542879 0.882361 
0.844013 0.499749 0.269319 0.360726 0.464211 
0.326937 0.704791 0.942042 0.607995 0.130235 
0.127923 0.365337 0.562353 0.186839 0.540396 
0.824457 0.678422 0.226924 0.676367 0.41703 
0.932504 0.938346 0.688855 0.556433 0.489826 
0.527484 0.89891 0.282146 0.451766 0.542941 
0.718761 0.537344 0.320869 0.828561 0.0547716 
0.664674 0.0996581 0.329625 0.6589 0.976135 
0.161334 0.401359 0.0957977 0.13817 0.386252 
0.529034 0.167988 0.479323 0.444268 0.200168 
0.396154 0.731031 0.748249 0.813084 0.757014 
0.442064 0.70963 0.611759 0.607624 0.368537 
0.620694 0.532233 0.31014 0.641081 0.875976 
0.655364 0.472444 0.90469 0.211955 0.0634638 
0.982441 0.512899 0.615283 0.218532 0.425382 
0.724086 0.495961 0.805364 0.158242 0.994982 
0.0537356 0.9948 0.707032 0.184663 0.067523 
0.818616 0.25522 0.943026 0.917363 0.878471 
0.865293 0.458812 0.419197 0.754394 0.117307 
0.716885 0.346654 0.391241 0.197769 0.732203 
0.30158 0.558606 0.989106 0.534265 0.824556 
0.591314 0.843547 0.0846572 0.742921 0.98353 
0.405747 0.756881 0.783727 0.356891 0.695187 
0.776154 0.224275 0.781894 0.113639 0.941715 
0.0976419 0.3776 0.0654831 0.663294 0.847562 
0.30468 0.443475 0.139223 0.784723 0.11593 
0.720798 0.294571 0.526209 0.612786 0.122462 
0.842597 0.768103 0.95524 0.329703 0.870777 
0.174441 0.512734 0.360337 0.605123 0.902129 
0.940447 0.664947 0.389105 0.26529 0.663806 
0.674139 0.985373 0.2974 0.965293 0.173073 
0.493414 0.0609557 0.526033 0.0746162 0.840557 
0.0343436 0.202578 0.140114 0.806818 0.469427 
0.805091 0.123249 0.537307 0.454123 0.351902 
0.791023 0.362119 0.920461 0.430803 0.955129 
0.136059 0.361017 0.561761 0.533168 0.853779 
0.76228 0.0970978 0.349323 0.610664 0.80283 
0.265326 0.116668 0.395265 0.511007 0.921446 
0.671006 0.634881 0.760155 0.0740745 0.836978 
0.102969 0.654981 0.710871 0.131491 0.157465 
0.44136 0.0314987 0.682652 0.847073 0.229658 
0.728028 0.988278 0.0609243 0.973638 0.500298 
0.462521 0.353985 0.490703 0.488308 0.0409639 
0.937588 0.5174 0.0317615 0.293923 0.603112 
0.508574 0.525599 0.691055 0.224379 0.608747 
0.275375 0.53524 0.376211 0.811032 0.518941 
0.883471 0.728956 0.955995 0.12972 0.951822 
0.990038 0.915557 0.8152 0.585027 0.225732 
0.490681 0.873161 0.384858 0.246798 0.63249 
0.891429 0.801284 0.909253 0.208345 0.725966 
0.318325 0.26918 0.849437 0.546094 0.370699 
0.0499487 0.93721 0.434142 0.07608 0.142485 
0.806112 0.487619 0.500733 0.667048 0.71684 
0.174803 0.882069 0.121077 0.451524 0.931831 
0.978576 0.427578 0.572602 0.73181 0.871284 
0.842506 0.529547 0.277018 0.981583 0.622113 
0.990295 0.0135562 0.789418 0.874771 0.294154 
0.840861 0.840262 0.348019 0.961941 0.807654 
0.104677 0.499644 0.513513 0.826463 0.844883 
0.0666232 0.555751 0.0172941 0.332612 0.863474 
0.176476 0.689401 0.379233 0.742254 0.843501 
0.237123 0.0348927 0.511501 0.118864 0.124029 
0.894035 0.993793 0.6093 0.211139 0.604109 
0.786702 0.794549 0.265232 0.786938 0.444231 
0.227425 0.696738 0.302663 0.245639 0.760532 
0.197262 0.476835 0.553105 0.736823 0.199944 
0.999568 0.308532 0.727982 0.493789 0.113884 
0.846654 0.098022 0.111068 0.0877649 0.460808 
0.923953 0.899175 0.997459 0.294699 0.766257 
0.0937015 0.13777 0.0822185 0.733135 0.228686 
0.140671 0.581578 0.138318 0.968539 0.797265 
0.0252127 0.0453347 0.396284 0.685896 0.312349 
0.171965 0.784609 0.872604 0.704852 0.0167202 
0.245222 0.279123 0.911601 0.447794 0.711769 
0.377012 0.48222 0.242993 0.493444 0.591574 
0.828213 0.700453 0.511057 0.24848 0.0807505 
0.580409 0.638606 0.231562 0.413963 0.406926 
0.94802 0.686333 0.321222 0.786521 0.868365 
0.821871 0.487573 0.464072 0.850298 0.927125 
0.34587 0.132739 0.965653 0.514453 0.86205 
0.0401224 0.0202357 0.477974 0.540826 0.576934 
0.874355 0.510453 0.387488 0.0781973 0.108707 
0.359853 0.22511 0.725397 0.856685 0.435579 
0.269198 0.0569247 0.11406 0.868586 0.624722 
0.26537 0.543259 0.339957 0.30887 0.511045 
0.910055 0.775907 0.523845 0.948494 0.892339 
0.677906 0.436327 0.00308493 0.498777 0.916792 
0.287715 0.551447 0.706883 0.289164 0.600964 
0.327219 0.287864 0.499292 0.797751 0.0334219 
