1900 5
0.894304 0.117815 0.341442 0.0196734 0.281942 
0.554739 0.00551913 0.118668 0.864249 0.636014 
0.176879 0.738769 0.955592 0.692578 0.741676 
0.519845 0.691232 0.137481 0.204455 0.843909 
0.554209 0.701439 0.892184 0.956407 0.210483 
0.611158 0.227437 0.00242785 0.197807 0.250205 
0.168887 0.161159 0.0646801 0.244871 0.544626 
0.271228 0.730898 0.549885 0.428009 0.09907 
0.814691 0.849181 0.769298 0.772781 0.654844 
0.536676 0.0186017 0.487795 0.506172 0.0258547 
0.144532 0.621437 0.584847 0.851027 0.0501219 
0.406749 0.484988 0.677257 0.678036 0.871873 
0.62288 0.0819003 0.749664 0.647481 0.770732 
0.236465 0.942989 0.826299 0.532351 0.754425 
0.801109 0.15187 0.605036 0.861587 0.862986 
0.203808 0.530224 0.26776 0.963595 0.152727 
0.411097 0.684514 0.771293 0.63165 0.404644 
0.773643 0.171054 0.124673 0.1872 0.683745 
0.115151 0.87858 0.128973 0.280873 0.839488 
0.154211 0.701523 0.57432 0.92779 0.583348 
0.0150367 0.589084 0.244825 0.236876 0.979726 
0.453794 0.243327 0.234891 0.698232 0.579003 
0.395495 0.711154 0.713592 0.995182 0.266001 
0.676806 0.308578 0.466745 0.890617 0.831897 
0.670454 0.661333 0.0371072 0.49527 0.793425 
0.286315 0.863658 0.315365 0.106137 0.918818 
0.77068 0.295362 0.269872 0.903956 0.950558 
0.898083 0.62631 0.630841 0.54167 0.74497 
0.789598 0.5904 0.863265 0.518656 0.961194 
0.913315 0.600486 0.492004 0.138522 0.246736 
0.251709 0.407551 0.16786 0.999252 0.963028 
0.976093 0.101291 0.182776 0.243231 0.164183 
0.150304 0.9596 0.650365 0.510763 0.623286 
0.766228 0.0527969 0.810374 0.459068 0.792454 
0.326051 0.515882 0.988494 0.633486 0.0789748 
0.985062 0.85698 0.855288 0.0180763 0.628846 
0.513243 0.0474523 0.251941 0.39313 0.924598 
0.394848 0.3145 0.703483 0.904995 0.18154 
0.565546 0.4265 0.16784 0.232142 0.283305 
0.358596 0.472933 0.864755 0.0165226 0.47729 
0.158853 0.277338 0.135213 0.720271 0.648138 
0.480788 0.774081 0.277772 0.327432 0.794506 
0.39585 0.447936 0.109284 0.341729 0.86342 
0.125153 0.331321 0.899841 0.0686499 0.287697 
0.447841 0.653166 0.833288 0.596484 0.359304 
0.432595 0.201475 0.195363 0.170511 0.12351 
0.365261 0.0899676 0.567506 0.549721 0.413606 
0.216461 0.355328 0.542496 0.682724 0.529692 
0.826738 0.623208 0.128612 0.403346 0.211659 
0.352075 0.0967383 0.891259 0.720801 0.792451 
0.293812 0.502737 0.0881164 0.143609 0.826959 
0.713144 0.469777 0.131888 0.678373 0.0625319 
0.855609 0.387309 0.828689 0.248166 0.781445 
0.652809 0.0362774 0.788557 0.745816 0.229671 
0.86087 0.511717 0.638229 0.601091 0.387261 
0.645195 0.637216 0.558817 0.865873 0.443223 
0.655033 0.970686 0.553662 0.367964 0.12544 
0.564778 0.238564 0.286214 0.302105 0.428224 
0.73362 0.334539 0.380732 0.313915 0.770731 
0.654245 0.827138 0.11719 0.711325 0.0520921 
0.912499 0.74057 0.295844 0.224907 0.0752432 
0.728163 0.688566 0.334622 0.423295 0.217216 
0.299488 0.716374 0.268455 0.923552 0.611517 
0.202529 0.589922 0.58096 0.49366 0.530729 
0.801253 0.628282 0.711241 0.365377 0.830538 
0.0514798 0.834652 0.417381 0.541795 0.598484 
0.496964 0.855189 0.0980492 0.0701446 0.445074 
0.558368 0.355115 0.989883 0.561484 0.0239156 
0.783452 0.350435 0.103294 0.624064 0.42081 
0.121303 0.730456 0.807574 0.328851 0.382456 
0.492346 0.384201 0.269534 0.542864 0.573993 
0.359825 0.551451 0.263615 0.408359 0.99912 
0.198411 0.552195 0.405898 0.516776 0.97563 
0.405076 0.0372765 0.70803 0.523817 0.00429291 
0.65328 0.428375 0.259654 0.143409 0.00247012 
0.521199 0.0822613 0.269983 0.471325 0.911599 
0.603327 0.0337801 0.273349 0.273713 0.958765 
0.390905 0.872929 0.918647 0.808705 0.817685 
0.999607 0.229012 0.881508 0.00282683 0.449858 
0.657182 0.986988 0.999571 0.161218 0.704678 
0.142916 0.642347 0.771083 0.588368 0.0934681 
0.543824 0.683943 0.614028 0.962907 0.702036 
0.697291 0.377163 0.301959 0.556915 0.141928 
0.409178 0.483566 0.689366 0.69029 0.988877 
0.238057 0.870032 0.697881 0.121815 0.309624 
0.66681 0.618878 0.510065 0.0295408 0.0514494 
0.372761 0.753748 0.201085 0.739632 0.31686 
0.0790286 0.22577 0.533265 0.294335 0.768781 
0.817589 0.944213 0.224307 0.47087 0.0572396 
0.0734697 0.350644 0.192695 0.984389 0.666055 
0.418828 0.770711 0.494859 0.285648 0.960958 
0.374692 0.703016 0.716656 0.943138 0.655375 
0.0191521 0.653492 0.155515 0.644818 0.890771 
0.563531 0.726071 0.200189 0.6186 0.14627 
0.560931 0.510939 0.346104 0.208805 0.721007 
0.786381 0.486517 0.141872 0.998536 0.9799 
0.116855 0.196588 0.741598 0.0552788 0.886218 
0.673822 0.182201 0.15256 0.00780969 0.141852 
0.767777 0.524807 0.538841 0.347254 0.366282 
0.899293 0.119194 0.323332 0.842258 0.459466 
0.397582 0.491229 0.954808 0.270999 0.689119 
0.223131 0.0993754 0.592758 0.668946 0.792075 
0.896715 0.341712 0.985135 0.844822 0.295106 
0.981482 0.152215 0.414022 0.234121 0.545099 
0.968793 0.843425 0.647777 0.638229 0.202184 
0.612793 0.557578 0.471881 0.0169468 0.71726 
0.0595757 0.0512332 0.837349 0.840155 0.138825 
0.0136137 0.35969 0.878637 0.851009 0.847106 
0.800351 0.0907932 0.908605 0.840598 0.00278818 
0.802242 0.969614 0.573901 0.54375 0.422513 
0.762347 0.429218 0.761333 0.95865 0.574394 
0.489246 0.730915 0.0615759 0.689569 0.392399 
0.541701 0.299594 0.309266 0.913284 0.361233 
0.752046 0.328094 0.18801 0.371127 0.343858 
0.756451 0.0939486 0.429534 0.393726 0.0274523 
0.98281 0.219558 0.951619 0.598605 0.836561 
0.10018 0.772409 0.67784 0.902436 0.127737 
0.56539 0.900759 0.0287023 0.703504 0.445803 
0.591552 0.87654 0.182323 0.777861 0.451382 
0.357502 0.0499369 0.464149 0.119714 0.877291 
0.553977 0.698695 0.337066 0.928382 0.913694 
0.739737 0.202964 0.949171 0.805554 0.182159 
0.183481 0.565901 0.167244 0.565867 0.834038 
0.0791931 0.554982 0.564691 0.557113 0.718996 
0.301691 0.178259 0.357426 0.360664 0.263523 
0.925869 0.820852 0.556857 0.900697 0.996072 
0.211836 0.357258 0.659784 0.575593 0.154552 
0.845759 0.598928 0.714172 0.480746 0.866664 
0.449518 0.532093 0.955674 0.839197 0.502527 
0.0506316 0.346927 0.1797 0.784963 0.762182 
0.0347441 0.939011 0.608776 0.834489 0.131565 
0.769748 0.45132 0.688374 0.738027 0.383321 
0.192492 0.382506 0.0633016 0.197112 0.629858 
0.921316 0.723055 0.596432 0.731534 0.442271 
0.0825986 0.255814 0.47253 0.0922902 0.608919 
0.303778 0.561629 0.930952 0.498258 0.18306 
0.0913131 0.844965 0.42395 0.0814178 0.904627 
0.472954 0.463861 0.169785 0.259656 0.530733 
0.72714 0.342529 0.356764 0.983685 0.798258 
0.428055 0.866851 0.53542 0.0877024 0.0240135 
0.515604 0.0866895 0.042001 0.52065 0.310951 
0.442228 0.431861 0.240994 0.870768 0.895446 
0.854063 0.128446 0.532939 0.870661 0.530699 
0.968291 0.507684 0.227971 0.58167 0.506343 
0.326539 0.959597 0.549035 0.511661 0.19844 
0.938023 0.117141 0.395973 0.556548 0.331404 
0.0392852 0.870747 0.0205699 0.939927 0.387863 
0.863624 0.944025 0.260407 0.168909 0.599521 
0.387801 0.586065 0.509169 0.36552 0.998676 
0.445301 0.535024 0.180695 0.205607 0.591092 
0.369991 0.049289 0.540427 0.608802 0.418069 
0.201162 0.325319 0.98814 0.101115 0.405005 
0.317584 0.701364 0.33715 0.352046 0.133376 
0.912983 0.140308 0.956271 0.465441 0.53507 
0.623472 0.0646018 0.573508 0.50169 0.724238 
0.112445 0.579286 0.167976 0.106852 0.0575143 
0.0707536 0.316302 0.0824093 0.288613 0.822317 
0.211899 0.593841 0.808698 0.916286 0.123586 
0.0346713 0.483547 0.477427 0.166541 0.209638 
0.907539 0.114076 0.981426 0.943071 0.807111 
0.588986 0.404365 0.30732 0.266661 0.503249 
0.348478 0.831886 0.583565 0.512392 0.124139 
0.26216 0.77352 0.703635 0.127847 0.382868 
0.571392 0.622312 0.717497 0.886758 0.241962 
0.0739316 0.49539 0.993535 0.689463 0.817831 
0.495584 0.785039 0.923079 0.597993 0.992162 
0.155178 0.926395 0.441938 0.425078 0.498527 
0.111121 0.066343 0.220505 0.36795 0.606833 
0.916432 0.527045 0.869489 0.281899 0.489796 
0.345075 0.688564 0.761419 0.370397 0.491501 
0.106193 0.830205 0.465098 0.86613 0.078538 
0.480651 0.231282 0.868144 0.791691 0.765614 
0.866386 0.0786417 0.923931 0.836163 0.80425 
0.0939416 0.760122 0.58111 0.0326584 0.0476198 
0.42129 0.809605 0.912411 0.507027 0.637012 
0.682498 0.549709 0.718616 0.624164 0.450674 
0.0266514 0.101806 0.236592 0.92767 0.649596 
0.278638 0.119818 0.662402 0.443295 0.849174 
0.914763 0.990532 0.86928 0.630391 0.212801 
0.548336 0.654291 0.633247 0.0569276 0.530574 
0.23128 0.995155 0.573892 0.918887 0.569149 
0.386546 0.922796 0.275841 0.428433 0.217907 
0.0180366 0.348168 0.0672178 0.911513 0.420273 
0.596112 0.881743 0.12325 0.336739 0.498045 
0.282513 0.514905 0.89518 0.542795 0.716276 
0.175048 0.00819605 0.782265 0.0250922 0.902912 
0.217886 0.508592 0.868153 0.917027 0.583953 
0.982063 0.585645 0.498203 0.761479 0.910228 
0.518526 0.165408 0.0452482 0.67496 0.0957919 
0.975764 0.356988 0.953498 0.78996 0.752205 
0.402479 0.317467 0.896555 0.0456113 0.369302 
0.953782 0.0648558 0.662986 0.108573 0.843308 
0.117485 0.720099 0.482308 0.532023 0.857861 
0.0142467 0.0346297 0.376906 0.895182 0.769683 
0.462943 0.672436 0.720047 0.403736 0.400533 
0.431492 0.452514 0.431534 0.657169 0.546682 
0.686488 0.736182 0.623035 0.555358 0.17365 
0.602916 0.0811077 0.429841 0.819128 0.872516 
0.348369 0.715034 0.770146 0.240821 0.536335 
0.236595 0.496683 0.780025 0.124438 0.877762 
0.470468 0.187651 0.596622 0.359631 0.998179 
0.0408286 0.274446 0.228768 0.763401 0.190343 
0.582664 0.700223 0.297089 0.0655413 0.841002 
0.684641 0.159753 0.493147 0.690436 0.412668 
0.981842 0.330837 0.550369 0.48792 0.568754 
0.141288 0.835984 0.690021 0.0144001 0.194527 
0.458075 0.874854 0.52224 0.170404 0.569292 
0.613252 0.701569 0.398485 0.0696897 0.977758 
0.192079 0.628312 0.790572 0.872475 0.175125 
0.0460842 0.739068 0.786524 0.133288 0.877116 
0.63046 0.92452 0.382525 0.292949 0.793989 
0.07106 0.56864 0.453071 0.601798 0.607099 
0.706151 0.72018 0.348442 0.20826 0.839318 
0.483062 0.174373 0.343279 0.587617 0.317961 
0.272149 0.714067 0.682191 0.484447 0.433963 
0.0725141 0.149037 0.424803 0.644114 0.569018 
0.825135 0.417926 0.177617 0.510768 0.0957576 
0.356923 0.386357 0.0230326 0.205685 0.401567 
0.0712053 0.667522 0.83791 0.834793 0.779479 
0.185327 0.482594 0.923407 0.224618 0.0169944 
0.321633 0.597597 0.52667 0.883956 0.726385 
0.0339785 0.508257 0.113157 0.445932 0.72273 
0.254847 0.894155 0.113248 0.292236 0.525974 
0.281045 0.184665 0.358982 0.536709 0.462791 
0.115673 0.30326 0.0266286 0.253442 0.367039 
0.130303 0.391587 0.225173 0.811377 0.11509 
0.237102 0.0249411 0.982072 0.403282 0.715806 
0.0540333 0.897473 0.686699 0.394231 0.604407 
0.466164 0.157761 0.984706 0.55494 0.752324 
0.690606 0.797516 0.699497 0.578877 0.594693 
0.669572 0.125846 0.174639 0.106505 0.126744 
0.163519 0.533475 0.866416 0.106097 0.112599 
0.109652 0.322127 0.0323934 0.451265 0.672433 
0.282076 0.831793 0.483895 0.526428 0.452542 
0.968109 0.875953 0.714489 0.926971 0.152058 
0.0975617 0.74403 0.735195 0.582356 0.776197 
0.336204 0.984651 0.344748 0.263039 0.130017 
0.708416 0.0745053 0.239745 0.896724 0.666008 
0.102098 0.576263 0.841028 0.920726 0.351612 
0.352713 0.420018 0.713448 0.471535 0.416106 
0.345469 0.26473 0.284077 0.126425 0.0870596 
0.71124 0.61916 0.325677 0.78794 0.343748 
0.722704 0.139067 0.336691 0.638702 0.0797643 
0.347599 0.689969 0.0259494 0.584101 0.623817 
0.941445 0.231194 0.195178 0.0131219 0.357532 
0.633408 0.890365 0.587834 0.649706 0.811759 
0.178382 0.785386 0.60226 0.0263013 0.591997 
0.474194 0.503312 0.609661 0.916843 0.364803 
0.844079 0.0146888 0.324326 0.109095 0.624057 
0.0796089 0.503285 0.588417 0.807578 0.0872298 
0.659865 0.110115 0.439824 0.355572 0.719584 
0.494706 0.913427 0.172479 0.808933 0.957795 
0.811597 0.630085 0.785122 0.044308 0.499785 
0.372999 0.167688 0.143722 0.112312 0.729027 
0.0224168 0.335495 0.978756 0.440499 0.45792 
0.30444 0.0559744 0.589791 0.968823 0.734396 
0.508248 0.227401 0.990635 0.659518 0.541404 
0.117335 0.234253 0.0302194 0.300022 0.906485 
0.789291 0.792904 0.019205 0.814278 0.317896 
0.268052 0.216318 0.456745 0.168257 0.382691 
0.250549 0.323544 0.757011 0.709114 0.945948 
0.189783 0.15253 0.383457 0.779095 0.550801 
0.978263 0.407237 0.164472 0.716149 0.702293 
0.131909 0.994832 0.607045 0.459019 0.816108 
0.955972 0.32872 0.698972 0.495832 0.255627 
0.848824 0.886533 0.656742 0.909852 0.79582 
0.158272 0.679027 0.381709 0.0436089 0.127793 
0.678613 0.956862 0.0337642 0.275365 0.853363 
0.427554 0.748491 0.87319 0.560075 0.245555 
0.670128 0.0473743 0.293169 0.146132 0.60073 
0.239469 0.96391 0.107455 0.741731 0.277659 
0.588012 0.658275 0.880369 0.974044 0.581774 
0.810594 0.370499 0.859193 0.578108 0.880808 
0.423645 0.0163148 0.0331934 0.633521 0.728359 
0.731484 0.0640494 0.961531 0.965328 0.645504 
0.278693 0.760975 0.815577 0.554547 0.205257 
0.454732 0.616867 0.640398 0.966375 0.222968 
0.541188 0.185512 0.694282 0.474055 0.977295 
0.504684 0.650598 0.755426 0.898924 0.771817 
0.621948 0.798005 0.848097 0.389044 0.0941921 
0.841341 0.64465 0.255864 0.249331 0.48271 
0.231556 0.42349 0.292678 0.0932239 0.229676 
0.417068 0.324981 0.593888 0.933223 0.326069 
0.127406 0.653691 0.381972 0.654193 0.454128 
0.534856 0.193023 0.621822 0.0968545 0.473282 
0.3835 0.821075 0.866069 0.902559 0.90867 
0.67009 0.185456 0.773356 0.370145 0.463181 
0.992766 0.344165 0.869931 0.199071 0.559239 
0.65268 0.0455257 0.356199 0.825742 0.349642 
0.896335 0.319735 0.793416 0.051517 0.198219 
0.0924803 0.288742 0.0952954 0.0261569 0.283648 
0.372965 0.730923 0.191497 0.323242 0.954836 
0.785134 0.739241 0.45298 0.471992 0.337015 
0.590063 0.862401 0.398201 0.158948 0.644491 
0.943223 0.186211 0.700175 0.472202 0.761954 
0.744161 0.122117 0.0377631 0.794181 0.269105 
0.655751 0.711649 0.389916 0.0104088 0.25138 
0.588192 0.218647 0.740793 0.160571 0.104795 
0.00707098 0.0773309 0.758441 0.348091 0.858224 
0.510467 0.859589 0.0850339 0.303924 0.663742 
0.310708 0.662635 0.539881 0.547819 0.563285 
0.871464 0.841031 0.765749 0.191004 0.532067 
0.490392 0.473803 0.507669 0.0682127 0.147581 
0.903182 0.602873 0.0109832 0.655815 0.607526 
0.193493 0.426258 0.238822 0.779273 0.529075 
0.191441 0.38496 0.559485 0.379488 0.812953 
0.61512 0.655519 0.374788 0.999772 0.423637 
0.635183 0.797714 0.892279 0.967113 0.35612 
0.373648 0.478359 0.515026 0.527607 0.00721065 
0.439369 0.810464 0.884413 0.0277646 0.0564484 
0.494839 0.283284 0.91158 0.625584 0.621788 
0.854734 0.367743 0.226636 0.801013 0.719408 
0.0845373 0.816863 0.828932 0.310655 0.626624 
0.352204 0.226783 0.604258 0.598788 0.00828963 
0.425284 0.669704 0.219472 0.32335 0.0145982 
0.81629 0.870707 0.551496 0.372691 0.743272 
0.477476 0.00536705 0.0585154 0.248679 0.469592 
0.427825 0.463065 0.649829 0.326694 0.714872 
0.977815 0.25201 0.643665 0.773386 0.461696 
0.456896 0.219914 0.763769 0.417668 0.667105 
0.213561 0.69885 0.142908 0.787765 0.344391 
0.352828 0.344498 0.724353 0.0927325 0.783391 
0.762044 0.9902 0.88275 0.696365 0.127516 
0.138782 0.600319 0.73992 0.626351 0.58868 
0.379239 0.260024 0.64497 0.122811 0.522262 
0.486554 0.305962 0.394026 0.583575 0.954741 
0.0198257 0.392172 0.980464 0.599186 0.54636 
0.292637 0.473829 0.00867585 0.426153 0.0506177 
0.673742 0.833036 0.741596 0.588974 0.82003 
0.820773 0.996114 0.533812 0.616724 0.432786 
0.762768 0.540642 0.112481 0.106251 0.319528 
0.424223 0.780269 0.794013 0.803642 0.525028 
0.0909858 0.789589 0.378117 0.454897 0.864964 
0.973382 0.354585 0.576693 0.929931 0.279929 
0.822795 0.156509 0.0422929 0.390625 0.430324 
0.991751 0.203031 0.508836 0.992907 0.505165 
0.603991 0.776052 0.765638 0.971768 0.385575 
0.951648 0.716409 0.226963 0.152222 0.401476 
0.611588 0.63972 0.200779 0.670088 0.778973 
0.337803 0.641333 0.309046 0.856551 0.565127 
0.35642 0.285354 0.698609 0.181665 0.361135 
0.491455 0.628072 0.366292 0.714911 0.151943 
0.242092 0.275879 0.602989 0.857576 0.322369 
0.919194 0.65156 0.562385 0.194245 0.578013 
0.697122 0.923366 0.658006 0.354162 0.951777 
0.541248 0.995972 0.477423 0.284404 0.345571 
0.103372 0.416499 0.845762 0.194368 0.00715343 
0.0319862 0.0463153 0.542605 0.734907 0.802727 
0.39691 0.655304 0.11895 0.802652 0.503058 
0.481384 0.64453 0.129581 0.139896 0.0713906 
0.384326 0.44951 0.879934 0.543992 0.256464 
0.967599 0.264314 0.412168 0.0273436 0.731989 
0.0434826 0.885239 0.724152 0.120769 0.192742 
0.224087 0.601653 0.521913 0.541584 0.144316 
0.563135 0.916019 0.836733 0.734036 0.462327 
0.735653 0.895523 0.00652826 0.609676 0.473004 
0.232909 0.865734 0.019817 0.953057 0.275774 
0.489414 0.395242 0.921108 0.266472 0.703524 
0.930608 0.141158 0.508936 0.688015 0.677356 
0.282008 0.99001 0.138439 0.882524 0.289352 
0.033744 0.35551 0.606634 0.565887 0.107406 
0.798532 0.740756 0.332989 0.973918 0.723614 
0.0709203 0.356591 0.146985 0.304609 0.917127 
0.323792 0.363305 0.439001 0.580583 0.33582 
0.756 0.559971 0.77946 0.438257 0.719132 
0.798832 0.345096 0.965439 0.460415 0.0681897 
0.695252 0.388578 0.436361 0.868197 0.67262 
0.656059 0.058023 0.301882 0.135497 0.777953 
0.0423695 0.708504 0.799596 0.335519 0.0915171 
0.327227 0.608587 0.0208484 0.802215 0.825731 
0.158525 0.552016 0.366749 0.431298 0.711205 
0.804151 0.484737 0.676761 0.488008 0.0273984 
0.450938 0.0459634 0.809262 0.633615 0.620278 
0.33812 0.872967 0.417933 0.604293 0.872394 
0.841395 0.255376 0.189406 0.432003 0.153741 
0.375136 0.0803752 0.860935 0.625106 0.18815 
0.851281 0.728915 0.696745 0.718159 0.519561 
0.0398093 0.509346 0.547579 0.523401 0.921987 
0.803706 0.906144 0.496439 0.991286 0.106844 
0.135394 0.401701 0.0199023 0.0383464 0.660147 
0.688122 0.249845 0.57676 0.504227 0.144976 
0.161995 0.468362 0.816026 0.570521 0.0537401 
0.809278 0.938282 0.833556 0.033635 0.199314 
0.423897 0.818861 0.865721 0.650999 0.240249 
0.434834 0.910194 0.19587 0.799275 0.414831 
0.385037 0.899188 0.867208 0.156727 0.0326264 
0.938113 0.523546 0.388689 0.1687 0.948322 
0.0342941 0.0302152 0.378378 0.916162 0.900264 
0.0892018 0.746117 0.343421 0.901288 0.00054073 
0.990667 0.0613049 0.272286 0.146437 0.0563824 
0.176687 0.649775 0.00276535 0.716195 0.218752 
0.481878 0.58159 0.50959 0.346218 0.448828 
0.582673 0.523791 0.979788 0.150685 0.65657 
0.708869 0.322368 0.239687 0.333862 0.0866239 
0.101345 0.315418 0.705689 0.620424 0.593985 
0.799475 0.344959 0.516672 0.332488 0.0731173 
0.769072 0.883662 0.381212 0.672344 0.384088 
0.333404 0.0381185 0.835493 0.931994 0.340167 
0.478266 0.491528 0.790565 0.870956 0.33624 
0.615551 0.600025 0.79702 0.893852 0.638041 
0.120798 0.221881 0.257213 0.170453 0.737091 
0.333954 0.798836 0.211184 0.698566 0.280976 
0.946393 0.507491 0.69452 0.515775 0.0275328 
0.574975 0.593316 0.871554 0.505553 0.253493 
0.178106 0.67474 0.592384 0.992028 0.0550169 
0.763791 0.816301 0.791953 0.300642 0.0239768 
0.726731 0.58029 0.950905 0.472537 0.62119 
0.930133 0.537771 0.166409 0.207248 0.468744 
0.844385 0.630418 0.296012 0.652675 0.0014611 
0.852537 0.13279 0.86781 0.55962 0.399424 
0.727709 0.922493 0.165974 0.311627 0.320637 
0.378188 0.0436144 0.452231 0.20217 0.890319 
0.970829 0.251796 0.402829 0.112829 0.921535 
0.862066 0.423616 0.247985 0.954401 0.078249 
0.80413 0.091452 0.625467 0.63013 0.79022 
0.569086 0.876982 0.820385 0.852826 0.183032 
0.643567 0.613504 0.800477 0.501635 0.642163 
0.28937 0.343831 0.268952 0.986873 0.681161 
0.519285 0.448438 0.916168 0.413287 0.202559 
0.220782 0.410256 0.970045 0.319746 0.0922037 
0.816895 0.0514345 0.255981 0.569467 0.339988 
0.855504 0.499982 0.888922 0.147162 0.960056 
0.370989 0.902194 0.560802 0.420363 0.568617 
0.24171 0.770859 0.954221 0.0829328 0.946409 
0.0218641 0.795405 0.126741 0.000930669 0.629402 
0.270605 0.219124 0.927153 0.207199 0.161576 
0.179331 0.765279 0.633374 0.912609 0.355976 
0.482181 0.930802 0.523581 0.971983 0.269732 
0.890625 0.842188 0.250763 0.76798 0.944174 
0.899288 0.442757 0.45279 0.0860757 0.473846 
0.798664 0.598861 0.605988 0.40066 0.755438 
0.783537 0.116347 0.873225 0.797017 0.529359 
0.827702 0.407906 0.695681 0.562925 0.821956 
0.883788 0.452951 0.689413 0.335152 0.705627 
0.513897 0.891672 0.0517294 0.219449 0.637145 
0.746011 0.145036 0.69255 0.0621676 0.637685 
0.773054 0.85557 0.630848 0.326842 0.826974 
0.0503649 0.692941 0.979073 0.154282 0.148368 
0.290282 0.0373821 0.53344 0.565186 0.0755043 
0.986702 0.299273 0.136282 0.788087 0.661113 
0.277585 0.860391 0.0166653 0.500548 0.745991 
0.127419 0.146593 0.995613 0.938115 0.0239671 
0.366708 0.969306 0.380463 0.893738 0.521207 
0.085359 0.880759 0.30367 0.538306 0.6906 
0.705579 0.970523 0.737316 0.334384 0.249475 
0.867592 0.547853 0.356195 0.601292 0.71533 
0.453327 0.0673838 0.480167 0.725242 0.197843 
0.226343 0.395485 0.158792 0.219788 0.301541 
0.812158 0.825519 0.134168 0.108472 0.933015 
0.868881 0.464925 0.352925 0.63117 0.613733 
0.6124 0.674693 0.421453 0.335425 0.813769 
0.854541 0.118092 0.00562939 0.283971 0.11252 
0.565111 0.212501 0.656997 0.34998 0.534085 
0.5774 0.62922 0.56074 0.572427 0.150467 
0.357612 0.821594 0.523841 0.300433 0.100322 
0.313276 0.302734 0.103149 0.790934 0.44693 
0.279729 0.533298 0.788811 0.447136 0.457592 
0.364361 0.696211 0.457801 0.850441 0.695239 
0.56176 0.849057 0.699241 0.316091 0.165246 
0.378259 0.883207 0.110439 0.31531 0.0669374 
0.290112 0.516225 0.254422 0.375024 0.685432 
0.499769 0.19413 0.146258 0.0182311 0.36017 
0.938803 0.856174 0.965653 0.366341 0.0939961 
0.474026 0.638289 0.721465 0.669285 0.362649 
0.376717 0.220313 0.843038 0.814716 0.976346 
0.806888 0.738657 0.641763 0.559566 0.361842 
0.215556 0.365359 0.16552 0.980133 0.130682 
0.591463 0.46103 0.286983 0.588035 0.726132 
0.20121 0.928569 0.524662 0.748927 0.66951 
0.684927 0.00152089 0.0783083 0.198331 0.610229 
0.759767 0.212894 0.262756 0.63635 0.562201 
0.182902 0.148705 0.96025 0.460642 0.0196226 
0.615439 0.492929 0.928054 0.987605 0.903644 
0.339359 0.404302 0.554456 0.958165 0.420347 
0.710119 0.578253 0.0437002 0.289416 0.245136 
0.827087 0.452456 0.813147 0.765199 0.557202 
0.0990135 0.306047 0.5164 0.275826 0.401499 
0.182444 0.339357 0.152283 0.143081 0.931187 
0.745294 0.434335 0.932114 0.709242 0.594996 
0.479776 0.322047 0.578991 0.664224 0.531036 
0.599206 0.839342 0.652178 0.555825 0.00346345 
0.241815 0.200326 0.716536 0.0400076 0.590929 
0.869277 0.322588 0.272971 0.253279 0.558002 
0.866438 0.542384 0.854479 0.742494 0.233774 
0.19735 0.783613 0.34657 0.905423 0.382441 
0.121279 0.190581 0.61181 0.830459 0.909714 
0.264751 0.114949 0.07143 0.955128 0.628704 
0.268518 0.385453 0.708012 0.988929 0.660517 
0.943784 0.966993 0.459237 0.934805 0.743586 
0.539182 0.211425 0.912774 0.847117 0.0938755 
0.367513 0.625435 0.752662 0.595587 0.836485 
0.415514 0.332808 0.964635 0.39695 0.351116 
0.593646 0.289591 0.489057 0.134038 0.843464 
0.386609 0.297675 0.187046 0.742908 0.0813919 
0.917201 0.97016 0.919942 0.986506 0.780865 
0.118826 0.335417 0.424213 0.049152 0.0117286 
0.710069 0.24502 0.70739 0.296492 0.342223 
0.188608 0.693033 0.156612 0.497988 0.497459 
0.210295 0.645065 0.850205 0.0746696 0.369203 
0.871207 0.920069 0.811453 0.999759 0.0180376 
0.120291 0.527095 0.29629 0.279417 0.704717 
0.234046 0.2911 0.454462 0.94769 0.348363 
0.839215 0.809389 0.67066 0.896318 0.902951 
0.603749 0.553022 0.713293 0.466204 0.822221 
0.047768 0.205011 0.658014 0.609198 0.0394038 
0.388588 0.581748 0.879515 0.380666 0.157348 
0.518184 0.669327 0.440062 0.190426 0.224487 
0.0659636 0.459522 0.364712 0.601072 0.607589 
0.207778 0.194279 0.309589 0.558249 0.778773 
0.806879 0.237745 0.269536 0.652553 0.280883 
0.264012 0.0499722 0.437681 0.494221 0.239067 
0.200043 0.907584 0.937947 0.0475762 0.995997 
0.82982 0.955783 0.6124 0.491061 0.0854176 
0.232904 0.558577 0.317058 0.680404 0.726716 
0.253158 0.721971 0.733314 0.091735 0.940362 
0.535404 0.869661 0.184093 0.207797 0.867479 
0.499945 0.110042 0.996769 0.574957 0.360585 
0.464649 0.00568596 0.514837 0.155737 0.0210175 
0.519927 0.99278 0.84615 0.488066 0.325312 
0.544019 0.712948 0.441932 0.871574 0.95739 
0.914341 0.395796 0.347338 0.31765 0.167522 
0.127413 0.495867 0.182236 0.686772 0.242377 
0.998173 0.719944 0.792301 0.507147 0.0211366 
0.209022 0.942293 0.163281 0.50897 0.940503 
0.627875 0.580897 0.486026 0.452142 0.497956 
0.255655 0.481346 0.625053 0.466132 0.302807 
0.0501846 0.162638 0.829963 0.157722 0.920377 
0.740396 0.0326781 0.589615 0.847294 0.975901 
0.277729 0.310359 0.488954 0.934771 0.846404 
0.964463 0.498287 0.990587 0.820965 0.533121 
0.717366 0.375015 0.958958 0.740369 0.0986305 
0.711068 0.63101 0.703332 0.6539 0.201339 
0.867873 0.649914 0.261256 0.502614 0.84538 
0.290257 0.713856 0.229676 0.232198 0.0345953 
0.489799 0.238054 0.0846603 0.838045 0.424683 
0.0348329 0.140507 0.561369 0.734732 0.773664 
0.779722 0.383288 0.860856 4.922e-05 0.656429 
0.407115 0.205366 0.33956 0.467712 0.601234 
0.972474 0.549006 0.33629 0.982727 0.703444 
0.00215736 0.840846 0.0790739 0.718446 0.615584 
0.582391 0.723883 0.307974 0.683076 0.0438808 
0.0579019 0.79294 0.604518 0.648128 0.635095 
0.774286 0.2879 0.174973 0.864017 0.285839 
0.256112 0.826916 0.489064 0.641482 0.631503 
0.858258 0.275748 0.0639259 0.156384 0.636335 
0.165294 0.988981 0.159828 0.198377 0.610976 
0.601711 0.23944 0.368605 0.0648997 0.0655849 
0.768062 0.272647 0.339704 0.2297 0.396576 
0.727839 0.0487004 0.265756 0.806575 0.447074 
0.329643 0.375878 0.284813 0.729057 0.64782 
0.314738 0.125749 0.87482 0.275794 0.652872 
0.738732 0.0487298 0.164862 0.940862 0.296057 
0.504814 0.613482 0.743135 0.84574 0.991647 
0.160424 0.611949 0.818871 0.531641 0.983739 
0.472153 0.57273 0.423242 0.099466 0.740044 
0.359655 0.293054 0.874671 0.602215 0.483871 
0.371101 0.70804 0.796621 0.164029 0.583999 
0.967298 0.121412 0.974402 0.404636 0.233371 
0.821217 0.300865 0.0741004 0.0781324 0.466286 
0.802325 0.0490916 0.221783 0.9062 0.293576 
0.799778 0.795075 0.216294 0.209278 0.174874 
0.47018 0.937397 0.574768 0.269781 0.0694214 
0.911512 0.133519 0.245067 0.216577 0.464909 
0.376297 0.0941832 0.996771 0.884512 0.763322 
0.632119 0.796166 0.917884 0.921293 0.423615 
0.67282 0.49474 0.0972793 0.150471 0.519638 
0.540339 0.171764 0.881304 0.678059 0.759392 
0.281982 0.985288 0.524894 0.142911 0.323028 
0.179271 0.667261 0.784784 0.298273 0.904478 
0.659389 0.597577 0.765344 0.0527943 0.593831 
0.301784 0.580802 0.084582 0.17536 0.919291 
0.360168 0.526881 0.00562358 0.0695118 0.162065 
0.0468489 0.0271147 0.950491 0.0654902 0.349233 
0.607802 0.0979989 0.189018 0.053168 0.320058 
0.413156 0.544246 0.396665 0.414157 0.0707949 
0.500843 0.8283 0.476379 0.0308763 0.192241 
0.217697 0.173239 0.778005 0.226492 0.632692 
0.332285 0.774113 0.680367 0.429508 0.641899 
0.0424207 0.457825 0.544282 0.998633 0.661856 
0.52352 0.631348 0.133576 0.0803139 0.500981 
0.316053 0.0946262 0.094712 0.779753 0.178068 
0.829816 0.83837 0.634426 0.662276 0.892795 
0.223677 0.139474 0.182178 0.757589 0.356698 
0.124355 0.854533 0.86579 0.763775 0.137897 
0.337453 0.26396 0.955673 0.324229 0.570707 
0.366578 0.404185 0.786878 0.0165324 0.0784314 
0.0170122 0.342436 0.542401 0.740887 0.275201 
0.932624 0.583328 0.751794 0.899891 0.0971485 
0.48593 0.817606 0.282936 0.180619 0.314409 
0.162262 0.333576 0.593059 0.0450918 0.538391 
0.783964 0.871868 0.508796 0.35048 0.124542 
0.843595 0.620451 0.500658 0.960206 0.0814996 
0.983425 0.296355 0.287367 0.332949 0.47412 
0.91613 0.530738 0.270385 0.717759 0.903862 
0.932484 0.380875 0.354806 0.33053 0.632887 
0.338679 0.940131 0.344836 0.582081 0.448005 
0.650038 0.426345 0.55347 0.226987 0.193274 
0.612112 0.444051 0.886936 0.967589 0.984484 
0.621176 0.66663 0.847718 0.837997 0.314182 
0.535979 0.645178 0.25673 0.122767 0.645874 
0.380426 0.988568 0.793366 0.135505 0.244763 
0.671475 0.776077 0.535948 0.578887 0.0717514 
0.0643825 0.393381 0.679871 0.0754472 0.324965 
0.70704 0.623755 0.447048 0.427726 0.402127 
0.775943 0.605797 0.0429905 0.347075 0.606963 
0.442018 0.00675826 0.81838 0.788036 0.469973 
0.770543 0.472797 0.514676 0.873922 0.990026 
0.865249 0.904316 0.355319 0.388782 0.756533 
0.016851 0.490919 0.284576 0.551397 0.53859 
0.0537021 0.0943728 0.733871 0.999859 0.44918 
0.359856 0.251663 0.701935 0.451026 0.734923 
0.285959 0.507775 0.477694 0.0408941 0.161405 
0.945252 0.290743 0.451352 0.385544 0.286101 
0.555547 0.948369 0.611793 0.213995 0.900546 
0.787266 0.326903 0.450119 0.99111 0.899665 
0.74474 0.714742 0.246118 0.640124 0.8301 
0.874005 0.560552 0.28169 0.307115 0.816334 
0.466227 0.586776 0.688166 0.08745 0.103028 
0.531282 0.609167 0.352528 0.477563 0.699983 
0.274752 0.862882 0.524687 0.172669 0.028914 
0.254919 0.32261 0.878342 0.807628 0.0402686 
0.277252 0.327481 0.692147 0.922102 0.77342 
0.484999 0.600404 0.858178 0.109064 0.122342 
0.353376 0.551794 0.400438 0.48151 0.43409 
0.935214 0.351907 0.575306 0.778016 0.369631 
0.387319 0.380459 0.239452 0.578966 0.957178 
0.891339 0.764123 0.507073 0.771912 0.318112 
0.545775 0.0454955 0.466335 0.535248 0.570261 
0.445509 0.104641 0.625035 0.953546 0.460086 
0.935062 0.469497 0.577353 0.977864 0.763752 
0.823696 0.302627 0.201644 0.130192 0.496252 
0.240484 0.50551 0.45171 0.890357 0.00172343 
0.082338 0.567231 0.989483 0.920282 0.146087 
0.657906 0.945328 0.565219 0.840997 0.157537 
0.0767338 0.119579 0.672852 0.204304 0.293167 
0.489536 0.697696 0.32028 0.984866 0.823008 
0.676479 0.468983 0.156598 0.483747 0.00730139 
0.555894 0.910604 0.711738 0.880354 0.348062 
0.0532806 0.158827 0.886936 0.11005 0.289004 
0.444053 0.44248 0.508278 0.0618874 0.362093 
0.347063 0.817356 0.216086 0.0356834 0.328999 
0.273909 0.477267 0.783653 0.550656 0.146656 
0.922176 0.933903 0.691088 0.85936 0.736503 
0.880153 0.617172 0.496194 0.393491 0.247975 
0.416035 0.950871 0.92487 0.648706 0.403969 
0.443248 0.70828 0.315349 0.767343 0.0935781 
0.0137627 0.776881 0.0254307 0.495153 0.727698 
0.299448 0.754645 0.760085 0.395594 0.323775 
0.340396 0.670149 0.621295 0.626189 0.700627 
0.831919 0.0510974 0.277673 0.360685 0.685846 
0.716695 0.727435 0.424766 0.252698 0.690811 
0.0598956 0.466225 0.793671 0.693945 0.464032 
0.3229 0.0176748 0.0378595 0.376472 0.624953 
0.610025 0.49036 0.273326 0.387781 0.850146 
0.71789 0.390557 0.0589985 0.270672 0.659717 
0.696264 0.145021 0.272098 0.0936936 0.922768 
0.488576 0.282985 0.922093 0.664753 0.295316 
0.50052 0.116677 0.44471 0.42634 0.607471 
0.809569 0.841217 0.0320111 0.320796 0.120213 
0.805167 0.387749 0.08987 0.0217105 0.987228 
0.282205 0.81102 0.154649 0.796882 0.770182 
0.141003 0.94552 0.739936 0.863662 0.925458 
0.290918 0.958107 0.760671 0.534621 0.0851889 
0.344114 0.966953 0.61177 0.507948 0.229774 
0.328481 0.10086 0.948019 0.114496 0.438685 
0.138913 0.976614 0.897476 0.461241 0.868875 
0.527178 0.892591 0.355332 0.100615 0.25673 
0.778043 0.546108 0.733532 0.423658 0.90814 
0.951381 0.830481 0.368256 0.267007 0.132397 
0.929767 0.264739 0.541318 0.757642 0.143843 
0.892011 0.00167904 0.863652 0.793904 0.0176759 
0.613285 0.272612 0.716367 0.236428 0.804081 
0.78149 0.92207 0.480178 0.354461 0.438576 
0.187834 0.643448 0.341597 0.106458 0.413667 
0.858554 0.662328 0.0216552 0.768657 0.16723 
0.65666 0.30702 0.533182 0.425945 0.755814 
0.724036 0.351436 0.261728 0.744392 0.591987 
0.124165 0.0601615 0.792276 0.344522 0.622802 
0.620375 0.0846411 0.953195 0.0538658 0.449602 
0.372689 0.255913 0.661667 0.768254 0.075631 
0.907626 0.0390945 0.827413 0.626364 0.437419 
0.969454 0.377968 0.517902 0.979898 0.305911 
0.70439 0.0737317 0.412948 0.331154 0.12791 
0.0818688 0.0786976 0.262275 0.0163975 0.956194 
0.364251 0.722342 0.199335 0.354851 0.301456 
0.773731 0.346825 0.272389 0.954141 0.975491 
0.735543 0.532364 0.714202 0.0529838 0.518515 
0.0170672 0.686217 0.984595 0.0705664 0.685917 
0.245241 0.00307978 0.0557374 0.736031 0.564847 
0.123025 0.216567 0.0803158 0.668025 0.404875 
0.672899 0.440314 0.231102 0.241757 0.401581 
0.290962 0.796647 0.572397 0.594671 0.792983 
0.170957 0.734705 0.369734 0.525552 0.450885 
0.742133 0.981764 0.277208 0.830621 0.370711 
0.621477 0.839694 0.806343 0.820391 0.410238 
0.719024 0.0498722 0.60284 0.855263 0.854785 
0.514604 0.665677 0.900313 0.309191 0.721357 
0.898692 0.154974 0.207066 0.29578 0.423755 
0.122206 0.263418 0.626233 0.231773 0.886123 
0.989342 0.904834 0.808382 0.259247 0.965361 
0.384624 0.90321 0.836954 0.213743 0.398742 
0.170019 0.281165 0.278181 0.788028 0.199115 
0.951779 0.576922 0.869771 0.389832 0.950412 
0.871169 0.605888 0.605078 0.521821 0.716176 
0.939526 0.886218 0.109341 0.806618 0.936907 
0.771652 0.814648 0.302814 0.435908 0.396943 
0.277904 0.427283 0.467787 0.49681 0.429187 
0.746276 0.0222379 0.816124 0.0284918 0.970274 
0.00739848 0.723124 0.781222 0.665783 0.0456883 
0.237018 0.0285157 0.54514 0.278468 0.00301283 
0.980141 0.64077 0.778869 0.622718 0.887921 
0.244809 0.769619 0.535213 0.998135 0.127585 
0.103521 0.92805 0.359635 0.554944 0.837805 
0.032006 0.417665 0.347081 0.842978 0.310174 
0.34304 0.920379 0.895898 0.908615 0.611147 
0.996208 0.194243 0.844772 0.880571 0.0777439 
0.0680763 0.35471 0.143487 0.888462 0.422135 
0.655041 0.950891 0.888245 0.889296 0.445563 
0.879047 0.946187 0.364218 0.780966 0.991166 
0.483641 0.337726 0.502554 0.425901 0.168608 
0.346032 0.384222 0.678811 0.984056 0.423047 
0.141423 0.274433 0.957839 0.798288 0.818798 
0.740257 0.0445855 0.373845 0.982487 0.908758 
0.414033 0.311569 0.257021 0.489134 0.693807 
0.736478 0.700139 0.162426 0.614799 0.0308436 
0.712151 0.815642 0.811589 0.744011 0.860038 
0.836297 0.485338 0.176834 0.75649 0.792416 
0.7203 0.734287 0.314852 0.97804 0.23518 
0.288587 0.116557 0.830613 0.814529 0.90956 
0.522304 0.870464 0.305149 0.3481 0.0998758 
0.0175835 0.803747 0.100457 0.0962 0.584021 
0.818878 0.311381 0.508474 0.545903 0.0585495 
0.205799 0.0733111 0.256295 0.899688 0.361606 
0.456998 0.192044 0.226776 0.905485 0.822628 
0.428083 0.812553 0.749701 0.403729 0.739716 
0.647638 0.839651 0.929107 0.485009 0.162804 
0.498357 0.258482 0.54948 0.165076 0.494403 
0.718596 0.874491 0.202884 0.0961711 0.0869624 
0.240127 0.696568 0.35856 0.323269 0.102134 
0.0194931 0.168329 0.456507 0.894217 0.733659 
0.475234 0.97021 0.0733417 0.177908 0.661613 
0.534179 0.229276 0.239883 0.92218 0.137604 
0.0613414 0.111861 0.482534 0.562672 0.0781839 
0.455291 0.399255 0.925542 0.314557 0.337655 
0.75748 0.465028 0.748659 0.859241 0.894698 
0.339409 0.390681 0.797562 0.322667 0.949387 
0.336548 0.658058 0.926821 0.334637 0.495313 
0.359831 0.42053 0.39996 0.937208 0.478148 
0.865893 0.516994 0.437278 0.0824396 0.0271832 
0.933164 0.743189 0.497382 0.609145 0.935697 
0.924919 0.228374 0.0533506 0.512533 0.749243 
0.443009 0.533302 0.213906 0.0800416 0.996385 
0.957042 0.594615 0.28762 0.397957 0.300081 
0.71365 0.000181526 0.282227 0.0324596 0.853967 
0.628429 0.830408 0.724622 0.632032 0.726729 
0.131207 0.153727 0.768555 0.141471 0.726421 
0.296167 0.789574 0.977734 0.981806 0.846293 
0.667331 0.955503 0.830601 0.701066 0.0749933 
0.00783501 0.0649215 0.788657 0.0562729 0.587121 
0.612825 0.683086 0.552893 0.381787 0.704224 
0.910084 0.311616 0.919929 0.892138 0.981418 
0.358468 0.248634 0.30748 0.519909 0.646552 
0.96583 0.803871 0.222387 0.977423 0.7453 
0.178308 0.462348 0.272568 0.886308 0.131249 
0.967521 0.447973 0.0327365 0.244734 0.0876081 
0.78543 0.121685 0.643627 0.632173 0.93596 
0.886648 0.393454 0.795798 0.424954 0.930495 
0.363955 0.384721 0.543816 0.747512 0.129016 
0.923164 0.466409 0.782389 0.563657 0.227712 
0.416102 0.914345 0.789487 0.519668 0.57751 
0.545498 0.894105 0.978873 0.940995 0.837378 
0.665847 0.840926 0.473464 0.738235 0.833334 
0.73727 0.678739 0.0464186 0.801558 0.158528 
0.191863 0.474785 0.937003 0.125135 0.455747 
0.885812 0.67999 0.114248 0.484567 0.522244 
0.0857662 0.474446 0.65614 0.856556 0.51155 
0.14007 0.155152 0.257209 0.112261 0.149943 
0.252868 0.20046 0.905347 0.427577 0.754623 
0.0469915 0.0420614 0.822616 0.963147 0.741153 
0.904524 0.92192 0.0937204 0.433209 0.985831 
0.626429 0.00260838 0.0475046 0.08018 0.330222 
0.865187 0.0961512 0.916914 0.526892 0.36832 
0.379034 0.88953 0.0305757 0.379954 0.475703 
0.684012 0.725489 0.608853 0.25857 0.438041 
0.826718 0.630325 0.927237 0.210096 0.393013 
0.529291 0.434933 0.0247082 0.488963 0.98213 
0.782171 0.68435 0.431187 0.928102 0.261306 
0.0324836 0.402628 0.42818 0.873585 0.5074 
0.16739 0.96922 0.0931344 0.580505 0.508377 
0.712791 0.715105 0.593961 0.530222 0.789454 
0.211368 0.773903 0.123397 0.925748 0.120034 
0.597763 0.861633 0.300688 0.077381 0.827621 
0.914602 0.174223 0.93624 0.458163 0.122427 
0.851267 0.196256 0.993586 0.855345 0.242619 
0.257739 0.327911 0.574351 0.220089 0.31708 
0.620517 0.757298 0.806673 0.12009 0.731975 
0.795312 0.431118 0.602049 0.0634597 0.551485 
0.336444 0.736178 0.0997748 0.670637 0.656 
0.33665 0.789384 0.900949 0.0309582 0.351323 
0.769516 0.837409 0.949543 0.893698 0.0209699 
0.654041 0.628549 0.39786 0.66092 0.719059 
0.668509 0.442777 0.959678 0.522328 0.69041 
0.407088 0.477672 0.200431 0.267401 0.0506202 
0.559444 0.745288 0.182796 0.531355 0.328904 
0.845097 0.333503 0.168464 0.36791 0.544001 
0.596203 0.441401 0.510559 0.345155 0.629485 
0.00840486 0.33966 0.619193 0.0488091 0.0477542 
0.381445 0.623916 0.419054 0.336356 0.788774 
0.809924 0.643842 0.960502 0.108457 0.614883 
0.973732 0.236571 0.848915 0.655014 0.88808 
0.477771 0.650362 0.739328 0.829594 0.773473 
0.893221 0.703691 0.296126 0.29884 0.917229 
0.710162 0.340472 0.207274 0.371507 0.972108 
0.133052 0.792723 0.715376 0.376972 0.875169 
0.513851 0.032169 0.232206 0.977607 0.623125 
0.622172 0.648443 0.611127 0.0481595 0.0556277 
0.592891 0.489968 0.543932 0.668488 0.808146 
0.224904 0.682626 0.103527 0.433978 0.118015 
0.208124 0.99452 0.31387 0.164167 0.336461 
0.232398 0.871032 0.798035 0.61291 0.913911 
0.991227 0.985507 0.968127 0.783194 0.833706 
0.175651 0.827032 0.628475 0.463965 0.539315 
0.157888 0.498316 0.836065 0.265129 0.587036 
0.749647 0.708801 0.485823 0.367968 0.835976 
0.812074 0.333054 0.237413 0.129898 0.754968 
0.743782 0.218203 0.687436 0.0882283 0.226221 
0.497057 0.529912 0.136193 0.44421 0.239047 
0.5359 0.789047 0.767478 0.969266 0.380807 
0.575299 0.425967 0.388177 0.116228 0.276831 
0.115766 0.760867 0.472716 0.382696 0.744493 
0.350915 0.465021 0.458731 0.868441 0.99097 
0.183534 0.559439 0.530109 0.163693 0.406898 
0.39699 0.682862 0.347297 0.66126 0.859007 
0.619724 0.319232 0.384892 0.785829 0.816673 
0.351777 0.81743 0.989486 0.686386 0.487686 
0.905062 0.575792 0.659958 0.804084 0.980422 
0.270036 0.480108 0.707214 0.811942 0.919672 
0.120491 0.526354 0.972226 0.854312 0.508356 
0.0708943 0.253606 0.670963 0.445569 0.921008 
0.940903 0.864855 0.584333 0.7449 0.358093 
0.601995 0.503297 0.719665 0.8443 0.317818 
0.201005 0.953242 0.724144 0.55102 0.671898 
0.0317148 0.751625 0.549862 0.58639 0.147504 
0.642563 0.989121 0.19263 0.129163 0.260878 
0.38674 0.619847 0.537043 0.989061 0.744912 
0.487479 0.0827453 0.11103 0.846336 0.840745 
0.0314639 0.815145 0.483992 0.865576 0.600525 
0.682283 0.724388 0.885987 0.243147 0.0536348 
0.093905 0.582892 0.963802 0.545827 0.473628 
0.587572 0.765078 0.732319 0.454884 0.304357 
0.924434 0.810406 0.966193 0.622146 0.122067 
0.39597 0.745474 0.807034 0.22595 0.609764 
0.204667 0.398406 0.268917 0.301581 0.604533 
0.656838 0.694614 0.811525 0.827025 0.0599046 
0.512194 0.726675 0.652664 0.269442 0.401517 
0.837538 0.52968 0.688412 0.778219 0.977614 
0.563153 0.0320892 0.24157 0.0410265 0.364308 
0.972714 0.409604 0.944903 0.0218709 0.0886924 
0.823704 0.962832 0.476049 0.00695357 0.543817 
0.26892 0.465111 0.776667 0.0524038 0.0371032 
0.975563 0.880061 0.903909 0.949579 0.73085 
0.235695 0.846854 0.786623 0.512711 0.351454 
0.931099 0.507146 0.572932 0.374939 0.38638 
0.230729 0.994514 0.212125 0.0917993 0.761406 
0.16101 0.672965 0.210833 0.239276 0.788562 
0.694668 0.881726 0.0835419 0.558781 0.830282 
0.601257 0.270915 0.310578 0.314355 0.0409544 
0.549519 0.562459 0.373127 0.382154 0.642426 
0.889352 0.795345 0.372562 0.0972332 0.159367 
0.300898 0.367521 0.873844 0.779469 0.665963 
0.556557 0.433436 0.693108 0.723182 0.458002 
0.154864 0.0808508 0.126902 0.0365028 0.819397 
0.839595 0.0257392 0.975674 0.288367 0.534326 
0.712933 0.605512 0.532059 0.820854 0.80946 
0.633871 0.180405 0.383319 0.867408 0.578654 
0.155532 0.55595 0.631598 0.0435101 0.0535433 
0.506262 0.318951 0.615249 0.46424 0.950662 
0.266935 0.659037 0.0727625 0.344758 0.671126 
0.727753 0.749611 0.900235 0.781528 0.409151 
0.768302 0.67849 0.0644861 0.578869 0.223968 
0.389664 0.147804 0.79633 0.155471 0.622464 
0.805867 0.98201 0.642804 0.179107 0.786203 
0.469029 0.734283 0.34898 0.58914 0.452465 
0.484674 0.787397 0.356773 0.932894 0.189177 
0.708384 0.559476 0.620995 0.474067 0.949124 
0.174834 0.87447 0.603752 0.479096 0.726199 
0.615254 0.428302 0.543276 0.68459 0.889083 
0.26471 0.223079 0.676392 0.250456 0.561855 
0.600292 0.820663 0.277078 0.994339 0.498371 
0.387052 0.148369 0.780362 0.249665 0.442007 
0.895267 0.28379 0.895548 0.641963 0.403538 
0.668592 0.828799 0.494975 0.997063 0.327654 
0.58023 0.175417 0.804089 0.238977 0.613135 
0.202771 0.344596 0.717027 0.0909408 0.0433316 
0.473138 0.19734 0.760778 0.759141 0.928396 
0.179658 0.935531 0.5973 0.49339 0.385719 
0.494116 0.630218 0.91067 0.599226 0.407845 
0.252939 0.608247 0.949066 0.239617 0.414395 
0.215747 0.529913 0.87292 0.0269923 0.438642 
0.779547 0.381105 0.890957 0.43412 0.049722 
0.841063 0.846659 0.508841 0.242661 0.893621 
0.948602 0.841746 0.344461 0.647007 0.423905 
0.0583777 0.0641325 0.888522 0.350051 0.188194 
0.0272024 0.757874 0.0320237 0.590363 0.212211 
0.885369 0.60549 0.511868 0.66253 0.288165 
0.0251521 0.806566 0.881021 0.342457 0.738084 
0.570841 0.794303 0.484326 0.248929 0.814956 
0.0231748 0.846711 0.710909 0.272174 0.53925 
0.932515 0.460459 0.286729 0.546773 0.392066 
0.490924 0.865761 0.435773 0.640424 0.41203 
0.193717 0.113403 0.485292 0.991932 0.352613 
0.615228 0.747799 0.500925 0.3354 0.895508 
0.991179 0.731806 0.494862 0.827439 0.747923 
0.468985 0.0257794 0.326287 0.496327 0.422141 
0.649396 0.752713 0.486336 0.917526 0.136387 
0.901985 0.480141 0.580154 0.951862 0.56644 
0.473147 0.138553 0.661944 0.170894 0.189489 
0.876926 0.522419 0.534434 0.891557 0.343427 
0.490872 0.764895 0.718708 0.265509 0.0398671 
0.456766 0.501323 0.47193 0.531127 0.0516042 
0.759208 0.314508 0.849521 0.512267 0.549168 
0.157826 0.889162 0.127231 0.680115 0.832121 
0.503341 0.0703778 0.302036 0.627621 0.152432 
0.826875 0.79997 0.396366 0.162154 0.940709 
0.855002 0.0954276 0.730246 0.324146 0.793148 
0.512813 0.610009 0.544669 0.962635 0.525199 
0.927786 0.561883 0.432378 0.678581 0.586361 
0.0920735 0.513483 0.0283396 0.558579 0.203119 
0.172838 0.583478 0.89619 0.515333 0.161416 
0.652754 0.757406 0.324493 0.513878 0.61285 
0.041317 0.540541 0.863177 0.901904 0.122079 
0.195626 0.477267 0.935081 0.767293 0.0580656 
0.961439 0.0968175 0.371439 0.252124 0.444533 
0.842961 0.695437 0.917718 0.791759 0.908738 
0.741419 0.638491 0.797782 0.315588 0.154552 
0.674261 0.310444 0.202531 0.0718756 0.489924 
0.0318937 0.0826963 0.773166 0.803328 0.642591 
0.190862 0.528851 0.908244 0.826712 0.614223 
0.855331 0.0810022 0.618347 0.633506 0.485117 
0.876342 0.0759551 0.237733 0.7627 0.795162 
0.129154 0.262064 0.121028 0.867119 0.705769 
0.851589 0.250162 0.633876 0.661518 0.871865 
0.832458 0.0798075 0.961589 0.932231 0.279517 
0.651002 0.60716 0.893318 0.0616337 0.604391 
0.74456 0.407028 0.603897 0.248021 0.580159 
0.0913807 0.866535 0.358164 0.884609 0.867153 
0.532746 0.912336 0.471216 0.0331504 0.946352 
0.0919891 0.867889 0.197911 0.0775309 0.346935 
0.786658 0.562566 0.256785 0.0222123 0.751675 
0.757199 0.31101 0.441479 0.210493 0.00776621 
0.470436 0.535372 0.257475 0.819226 0.885339 
0.541713 0.720355 0.24225 0.441508 0.91941 
0.237114 0.339221 0.950142 0.0465712 0.587429 
0.205324 0.0258063 0.564141 0.235341 0.320177 
0.0307025 0.262286 0.351332 0.52147 0.560945 
0.268676 0.0635922 0.168371 0.733774 0.633879 
0.0686598 0.215064 0.337889 0.383483 0.569434 
0.444208 0.197097 0.567086 0.133437 0.178234 
0.654039 0.289007 0.196585 0.214348 0.663081 
0.0166358 0.680258 0.963387 0.361735 0.583312 
0.80166 0.916012 0.0024019 0.0198376 0.165089 
0.922905 0.375088 0.581675 0.51648 0.873473 
0.485024 0.190958 0.325618 0.238284 0.976851 
0.820402 0.108031 0.418305 0.853403 0.934724 
0.405702 0.168161 0.60643 0.62361 0.555445 
0.603512 0.566144 0.413619 0.0488974 0.645409 
0.619779 0.634913 0.103892 0.151973 0.802845 
0.328709 0.497535 0.725549 0.927413 0.177455 
0.309585 0.782434 0.574743 0.676537 0.542635 
0.577143 0.595593 0.606427 0.464401 0.0995243 
0.118178 0.67257 0.402974 0.346397 0.781927 
0.367416 0.61481 0.940229 0.833855 0.938777 
0.477643 0.870377 0.949068 0.213679 0.195325 
0.0150534 0.517994 0.884549 0.842252 0.934458 
0.426291 0.792572 0.77627 0.840667 0.89823 
0.170076 0.190357 0.710038 0.327376 0.316377 
0.440562 0.301094 0.503276 0.576329 0.202155 
0.000595116 0.297724 0.901473 0.0414263 0.897449 
0.433005 0.208215 0.783533 0.331074 0.0384368 
0.830507 0.635057 0.362275 0.460356 0.552641 
0.45534 0.279273 0.494187 0.248884 0.823717 
0.102685 0.237965 0.0291771 0.127349 0.927446 
0.989062 0.112734 0.359057 0.526552 0.872051 
0.104618 0.62666 0.342442 0.352682 0.753572 
0.25511 0.879555 0.883165 0.386389 0.353744 
0.0597358 0.164896 0.59614 0.689948 0.228367 
0.950379 0.178511 0.667108 0.8138 0.788085 
0.323364 0.106325 0.847067 0.556277 0.715682 
0.881033 0.101547 0.94879 0.831218 0.358816 
0.117991 0.561235 0.915383 0.78823 0.345412 
0.306483 0.651074 0.133491 0.299142 0.793269 
0.254693 0.371966 0.17894 0.63519 0.933127 
0.272188 0.13474 0.923406 0.706548 0.802208 
0.589663 0.707559 0.303013 0.256941 0.317662 
0.520249 0.135398 0.969581 0.703198 0.20154 
0.534182 0.384928 0.154933 0.657129 0.492559 
0.0729793 0.957131 0.689258 0.494788 0.699067 
0.0856937 0.777991 0.758882 0.943393 0.415529 
0.552439 0.824913 0.883061 0.351427 0.67582 
0.65679 0.754706 0.930833 0.139993 0.896102 
0.838971 0.612287 0.59408 0.407045 0.46456 
0.81187 0.54264 0.727874 0.24688 0.689028 
0.19743 0.40043 0.0432919 0.00894763 0.784288 
0.34594 0.485367 0.448104 0.453286 0.787516 
0.537786 0.21342 0.0644001 0.854862 0.32452 
0.673214 0.286869 0.937502 0.582218 0.128597 
0.646191 0.912881 0.343739 0.452493 0.806641 
0.717228 0.514329 0.197395 0.074535 0.782378 
0.657722 0.522265 0.61772 0.369566 0.228384 
0.766122 0.816152 0.483223 0.81231 0.575374 
0.933239 0.324015 0.81727 0.747914 0.602333 
0.0944527 0.639798 0.648147 0.846065 0.944136 
0.938323 0.439875 0.149489 0.814567 0.881522 
0.0968125 0.87151 0.237731 0.795303 0.44564 
0.461949 0.879091 0.917949 0.288711 0.462141 
0.54058 0.269524 0.797121 0.590458 0.283654 
0.333214 0.784959 0.619206 0.89792 0.379017 
0.740859 0.79282 0.66321 0.73849 0.243231 
0.533989 0.780511 0.996624 0.444046 0.272587 
0.61628 0.735152 0.351347 0.274449 0.717393 
0.171951 0.924611 0.638201 0.643762 0.688785 
0.022381 0.0953591 0.103578 0.347054 0.263532 
0.709811 0.638118 0.942746 0.462352 0.468324 
0.500015 0.632089 0.0834176 0.468404 0.332853 
0.452961 0.248244 0.819742 0.683153 0.370964 
0.291194 0.839331 0.945462 0.382984 0.852627 
0.399143 0.87716 0.115999 0.0232911 0.355168 
0.119526 0.106133 0.697738 0.270612 0.993795 
0.947764 0.973449 0.513227 0.33278 0.934486 
0.688461 0.855105 0.199233 0.999989 0.146336 
0.164082 0.186691 0.801752 0.405458 0.669713 
0.635727 0.454438 0.0325901 0.453754 0.277194 
0.681148 0.628647 0.788071 0.476704 0.329492 
0.0150047 0.466107 0.37841 0.79738 0.885878 
0.0353162 0.984901 0.800841 0.14371 0.851981 
0.865073 0.291286 0.382394 0.327798 0.0717096 
0.823258 0.174181 0.947327 0.893364 0.410895 
0.932995 0.544966 0.216593 0.784129 0.704415 
0.050287 0.436588 0.381077 0.953087 0.293842 
0.0844265 0.89851 0.925965 0.116813 0.296446 
0.902457 0.971964 0.389458 0.93168 0.22613 
0.640077 0.521344 0.445642 0.20143 0.555304 
0.961845 0.151377 0.46336 0.431755 0.66988 
