3400 5
0.440981 0.169232 0.457454 0.279613 0.796483 
0.0479652 0.485781 0.689481 0.170624 0.0311352 
0.619221 0.823826 0.857747 0.66457 0.985375 
0.639676 0.808317 0.0654247 0.83313 0.869142 
0.669452 0.907479 0.32486 0.463216 0.083212 
0.588744 0.967071 0.722056 0.783519 0.49451 
0.110795 0.845452 0.110455 0.955208 0.761339 
0.380372 0.39296 0.496893 0.24037 0.187533 
0.543417 0.706729 0.10478 0.920479 0.0481743 
0.44775 0.5363 0.131387 0.455284 0.382538 
0.154447 0.927986 0.779381 0.216651 0.0941363 
0.82006 0.301366 0.301785 0.828756 0.566944 
0.847987 0.260248 0.216515 0.210723 0.515421 
0.799554 0.796585 0.415287 0.112688 0.331661 
0.791523 0.314933 0.145417 0.614563 0.654394 
0.510202 0.224097 0.276419 0.900882 0.644062 
0.747944 0.894742 0.682992 0.343291 0.25556 
0.226521 0.453764 0.191197 0.879605 0.810404 
0.788483 0.994451 0.184793 0.129862 0.335813 
0.368014 0.172755 0.251624 0.425917 0.453979 
0.142841 0.154098 0.679599 0.810299 0.577483 
0.60958 0.94051 0.41735 0.301505 0.712035 
0.708536 0.835111 0.951062 0.0749652 0.770073 
0.0985721 0.501064 0.438245 0.70473 0.199035 
0.13128 0.491862 0.320421 0.899543 0.778454 
0.978557 0.843427 0.220252 0.018851 0.327425 
0.885407 0.0789082 0.373973 0.89455 0.683322 
0.0220067 0.621689 0.810412 0.298145 0.415674 
0.0546657 0.760604 0.432767 0.430733 0.75297 
0.863987 0.750306 0.15445 0.315309 0.135071 
0.21498 0.0878826 0.0491192 0.0836067 0.654933 
0.723131 0.964412 0.556326 0.103251 0.271495 
0.553117 0.200784 0.222539 0.580295 0.665615 
0.0297902 0.48055 0.859168 0.733865 0.428331 
0.485983 0.140802 0.0112257 0.812454 0.375372 
0.567292 0.793984 0.904493 0.773594 0.455854 
0.761877 0.553187 0.0408755 0.470407 0.0817244 
0.295431 0.756325 0.102773 0.768492 0.509999 
0.958095 0.509721 0.121164 0.711528 0.897749 
0.879618 0.614176 0.771426 0.679419 0.775938 
0.96416 0.282145 0.745008 0.407124 0.197504 
0.47277 0.203003 0.815847 0.0593878 0.0705721 
0.979655 0.198072 0.836495 0.285139 0.34775 
0.113877 0.546275 0.534442 0.915727 0.699586 
0.139537 0.00819904 0.862192 0.0863897 0.70371 
0.209425 0.17446 0.722432 0.992951 0.808428 
0.267656 0.16114 0.308344 0.379336 0.23568 
0.235454 0.907021 0.255398 0.501668 0.932028 
0.0698251 0.92931 0.697089 0.0656591 0.855279 
0.950026 0.713173 0.617164 0.213235 0.320226 
0.407835 0.574756 0.126101 0.561722 0.447193 
0.906674 0.165332 0.887724 0.992266 0.46169 
0.884773 0.78816 0.793585 0.415368 0.258842 
0.276651 0.930298 0.515147 0.789461 0.872982 
0.0219004 0.70291 0.06127 0.0774569 0.446849 
0.418601 0.489608 0.487209 0.956765 0.390777 
0.629767 0.251253 0.163266 0.314614 0.420494 
0.217056 0.227474 0.959788 0.526822 0.881963 
0.553976 0.76212 0.775806 0.607227 0.198473 
0.360633 0.924226 0.26321 0.960724 0.916607 
0.413991 0.959583 0.166094 0.872458 0.425261 
0.347623 0.449453 0.825226 0.521512 0.552958 
0.673099 0.937976 0.713432 0.566609 0.0745762 
0.13706 0.309421 0.178494 0.0476723 0.11179 
0.857805 0.43937 0.0975846 0.844664 0.0727266 
0.550851 0.513274 0.365236 0.909347 0.247967 
0.156838 0.771982 0.371236 0.0308706 0.319965 
0.257568 0.477796 0.45189 0.0954984 0.773635 
0.589026 0.184837 0.453316 0.690967 0.299278 
0.257055 0.485736 0.144288 0.245927 0.264977 
0.478128 0.786768 0.951458 0.931981 0.401444 
0.358655 0.736463 0.746334 0.722718 0.495965 
0.725209 0.244485 0.431373 0.970823 0.236729 
0.46568 0.776504 0.648092 0.540823 0.364411 
0.893115 0.289209 0.329025 0.255154 0.587643 
0.0584612 0.379619 0.77357 0.611798 0.338989 
0.561597 0.350775 0.908373 0.424688 0.84593 
0.103171 0.348082 0.860028 0.287471 0.39842 
0.346683 0.21548 0.317863 0.28239 0.907307 
0.716948 0.499122 0.720475 0.867592 0.346566 
0.93471 0.481443 0.0179746 0.0193435 0.21608 
0.435118 0.947924 0.0461286 0.424924 0.901224 
0.679937 0.333619 0.634479 0.642109 0.458182 
0.731179 0.468658 0.451158 0.80571 0.192527 
0.0498497 0.760893 0.909511 0.736501 0.849432 
0.00226822 0.1065 0.513006 0.549281 0.885814 
0.25824 0.766693 0.164282 0.329312 0.970848 
0.930836 0.800096 0.0529554 0.700097 0.494384 
0.679887 0.753319 0.814357 0.766727 0.239059 
0.728254 0.678866 0.223412 0.689328 0.485117 
0.831779 0.806794 0.383542 0.0638907 0.557804 
0.716818 0.570947 0.729102 0.763703 0.331453 
0.350894 0.187338 0.698135 0.86169 0.329722 
0.214992 0.984334 0.496867 0.401253 0.946803 
0.959696 0.886426 0.618588 0.0363018 0.87046 
0.0755272 0.411892 0.667057 0.447461 0.0521236 
0.330519 0.406245 0.795466 0.431344 0.461221 
0.757237 0.0822219 0.459009 0.767258 0.508308 
0.271319 0.819776 0.161355 0.139001 0.542819 
0.0314835 0.645803 0.733758 0.155406 0.0576335 
0.533247 0.663958 0.800686 0.829836 0.236299 
0.0190211 0.402603 0.364426 0.769089 0.207095 
0.0731245 0.838014 0.0489425 0.85864 0.398455 
0.0917956 0.0214254 0.221524 0.115141 0.119858 
0.948001 0.687942 0.166721 0.777619 0.305589 
0.215711 0.314925 0.744931 0.261684 0.0490556 
0.24635 0.683503 0.00698146 0.674303 0.628987 
0.0750506 0.907375 0.392768 0.0790185 0.909921 
0.574002 0.41415 0.142861 0.434132 0.436208 
0.98073 0.141234 0.0558005 0.655257 0.303593 
0.898917 0.520481 0.929209 0.705671 0.775446 
0.617676 0.245616 0.767796 0.847763 0.142455 
0.623457 0.912069 0.706302 0.727893 0.184059 
0.204204 0.603506 0.78664 0.540189 0.104098 
0.0320144 0.376753 0.0513295 0.857812 0.667384 
0.885804 0.160064 0.360903 0.000678611 0.0847095 
0.00163472 0.0331505 0.10863 0.785737 0.700279 
0.0512701 0.233365 0.277503 0.203377 0.955109 
0.535183 0.616723 0.586531 0.909656 0.603487 
0.148534 0.632399 0.679506 0.208763 0.579651 
0.996916 0.508484 0.151961 0.554949 0.4471 
0.444421 0.585597 0.415096 0.662802 0.95475 
0.276233 0.893057 0.753395 0.832313 0.817976 
0.356524 0.117374 0.955941 0.445778 0.395338 
0.197788 0.79713 0.867816 0.103999 0.397401 
0.877199 0.126102 0.360985 0.71783 0.95324 
0.168786 0.546789 0.0282498 0.862594 0.590327 
0.317795 0.881024 0.588755 0.724312 0.920807 
0.273648 0.347468 0.891472 0.483715 0.599602 
0.674034 0.340281 0.171981 0.997487 0.721197 
0.235714 0.689981 0.245433 0.828093 0.800325 
0.572916 0.110104 0.228728 0.18825 0.566623 
0.885231 0.50002 0.256584 0.198887 0.206725 
0.334427 0.392792 0.531751 0.502009 0.682244 
0.441309 0.447604 0.237605 0.493412 0.746672 
0.379881 0.659339 0.677035 0.727156 0.913375 
0.988962 0.675472 0.842003 0.856776 0.643345 
0.713756 0.98681 0.621077 0.0128142 0.489979 
0.0829433 0.699765 0.76234 0.502469 0.142127 
0.886806 0.544745 0.529286 0.512866 0.0702001 
0.125788 0.70095 0.255035 0.710925 0.316953 
0.00632058 0.0589347 0.610528 0.26907 0.901089 
0.637388 0.0320991 0.169633 0.750995 0.286779 
0.125482 0.320089 0.440213 0.68775 0.168776 
0.945602 0.330508 0.686989 0.782575 0.121629 
0.659725 0.635586 0.411728 0.928535 0.472724 
0.273944 0.426526 0.259792 0.320409 0.832417 
0.614784 0.76618 0.576611 0.0914375 0.1429 
0.659575 0.982643 0.284615 0.71355 0.951555 
0.751492 0.597556 0.728619 0.573735 0.198502 
0.608315 0.931555 0.3831 0.598122 0.0505553 
0.722366 0.233382 0.611492 0.749479 0.838024 
0.287049 0.994096 0.210544 0.777216 0.691965 
0.667745 0.658873 0.62641 0.488834 0.593647 
0.940021 0.661175 0.275242 0.998244 0.965265 
0.837393 0.0157443 0.389339 0.893275 0.247442 
0.233349 0.820848 0.914576 0.229076 0.0911045 
0.0124375 0.803876 0.0973816 0.829232 0.0360994 
0.877655 0.871242 0.209765 0.172557 0.378039 
0.000291692 0.0638244 0.266366 0.582905 0.971388 
0.27926 0.35196 0.0446253 0.653501 0.216722 
0.500583 0.804925 0.407097 0.476983 0.85757 
0.622128 0.448455 0.58919 0.99819 0.96439 
0.987416 0.58092 0.205169 0.61991 0.705319 
0.571834 0.0981612 0.835973 0.342058 0.570028 
0.0394611 0.766102 0.54886 0.198988 0.416139 
0.132017 0.968076 0.989707 0.522413 0.732377 
0.757582 0.738559 0.281138 0.340248 0.379305 
0.30277 0.395799 0.226408 0.405835 0.953466 
0.884218 0.413601 0.353206 0.258247 0.617538 
0.0396265 0.568972 0.921528 0.237148 0.942009 
0.73903 0.198082 0.861443 0.555349 0.132818 
0.4168 0.708354 0.509784 0.162093 0.903888 
0.415905 0.770109 0.722978 0.896736 0.417423 
0.26081 0.676838 0.678312 0.887813 0.933273 
0.0505175 0.129722 0.801326 0.5344 0.875924 
0.168274 0.814128 0.738371 0.547285 0.306664 
0.63218 0.0498188 0.533931 0.226807 0.0532458 
0.823343 0.455696 0.711903 0.496003 0.71843 
0.932543 0.688359 0.290486 0.144729 0.320558 
0.766498 0.80658 0.0268846 0.0631795 0.193869 
0.860777 0.0132674 0.851524 0.596546 0.955985 
0.390513 0.832851 0.511439 0.746033 0.948787 
0.418862 0.713694 0.514862 0.391196 0.0517656 
0.319878 0.0587378 0.216564 0.736025 0.729871 
0.886183 0.536245 0.896062 0.581368 0.50275 
0.964178 0.793806 0.999136 0.532732 0.989689 
0.563448 0.310511 0.746959 0.989319 0.21509 
0.26739 0.673056 0.154652 0.571687 0.453636 
0.962269 0.53512 0.499139 0.0121398 0.259988 
0.579294 0.628121 0.10981 0.917323 0.201599 
0.541331 0.758759 0.227801 0.960562 0.946754 
0.312227 0.542639 0.528755 0.355924 0.657177 
0.401287 0.273588 0.63006 0.0659148 0.494321 
0.0183106 0.404837 0.619563 0.687063 0.709312 
0.844368 0.245912 0.514582 0.954255 0.837503 
0.197525 0.885137 0.992623 0.895899 0.151592 
0.102665 0.86149 0.934645 0.848181 0.190167 
0.966401 0.520556 0.889234 0.668358 0.312843 
0.562209 0.61038 0.67458 0.896286 0.866593 
0.359409 0.504367 0.335249 0.375208 0.119113 
0.827913 0.318787 0.0631671 0.636309 0.158855 
0.25139 0.988835 0.104673 0.513452 0.265338 
0.759313 0.357768 0.53585 0.848958 0.364185 
0.00363785 0.0762982 0.889566 0.494611 0.320037 
0.0500042 0.504201 0.563647 0.866246 0.395212 
0.178146 0.629007 0.549432 0.694925 0.0802767 
0.719893 0.682899 0.262419 0.481129 0.617959 
0.921319 0.797299 0.701231 0.9781 0.178541 
0.188818 0.470875 0.397485 0.752314 0.721477 
0.356591 0.854345 0.346714 0.117785 0.770451 
0.860746 0.300811 0.431779 0.381896 0.808998 
0.260715 0.666655 0.0321152 0.156397 0.284406 
0.632112 0.857445 0.83516 0.93813 0.502855 
0.856087 0.785056 0.476971 0.824595 0.202566 
0.503084 0.139704 0.595368 0.885608 0.0667782 
0.104151 0.66349 0.318012 0.916029 0.000237553 
0.302517 0.180515 0.59746 0.561466 0.486021 
0.432238 0.950073 0.981128 0.874134 0.830062 
0.718694 0.213118 0.31699 0.909825 0.675215 
0.810187 0.492486 0.666019 0.519335 0.777375 
0.526757 0.488092 0.740734 0.97404 0.0081443 
0.734483 0.0756266 0.58685 0.751721 0.704064 
0.313278 0.541874 0.70186 0.111193 0.676526 
0.307288 0.565247 0.471963 0.670969 0.879878 
0.296349 0.507242 0.923334 0.665435 0.110978 
0.210008 0.32684 0.658308 0.952345 0.327269 
0.630403 0.148909 0.876009 0.617405 0.134301 
0.835311 0.640339 0.0245905 0.490533 0.206461 
0.0509173 0.0193596 0.195355 0.427231 0.844889 
0.0452033 0.110623 0.78061 0.353769 0.69375 
0.962844 0.915515 0.160082 0.546867 0.403518 
0.726809 0.625693 0.615573 0.25414 0.871736 
0.233765 0.382345 0.928056 0.0619857 0.727036 
0.218868 0.561278 0.850723 0.90211 0.80518 
0.0205687 0.263083 0.618919 0.00316466 0.709447 
0.586444 0.261174 0.458926 0.555671 0.150839 
0.633102 0.651092 0.918933 0.207648 0.481688 
0.832206 0.630553 0.87319 0.183462 0.492772 
0.789305 0.707791 0.887308 0.702954 0.328876 
0.577119 0.647827 0.910306 0.0694063 0.481934 
0.819477 0.962156 0.168851 0.139637 0.0450342 
0.611874 0.454358 0.532484 0.283868 0.376728 
0.245659 0.174881 0.691472 0.907355 0.360088 
0.860018 0.657014 0.860383 0.0457318 0.660527 
0.944973 0.20776 0.048647 0.998352 0.383062 
0.601177 0.5687 0.330771 0.813788 0.297583 
0.142775 0.110466 0.043532 0.177894 0.312187 
0.986206 0.347711 0.451082 0.918103 0.311198 
0.493629 0.637451 0.442801 0.610941 0.712083 
0.0234855 0.645922 0.850876 0.824237 0.450838 
0.573727 0.528017 0.504951 0.572927 0.92773 
0.570316 0.660264 0.1446 0.241603 0.586559 
0.0486294 0.35267 0.095609 0.538127 0.222527 
0.113572 0.853125 0.762371 0.55223 0.15266 
0.954227 0.538002 0.954001 0.0950781 0.707846 
0.966433 0.894711 0.614103 0.357318 0.565757 
0.946987 0.350682 0.207044 0.274256 0.21823 
0.783253 0.0898051 0.832613 0.560951 0.975266 
0.783928 0.138717 0.77701 0.254881 0.0203371 
0.817478 0.276482 0.797426 0.289222 0.366182 
0.239359 0.646411 0.281672 0.251308 0.16652 
0.921008 0.217006 0.132614 0.886782 0.684805 
0.59606 0.0102381 0.00544869 0.100453 0.486421 
0.0592274 0.8547 0.515418 0.298361 0.16136 
0.283821 0.701461 0.254344 0.20622 0.568358 
0.891026 0.25451 0.0737733 0.294658 0.162318 
0.758127 0.560242 0.704846 0.0904609 0.450946 
0.595694 0.968384 0.248868 0.298504 0.634888 
0.447209 0.133484 0.400687 0.379101 0.305874 
0.759368 0.117153 0.906188 0.0306591 0.133105 
0.819458 0.59273 0.711005 0.981231 0.325451 
0.354283 0.487683 0.497291 0.454613 0.681192 
0.561159 0.0692262 0.311323 0.327317 0.911086 
0.235988 0.164577 0.227019 0.315243 0.279614 
0.904282 0.0077993 0.178049 0.754235 0.94065 
0.20119 0.276597 0.712277 0.291338 0.211705 
0.656478 0.0816727 0.996285 0.154706 0.347807 
0.0717595 0.255991 0.756537 0.266999 0.343125 
0.658671 0.38065 0.126196 0.0542149 0.378816 
0.586496 0.965031 0.439304 0.2978 0.0585181 
0.540548 0.385411 0.536397 0.956381 0.454487 
0.807784 0.225725 0.752225 0.850191 0.822484 
0.961678 0.159616 0.770777 0.729914 0.507807 
0.323435 0.314781 0.852886 0.0852512 0.882332 
0.237321 0.409504 0.766201 0.0671589 0.170483 
0.779253 0.641252 0.163006 0.502548 0.790731 
0.507596 0.910431 0.969037 0.00297734 0.63477 
0.0477098 0.850122 0.758979 0.691364 0.936455 
0.662764 0.729133 0.574607 0.187334 0.389643 
0.0885247 0.453378 0.0691476 0.533224 0.15778 
0.359469 0.45838 0.98709 0.586223 0.330897 
0.764993 0.409189 0.335837 0.76708 0.616109 
0.965507 0.428175 0.56061 0.533485 0.467867 
0.138655 0.604989 0.637434 0.584054 0.913313 
0.826186 0.941191 0.970816 0.584491 0.566686 
0.259358 0.676559 0.995373 0.876435 0.566162 
0.902909 0.609094 0.546023 0.234762 0.818592 
0.551007 0.382688 0.655671 0.252817 0.019464 
0.597074 0.858533 0.718867 0.553357 0.548829 
0.469074 0.402293 0.249653 0.859565 0.65971 
0.18991 0.870764 0.742544 0.131146 0.854755 
0.558395 0.990503 0.635879 0.977159 0.0160301 
0.79486 0.831116 0.427663 0.535451 0.811159 
0.250227 0.499825 0.57653 0.755605 0.834524 
0.594452 0.614747 0.204567 0.704121 0.597836 
0.775177 0.89072 0.678602 0.21001 0.128496 
0.85256 0.987208 0.3267 0.961734 0.857222 
0.192038 0.0294482 0.10147 0.191659 0.640818 
0.0809969 0.848399 0.726036 0.0265075 0.954356 
0.0825224 0.881145 0.236403 0.711127 0.783847 
0.0581564 0.650794 0.291495 0.418423 0.302566 
0.944942 0.816418 0.741001 0.0662695 0.0684646 
0.208926 0.925989 0.0327347 0.337248 0.403952 
0.361281 0.267242 0.857075 0.555992 0.715018 
0.902878 0.839567 0.862977 0.122821 0.996195 
0.862079 0.0505509 0.0528016 0.832819 0.374299 
0.962544 0.413158 0.959333 0.670503 0.606482 
0.448187 0.892471 0.463024 0.284311 0.851154 
0.808549 0.14686 0.60045 0.0920906 0.678361 
0.431317 0.682879 0.27913 0.729337 0.37884 
0.45873 0.627388 0.938303 0.513381 0.498212 
0.593076 0.230095 0.58664 0.406426 0.577512 
0.475066 0.591039 0.702902 0.340078 0.408549 
0.114643 0.144253 0.527491 0.212342 0.693368 
0.866888 0.861284 0.669221 0.9194 0.855187 
0.371528 0.223825 0.727025 0.246472 0.263151 
0.375816 0.760605 0.312245 0.338853 0.4698 
0.200144 0.197932 0.652757 0.728805 0.665695 
0.60455 0.122394 0.786119 0.774889 0.631103 
0.0775996 0.767205 0.167364 0.299385 0.755202 
0.406154 0.835191 0.644437 0.666175 0.915069 
0.724859 0.917774 0.575492 0.557274 0.693542 
0.768525 0.305357 0.180771 0.169771 0.587809 
0.506503 0.949222 0.954686 0.486537 0.531387 
0.55011 0.224205 0.316502 0.541063 0.170565 
0.0722828 0.289916 0.931284 0.897267 0.0168754 
0.0286589 0.662951 0.120148 0.722919 0.371235 
0.799043 0.0178895 0.260496 0.110301 0.8058 
0.549382 0.934848 0.183041 0.650757 0.491432 
0.564202 0.890236 0.347481 0.122589 0.509903 
0.238222 0.812591 0.223547 0.623452 0.755239 
0.442367 0.108618 0.777258 0.167956 0.0768218 
0.699072 0.724119 0.292527 0.443375 0.740608 
0.0310416 0.0510336 0.85551 0.0276518 0.499464 
0.388744 0.106994 0.525532 0.177301 0.857771 
0.417744 0.501609 0.236364 0.360782 0.480918 
0.773782 0.271155 0.349166 0.528551 0.409475 
0.595166 0.887561 0.273787 0.237731 0.0654723 
0.418008 0.766789 0.873201 0.946503 0.32508 
0.42149 0.911371 0.804377 0.490665 0.792218 
0.955965 0.153012 0.139962 0.68286 0.354691 
0.406295 0.49009 0.471949 0.0284062 0.945634 
0.284247 0.0106311 0.504226 0.123453 0.595207 
0.982686 0.296133 0.365914 0.654949 0.334214 
0.186895 0.652208 0.320139 0.0619566 0.748509 
0.140999 0.851097 0.116568 0.00843839 0.20732 
0.903472 0.0103331 0.0841066 0.860864 0.435582 
0.0407917 0.860726 0.00799758 0.640265 0.593544 
0.0964149 0.879774 0.654862 0.560992 0.356661 
0.802171 0.0453659 0.144833 0.270062 0.515427 
0.220225 0.334805 0.0735859 0.959913 0.174729 
0.635867 0.196092 0.871108 0.0517921 0.352518 
0.262133 0.80797 0.0960904 0.0931225 0.098829 
0.730779 0.986257 0.74698 0.804739 0.758144 
0.522167 0.244771 0.947501 0.176709 0.898171 
0.396471 0.706292 0.974582 0.0411161 0.591401 
0.98858 0.194269 0.264278 0.0595033 0.850117 
0.279477 0.540959 0.474484 0.119433 0.972075 
0.432396 0.533574 0.459768 0.551391 0.0333199 
0.636572 0.298565 0.901978 0.0280614 0.466856 
0.883798 0.686089 0.333248 0.204798 0.0946409 
0.139835 0.828255 0.595441 0.788943 0.45489 
0.334634 0.646142 0.946597 0.0891607 0.743488 
0.321236 0.371277 0.702249 0.51563 0.765036 
0.722818 0.985309 0.370911 0.908491 0.584161 
0.43277 0.597887 0.498406 0.548172 0.827276 
0.248794 0.252601 0.77689 0.369069 0.102148 
0.633648 0.423251 0.773127 0.553881 0.464837 
0.913008 0.997223 0.0936301 0.631622 0.429043 
0.720621 0.00764628 0.200152 0.0919033 0.343245 
0.309663 0.526333 0.523569 0.176426 0.375457 
0.770217 0.358973 0.95663 0.903834 0.144444 
0.353405 0.626841 0.977491 0.678296 0.663255 
0.824236 0.203063 0.243337 0.178521 0.37664 
0.116867 0.0581994 0.11962 0.331909 0.215101 
0.520278 0.842872 0.297536 0.395307 0.894369 
0.621154 0.918912 0.172164 0.804925 0.292037 
0.521078 0.565047 0.719723 0.122534 0.930795 
0.786468 0.859741 0.980444 0.884421 0.820397 
0.172006 0.620132 0.254457 0.245562 0.677698 
0.141407 0.87697 0.967193 0.410509 0.525706 
0.983137 0.500673 0.798306 0.153365 0.798096 
0.531917 0.552716 0.442263 0.631431 0.177611 
0.339625 0.465625 0.2107 0.413004 0.101667 
0.848243 0.255852 0.133825 0.608437 0.0130514 
0.454375 0.581282 0.453528 0.518644 0.629007 
0.0152715 0.347934 0.952181 0.0889932 0.313687 
0.665823 0.318656 0.910605 0.301705 0.510851 
0.104574 0.0461649 0.301725 0.832126 0.79254 
0.659242 0.857365 0.011665 0.150931 0.110989 
0.666674 0.14905 0.153935 0.37622 0.933558 
0.0922604 0.759471 0.411975 0.117563 0.182071 
0.772377 0.239759 0.689146 0.462267 0.236572 
0.607528 0.358126 0.228862 0.420076 0.779565 
0.270855 0.243318 0.363135 0.77589 0.692429 
0.500526 0.309561 0.392775 0.622117 0.236672 
0.726118 0.942963 0.532984 0.388191 0.0307956 
0.613948 0.859451 0.120236 0.211059 0.726507 
0.466683 0.997291 0.616283 0.158709 0.756798 
0.65123 0.530135 0.549927 0.0972333 0.0615809 
0.494324 0.57767 0.212785 0.277494 0.930821 
0.46107 0.878492 0.420158 0.232019 0.384297 
0.604759 0.79334 0.20632 0.681204 0.772758 
0.524017 0.348864 0.257304 0.0530098 0.49943 
0.328379 0.324024 0.312417 0.362311 0.68834 
0.568753 0.256433 0.882003 0.830077 0.912731 
0.896162 0.86455 0.873449 0.450565 0.41531 
0.51097 0.200477 0.425443 0.00367021 0.292568 
0.140683 0.577389 0.971471 0.482141 0.73257 
0.775204 0.326078 0.513652 0.832125 0.125439 
0.851689 0.823705 0.70537 0.195817 0.335184 
0.235346 0.355495 0.753495 0.0255818 0.401134 
0.707279 0.683231 0.635106 0.488164 0.525024 
0.905781 0.429404 0.581599 0.971104 0.694431 
0.368497 0.851489 0.770446 0.451293 0.933649 
0.647432 0.876544 0.223374 0.27333 0.316711 
0.236762 0.458034 0.489093 0.774739 0.329709 
0.196054 0.319788 0.621909 0.605088 0.756708 
0.443797 0.962876 0.47359 0.21425 0.379274 
0.53912 0.262996 0.479028 0.444331 0.862795 
0.415004 0.726946 0.165433 0.732898 0.636353 
0.184199 0.045788 0.493174 0.85264 0.600886 
0.141106 0.197281 0.648272 0.095967 0.419191 
0.229584 0.815767 0.592076 0.207189 0.406193 
0.600339 0.067253 0.650649 0.97229 0.948081 
0.131865 0.870705 0.833823 0.268925 0.648885 
0.301928 0.10032 0.154124 0.184246 0.559173 
0.353019 0.226407 0.751617 0.726822 0.635568 
0.0255052 0.892273 0.440126 0.828829 0.385498 
0.17801 0.437085 0.791989 0.44808 0.797215 
0.906228 0.274768 0.298083 0.959766 0.461007 
0.5057 0.367831 0.1074 0.392554 0.0231962 
0.747257 0.898976 0.720535 0.761128 0.41363 
0.35185 0.919347 0.10984 0.632285 0.627701 
0.851897 0.572988 0.235639 0.884667 0.717784 
0.794009 0.439936 0.804994 0.00253013 0.35564 
0.455267 0.601194 0.251801 0.410724 0.52937 
0.746607 0.995392 0.94541 0.759196 0.251937 
0.849156 0.100455 0.907175 0.963715 0.353016 
0.819051 0.917343 0.0639413 0.248201 0.787775 
0.583476 0.150842 0.834126 0.483057 0.283664 
0.942189 0.808868 0.336522 0.244261 0.974779 
0.89684 0.211876 0.0349879 0.226746 0.248604 
0.654 0.875053 0.643597 0.546006 0.956814 
0.633789 0.940774 0.422371 0.468463 0.0572355 
0.792287 0.955081 0.585086 0.490837 0.398023 
0.733244 0.766509 0.0795144 0.473143 0.140992 
0.291989 0.794448 0.866112 0.642174 0.206279 
0.194032 0.497824 0.769119 0.264115 0.741044 
0.324892 0.632901 0.692586 0.894434 0.787068 
0.195992 0.779538 0.0528109 0.6748 0.491379 
0.105671 0.107396 0.789488 0.184985 0.0147153 
0.506324 0.285025 0.112175 0.895441 0.691906 
0.196994 0.149149 0.882586 0.0840683 0.675944 
0.228179 0.00920451 0.895334 0.121922 0.280219 
0.163183 0.991771 0.29804 0.40334 0.784738 
0.111124 0.554345 0.123348 0.904831 0.96274 
0.895515 0.463523 0.831672 0.742411 0.870349 
0.798722 0.0380735 0.605639 0.9421 0.808538 
0.777445 0.290172 0.837147 0.21132 0.135121 
0.86791 0.469768 0.821973 0.136436 0.0964285 
0.174936 0.841711 0.707506 0.618133 0.368323 
0.328591 0.995744 0.0862067 0.110248 0.592926 
0.384249 0.358383 0.978116 0.210462 0.596858 
0.0223298 0.485115 0.760551 0.420836 0.836035 
0.882374 0.776374 0.747858 0.271448 0.430716 
0.624123 0.582152 0.567999 0.798224 0.327946 
0.418626 0.289371 0.776278 0.0808909 0.0261282 
0.765691 0.885687 0.191249 0.223563 0.995111 
0.427597 0.298024 0.0331103 0.101812 0.736835 
0.0755854 0.283307 0.992919 0.177137 0.259092 
0.354103 0.980499 0.498446 0.382646 0.838184 
0.909726 0.773627 0.660002 0.203765 0.752824 
0.0706638 0.702431 0.768146 0.973597 0.472618 
0.304696 0.790222 0.360772 0.410511 0.577167 
0.311184 0.862018 0.501054 0.287875 0.660634 
0.729047 0.983771 0.15561 0.983426 0.844066 
0.106669 0.14547 0.728544 0.479243 0.211819 
0.300097 0.762966 0.903345 0.853782 0.513962 
0.277452 0.172702 0.262488 0.657339 0.880338 
0.911477 0.481742 0.36292 0.792346 0.785216 
0.531511 0.479554 0.429653 0.40967 0.841582 
0.717304 0.482814 0.409572 0.916518 0.857329 
0.60387 0.974739 0.546058 0.689709 0.221452 
0.339458 0.709527 0.684795 0.408778 0.333681 
0.0068079 0.958164 0.206812 0.71149 0.330705 
0.00971287 0.890867 0.0108766 0.54389 0.0246914 
0.576315 0.0184933 0.410987 0.257574 0.305078 
0.642746 0.66804 0.831758 0.756123 0.209312 
0.827442 0.689208 0.782627 0.0325051 0.419033 
0.672512 0.488315 0.454627 0.171096 0.198422 
0.683166 0.673106 0.813666 0.290515 0.320822 
0.679198 0.338372 0.755815 0.787904 0.177794 
0.813114 0.636599 0.232051 0.098875 0.444531 
0.161008 0.170716 0.0646465 0.501554 0.903446 
0.110096 0.393816 0.691193 0.0293929 0.56817 
0.0431583 0.919285 0.612792 0.294879 0.383764 
0.114953 0.331922 0.485143 0.878942 0.129793 
0.0860275 0.0548512 0.476149 0.834475 0.78583 
0.449712 0.216737 0.504996 0.589175 0.543617 
0.807955 0.637741 0.572013 0.947522 0.875526 
0.230495 0.572188 0.46458 0.461768 0.457663 
0.0327924 0.597387 0.873257 0.318533 0.404972 
0.826838 0.594997 0.71297 0.863918 0.478725 
0.723006 0.491802 0.0328728 0.445842 0.459872 
0.868573 0.909453 0.504641 0.286557 0.730371 
0.430143 0.116622 0.512957 0.307782 0.268968 
0.150734 0.00992408 0.000556908 0.88309 0.766314 
0.357105 0.912709 0.527667 0.443491 0.53969 
0.321599 0.620667 0.502214 0.680776 0.943223 
0.976609 0.100354 0.292533 0.00268409 0.762444 
0.178477 0.195633 0.499676 0.326635 0.747384 
0.526705 0.0849143 0.198109 0.617502 0.522917 
0.52467 0.448102 0.259306 0.91191 0.865319 
0.798218 0.609437 0.714431 0.405762 0.549844 
0.489987 0.110823 0.477344 0.838752 0.173034 
0.0544017 0.308166 0.701839 0.685621 0.270475 
0.0975064 0.449867 0.364102 0.890241 0.0104351 
0.00172503 0.626138 0.139514 0.431753 0.768801 
0.908492 0.581671 0.894276 0.405253 0.449876 
0.919028 0.436384 0.385402 0.591852 0.163662 
0.482754 0.56733 0.581395 0.18552 0.75774 
0.926879 0.182243 0.276938 0.66013 0.459001 
0.728186 0.773516 0.571483 0.505441 0.921824 
0.401025 0.858132 0.840955 0.999064 0.824562 
0.814126 0.673884 0.0637685 0.917102 0.22488 
0.840725 0.852311 0.612877 0.0948263 0.4793 
0.428044 0.258019 0.805164 0.313518 0.611157 
0.774876 0.616173 0.389494 0.597234 0.00323979 
0.468156 0.0001918 0.110084 0.581703 0.923546 
0.894686 0.102309 0.788062 0.966072 0.0548258 
0.639338 0.329389 0.439986 0.651488 0.41129 
0.529087 0.0647207 0.956096 0.263844 0.777377 
0.206165 0.959443 0.640602 0.592088 0.661608 
0.0981793 0.0661847 0.403497 0.715369 0.430489 
0.577414 0.857699 0.56278 0.464884 0.284973 
0.131194 0.696938 0.83704 0.926337 0.327882 
0.431182 0.755287 0.705237 0.388256 0.89515 
0.218267 0.28604 0.0844259 0.558289 0.468159 
0.0319747 0.640927 0.952604 0.35954 0.687847 
0.937886 0.94798 0.913266 0.68456 0.771624 
0.195585 0.224681 0.0475859 0.445786 0.773969 
0.317497 0.011143 0.655084 0.0855504 0.500915 
0.290629 0.397966 0.419501 0.932345 0.745155 
0.195182 0.502095 0.755985 0.100979 0.739279 
0.737684 0.120495 0.677485 0.385654 0.739504 
0.822452 0.254099 0.780096 0.962071 0.396864 
0.669427 0.487579 0.552986 0.237278 0.263071 
0.562293 0.818174 0.743721 0.444438 0.568388 
0.716036 0.764663 0.91809 0.880884 0.312934 
0.115604 0.57111 0.438915 0.484793 0.131232 
0.249519 0.709788 0.605276 0.0817522 0.462093 
0.427386 0.266234 0.44065 0.481865 0.782391 
0.920855 0.26523 0.807439 0.0211554 0.104449 
0.0250653 0.214405 0.554758 0.444531 0.464168 
0.298086 0.347629 0.325375 0.442618 0.129789 
0.589103 0.541051 0.690541 0.829282 0.552115 
0.930456 0.295313 0.446293 0.0818063 0.564461 
0.403858 0.898024 0.699355 0.00621338 0.939043 
0.58037 0.520174 0.94958 0.145931 0.432297 
0.855246 0.977663 0.629356 0.541679 0.267633 
0.512054 0.887716 0.494293 0.295675 0.512691 
0.100471 0.162832 0.924135 0.142281 0.580218 
0.833256 0.185086 0.621188 0.919324 0.749479 
0.347302 0.923621 0.0729437 0.168887 0.468178 
0.974771 0.581945 0.2099 0.132199 0.367509 
0.970472 0.752115 0.963741 0.179522 0.211527 
0.517585 0.43105 0.396175 0.0273837 0.0776272 
0.579551 0.36408 0.753916 0.785827 0.219939 
0.561073 0.304211 0.38695 0.535294 0.38621 
0.0283029 0.2604 0.522364 0.0299938 0.715633 
0.582886 0.485516 0.32583 0.403329 0.491787 
0.394848 0.814425 0.438898 0.153092 0.254197 
0.155996 0.542898 0.722971 0.551203 0.58171 
0.898553 0.048675 0.420521 0.353594 0.987404 
0.947288 0.375615 0.607634 0.486625 0.854362 
0.486864 0.631895 0.66877 0.836237 0.485274 
0.371984 0.0618384 0.704258 0.892695 0.691869 
0.675463 0.289042 0.505226 0.385953 0.641986 
0.368559 0.971119 0.189825 0.261286 0.652654 
0.576857 0.66917 0.0101348 0.0651389 0.794497 
0.915799 0.454 0.381507 0.220782 0.307711 
0.528259 0.113632 0.656849 0.960207 0.311811 
0.0526012 0.481681 0.78791 0.114201 0.34721 
0.488303 0.380085 0.625039 0.477076 0.939097 
0.419063 0.995462 0.179413 0.333822 0.648873 
0.103721 0.787419 0.465119 0.289228 0.391824 
0.997228 0.303561 0.00459796 0.984798 0.977204 
0.170503 0.138727 0.980498 0.159456 0.763748 
0.687201 0.19342 0.420108 0.812097 0.0346498 
0.158276 0.614381 0.999581 0.157564 0.677263 
0.0725667 0.410128 0.752589 0.591214 0.860876 
0.54966 0.448084 0.394283 0.756955 0.552795 
0.142999 0.64652 0.494308 0.591369 0.295912 
0.731819 0.75404 0.742222 0.185435 0.875298 
0.749149 0.741565 0.0752192 0.408707 0.539824 
0.70111 0.458542 0.50763 0.953782 0.316562 
0.0653576 0.225592 0.257777 0.176079 0.613434 
0.225472 0.608247 0.567862 0.56842 0.595512 
0.732219 0.537786 0.376083 0.0884182 0.48637 
0.471501 0.694608 0.180663 0.558337 0.0434698 
0.546628 0.753962 0.739186 0.03867 0.348714 
0.471772 0.677254 0.215814 0.351059 0.974121 
0.311397 0.927592 0.0734172 0.183037 0.295647 
0.382732 0.918101 0.7686 0.403777 0.981761 
0.966683 0.82744 0.374321 0.469441 0.0389914 
0.41193 0.199505 0.390036 0.229088 0.991961 
0.616821 0.977929 0.58757 0.905565 0.684776 
0.947382 0.0387447 0.413514 0.286288 0.338527 
0.00955996 0.0785597 0.294522 0.764301 0.661691 
0.43128 0.693512 0.91752 0.429789 0.426032 
0.0696059 0.212403 0.992082 0.368103 0.734403 
0.494811 0.731696 0.0786657 0.558128 0.554226 
0.738529 0.420135 0.601448 0.0923594 0.873633 
0.578871 0.772744 0.332075 0.824709 0.0730616 
0.325885 0.590865 0.392737 0.83345 0.883031 
0.0710409 0.0770051 0.565379 0.854974 0.90537 
0.829643 0.497311 0.616488 0.164278 0.229346 
0.572469 0.418121 0.539703 0.481485 0.132763 
0.715383 0.439486 0.649172 0.542963 0.347547 
0.645056 0.142374 0.134848 0.669696 0.673209 
0.954798 0.31511 0.181042 0.547226 0.824442 
0.0673953 0.851286 0.914614 0.622401 0.850391 
0.258079 0.160293 0.227746 0.933812 0.789328 
0.736744 0.804428 0.115722 0.841005 0.189108 
0.925629 0.134283 0.0338641 0.0317031 0.920482 
0.704963 0.100491 0.104632 0.0431537 0.864235 
0.412309 0.839807 0.942103 0.937706 0.0754396 
0.721477 0.353794 0.0291666 0.150063 0.371136 
0.354432 0.908151 0.966036 0.632877 0.12779 
0.384143 0.975064 0.160993 0.717043 0.482555 
0.361951 0.143045 0.655736 0.261967 0.916537 
0.247594 0.989368 0.114333 0.21313 0.554408 
0.0680697 0.167776 0.505218 0.0575935 0.171001 
0.863741 0.110875 0.604846 0.101638 0.582435 
0.605996 0.541771 0.878227 0.46536 0.82086 
0.843687 0.802762 0.568046 0.393256 0.861643 
0.663389 0.217201 0.511844 0.17687 0.110383 
0.612604 0.442912 0.363322 0.251053 0.890558 
0.951543 0.759989 0.378517 0.374079 0.79119 
0.917673 0.380779 0.661608 0.975566 0.823888 
0.449893 0.386524 0.261134 0.578736 0.66189 
0.76536 0.99583 0.16222 0.027692 0.812553 
0.630659 0.438141 0.385911 0.911852 0.678714 
0.152322 0.857478 0.161816 0.399523 0.780699 
0.97569 0.0908186 0.475687 0.672148 0.404459 
0.859542 0.183053 0.131603 0.641847 0.36143 
0.487013 0.128022 0.746008 0.119951 0.196534 
0.542911 0.712064 0.758063 0.837235 0.523173 
0.213103 0.439994 0.698702 0.586407 0.136198 
0.0199765 0.735575 0.361635 0.133252 0.522038 
0.544553 0.988622 0.219369 0.436928 0.568622 
0.897322 0.21747 0.430333 0.0950915 0.307095 
0.61758 0.327894 0.977496 0.870508 0.756977 
0.20636 0.149151 0.0249365 0.0710215 0.0815004 
0.77417 0.533064 0.469293 0.849621 0.349827 
0.849008 0.751418 0.352851 0.768733 0.74168 
0.57421 0.336914 0.15525 0.532404 0.871178 
0.64278 0.544074 0.448541 0.746315 0.577231 
0.725212 0.953773 0.899941 0.436678 0.332648 
0.659996 0.913908 0.229308 0.273719 0.192265 
0.167174 0.522832 0.133361 0.0405265 0.997574 
0.28773 0.295987 0.00585883 0.933582 0.195861 
0.700967 0.370368 0.293082 0.519288 0.59556 
0.679948 0.664599 0.0348324 0.628896 0.632495 
0.754268 0.679206 0.941087 0.534593 0.431192 
0.914891 0.408387 0.361792 0.95512 0.240142 
0.704016 0.419735 0.808469 0.235073 0.0143368 
0.394829 0.13062 0.590958 0.0235786 0.00807209 
0.324961 0.122928 0.99958 0.0773224 0.641275 
0.296466 0.380232 0.976267 0.908046 0.0480217 
0.275054 0.250722 0.625058 0.759156 0.510898 
0.90171 0.596384 0.370735 0.957414 0.863641 
0.0667093 0.519093 0.600042 0.690401 0.215104 
0.250304 0.295781 0.382866 0.618089 0.987656 
0.832906 0.227837 0.44829 0.861428 0.0997448 
0.456848 0.874716 0.706746 0.664019 0.853618 
0.900085 0.676255 0.855019 0.0894636 0.442753 
0.97838 0.455532 0.306409 0.496962 0.744533 
0.846438 0.462404 0.193842 0.0682656 0.501476 
0.447248 0.270261 0.292878 0.377035 0.92885 
0.498121 0.429011 0.769842 0.83712 0.165438 
0.2796 0.304121 0.813652 0.42956 0.167014 
0.313594 0.483412 0.6533 0.741949 0.279117 
0.560122 0.926662 0.282602 0.894748 0.663614 
0.606232 0.575006 0.415231 0.812747 0.0475624 
0.312762 0.134287 0.539522 0.579007 0.500711 
0.0867155 0.444324 0.811934 0.692786 0.181924 
0.192685 0.773258 0.5428 0.548738 0.674911 
0.768065 0.871974 0.362748 0.436385 0.860889 
0.272719 0.436285 0.379874 0.740664 0.32507 
0.376796 0.832808 0.6074 0.279469 0.761442 
0.396581 0.864318 0.956851 0.603923 0.48666 
0.636265 0.743836 0.136089 0.778558 0.332775 
0.0496061 0.43388 0.20006 0.907984 0.346397 
0.917029 0.986079 0.524154 0.317789 0.744374 
0.907333 0.116761 0.965866 0.0430232 0.977249 
0.312029 0.999382 0.835831 0.915699 0.989294 
0.680735 0.298591 0.0934811 0.420291 0.753468 
0.107958 0.390297 0.923147 0.502778 0.029193 
0.49878 0.888376 0.643104 0.651189 0.0502621 
0.561923 0.212845 0.998608 0.436189 0.0064015 
0.520434 0.5854 0.076719 0.256991 0.577446 
0.620704 0.112699 0.339276 0.275782 0.945956 
0.349494 0.21796 0.39852 0.290527 0.276246 
0.267882 0.589022 0.603952 0.280555 0.547525 
0.143797 0.713954 0.467585 0.110025 0.557498 
0.984487 0.464425 0.338849 0.276613 0.179198 
0.953274 0.55446 0.652183 0.0287963 0.174309 
0.0594033 0.298041 0.114965 0.863533 0.115542 
0.101889 0.663382 0.197963 0.759162 0.243518 
0.98789 0.495734 0.95632 0.82825 0.327296 
0.381429 0.295496 0.454716 0.930801 0.401841 
0.810402 0.629153 0.331358 0.156522 0.0440639 
0.499752 0.230673 0.908927 0.144517 0.459264 
0.888569 0.331483 0.498398 0.230469 0.198245 
0.706582 0.872706 0.852983 0.761338 0.664306 
0.491636 0.757908 0.560185 0.731353 0.331226 
0.616565 0.670256 0.289604 0.0595761 0.369031 
0.305487 0.632333 0.0710262 0.494847 0.982653 
0.0128229 0.619854 0.0212682 0.391975 0.762641 
0.35068 0.973882 0.946646 0.92456 0.786718 
0.74069 0.260381 0.767124 0.315274 0.937089 
0.869898 0.125275 0.19394 0.125003 0.791267 
0.657745 0.726895 0.775716 0.92452 0.901976 
0.660634 0.47896 0.379208 0.314201 0.119434 
0.559762 0.755234 0.0562146 0.936188 0.0913555 
0.404106 0.745876 0.201238 0.55738 0.626793 
0.486156 0.98321 0.364739 0.242134 0.604429 
0.948333 0.975345 0.796242 0.638589 0.804606 
0.912413 0.851475 0.538388 0.441437 0.656506 
0.185865 0.816954 0.017817 0.0540386 0.268004 
0.227219 0.490309 0.138763 0.715827 0.349938 
0.132912 0.322903 0.711849 0.0663695 0.549777 
0.167462 0.225605 0.909655 0.327951 0.500262 
0.189335 0.298823 0.925187 0.992042 0.32178 
0.878879 0.787689 0.97975 0.231258 0.70339 
0.532026 0.579232 0.180588 0.192448 0.613569 
0.605868 0.448768 0.364648 0.141094 0.987369 
0.830631 0.918622 0.754064 0.715458 0.369155 
0.511558 0.271945 0.903433 0.449966 0.47486 
0.0921526 0.958321 0.453147 0.442316 0.626771 
0.449212 0.350091 0.128565 0.778342 0.903823 
0.951956 0.703686 0.697786 0.660253 0.401321 
0.214775 0.446001 0.445592 0.834393 0.538219 
0.676548 0.0864291 0.208483 0.172556 0.323766 
0.884289 0.62158 0.0030698 0.422089 0.946256 
0.579676 0.157142 0.688784 0.711701 0.915639 
0.691311 0.0555967 0.0726714 0.326931 0.650383 
0.121313 0.0825807 0.114383 0.715741 0.428248 
0.911919 0.134227 0.423632 0.663107 0.917923 
0.43275 0.865246 0.222047 0.776819 0.678851 
0.13642 0.925978 0.983968 0.757192 0.402784 
0.602589 0.631262 0.870558 0.599033 0.239184 
0.203186 0.165195 0.400184 0.823446 0.130381 
0.814734 0.0363729 0.511181 0.452643 0.901297 
0.153855 0.250628 0.685956 0.659433 0.282128 
0.746484 0.842079 0.506382 0.777323 0.847839 
0.658212 0.658862 0.107488 0.0188617 0.41318 
0.779033 0.651182 0.217674 0.744174 0.390418 
0.185801 0.974493 0.36642 0.403171 0.650015 
0.795901 0.820275 0.889713 0.599404 0.52781 
0.234218 0.337525 0.216318 0.113237 0.0429498 
0.302118 0.258859 0.670106 0.798091 0.883563 
0.0904372 0.724938 0.233184 0.541541 0.219454 
0.892207 0.0448074 0.456129 0.330809 0.925284 
0.259262 0.769321 0.469641 0.726012 0.224399 
0.882331 0.0842524 0.981718 0.722322 0.946558 
0.198376 0.0664426 0.843906 0.358871 0.721058 
0.835875 0.549975 0.759145 0.764613 0.99324 
0.632018 0.238933 0.0323528 0.706277 0.507357 
0.988495 0.755216 0.266591 0.0255701 0.0578621 
0.0786894 0.590965 0.0603495 0.977901 0.633134 
0.0661127 0.38173 0.853453 0.815344 0.157358 
0.582428 0.75167 0.675859 0.599426 0.802363 
0.518906 0.918461 0.856395 0.341874 0.55193 
0.0353743 0.847658 0.307882 0.45444 0.66409 
0.953968 0.800948 0.832914 0.970759 0.679638 
0.701057 0.549737 0.131432 0.604516 0.442529 
0.865349 0.936922 0.360696 0.0444589 0.573299 
0.768761 0.382654 0.596805 0.034025 0.25406 
0.93692 0.779964 0.840437 0.488291 0.616498 
0.0174828 0.916171 0.114039 0.745697 0.233318 
0.433639 0.618678 0.779505 0.742915 0.328522 
0.35936 0.295202 0.949392 0.367928 0.112538 
0.936552 0.509225 0.200394 0.580749 0.762339 
0.598074 0.714023 0.632054 0.929327 0.981349 
0.638589 0.374964 0.570805 0.796503 0.331115 
0.331708 0.0229722 0.737311 0.763594 0.158373 
0.560103 0.92719 0.0739696 0.894635 0.0871253 
0.119059 0.278134 0.440396 0.208865 0.361623 
0.791217 0.62167 0.402178 0.790215 0.68273 
0.987973 0.280004 0.497813 0.0386481 0.0964894 
0.768438 0.839635 0.0830002 0.122504 0.278699 
0.284043 0.0987989 0.927235 0.0807803 0.44045 
0.532153 0.348955 0.561284 0.350652 0.0254708 
0.519074 0.920832 0.197033 0.166897 0.441547 
0.184262 0.445833 0.477979 0.599679 0.767434 
0.610067 0.607745 0.182127 0.348354 0.919346 
0.487841 0.998005 0.781975 0.168207 0.859687 
0.896901 0.310525 0.802831 0.815495 0.839289 
0.587663 0.0969934 0.388888 0.0237512 0.584953 
0.480897 0.30299 0.693697 0.225503 0.420136 
0.573632 0.235809 0.0825938 0.479058 0.0502642 
0.276958 0.261014 0.346068 0.453732 0.819701 
0.831896 0.956219 0.495685 0.20191 0.142617 
0.55763 0.867547 0.963889 0.622271 0.00804862 
0.520235 0.578643 0.90527 0.933019 0.85859 
0.845715 0.106011 0.595041 0.300145 0.344177 
0.478648 0.263233 0.76393 0.505581 0.833049 
0.31987 0.301867 0.375696 0.752663 0.71898 
0.537895 0.435325 0.102745 0.069804 0.266454 
0.719205 0.462733 0.104145 0.369045 0.28493 
0.169598 0.679872 0.209307 0.502163 0.242816 
0.54231 0.893066 0.0648429 0.378761 0.860227 
0.902072 0.400029 0.639883 0.357179 0.735009 
0.831637 0.54341 0.163108 0.589921 0.842127 
0.649765 0.37952 0.917633 0.0313156 0.137162 
0.937977 0.382107 0.0398401 0.668084 0.0328064 
0.805985 0.5114 0.804321 0.579558 0.508502 
0.247069 0.76502 0.966809 0.741483 0.194501 
0.981538 0.406415 0.954286 0.73397 0.400373 
0.26837 0.536455 0.373991 0.0539698 0.454546 
0.963835 0.257772 0.888571 0.210623 0.673004 
0.516744 0.429112 0.467079 0.374184 0.258124 
0.470988 0.773726 0.472624 0.740933 0.0753058 
0.338278 0.920904 0.604002 0.086099 0.992 
0.72478 0.817872 0.137664 0.97621 0.211983 
0.559176 0.0216751 0.486296 0.0445144 0.397721 
0.120457 0.642914 0.799703 0.779946 0.10581 
0.68337 0.921108 0.0878307 0.0947041 0.479982 
0.633763 0.959039 0.201902 0.890086 0.486856 
0.0395939 0.892169 0.645054 0.915267 0.0539697 
0.30566 0.0496398 0.978061 0.0639805 0.650863 
0.749158 0.311766 0.394433 0.702294 0.277629 
0.176946 0.53199 0.210272 0.742083 0.580191 
0.727987 0.800689 0.173003 0.953184 0.411711 
0.532533 0.392638 0.798677 0.22734 0.895303 
0.0222587 0.951088 0.184323 0.693362 0.673603 
0.000929214 0.661586 0.252702 0.747544 0.658482 
0.00475927 0.102174 0.753902 0.567318 0.0390065 
0.29612 0.79492 0.828025 0.709805 0.647847 
0.646004 0.147287 0.434727 0.300244 0.968557 
0.644822 0.90691 0.606184 0.178541 0.783913 
0.922449 0.920507 0.462063 0.541841 0.604561 
0.0721945 0.580836 0.818682 0.0856824 0.518155 
0.086742 0.254127 0.8383 0.0937797 0.3166 
0.0086794 0.492902 0.769336 0.9856 0.948816 
0.819824 0.579624 0.0741228 0.00620756 0.113308 
0.228532 0.0243929 0.570197 0.657005 0.607914 
0.428236 0.389958 0.615843 0.642703 0.96043 
0.562979 0.262105 0.292624 0.412144 0.556214 
0.38394 0.277987 0.875269 0.72611 0.687667 
0.714846 0.247055 0.119783 0.709169 0.640561 
0.91245 0.357646 0.484873 0.4709 0.192179 
0.435326 0.427852 0.0159005 0.921649 0.0695483 
0.658534 0.928353 0.809897 0.133659 0.692065 
0.322438 0.492479 0.966808 0.0152714 0.847762 
0.793484 0.152993 0.851642 0.0971381 0.0331402 
0.726082 0.826601 0.636403 0.538509 0.115794 
0.717424 0.759632 0.758525 0.762042 0.128554 
0.875749 0.921696 0.475098 0.799184 0.7257 
0.144517 0.598062 0.511601 0.200346 0.144078 
0.146353 0.552519 0.370073 0.983093 0.0652934 
0.409217 0.14035 0.993601 0.3184 0.83341 
0.186357 0.925477 0.629373 0.0620955 0.473738 
0.64192 0.783203 0.918446 0.981908 0.736595 
0.385745 0.000951639 0.234776 0.268549 0.563332 
0.12023 0.401377 0.960668 0.33011 0.852474 
0.86099 0.800305 0.525622 0.377702 0.22712 
0.831561 0.64513 0.315513 0.325278 0.782129 
0.827923 0.983144 0.849059 0.358 0.916191 
0.110433 0.333833 0.547328 0.987849 0.178765 
0.999739 0.677053 0.446368 0.49984 0.449378 
0.219331 0.643571 0.718206 0.557029 0.584864 
0.512112 0.956427 0.0233125 0.633992 0.9875 
0.107114 0.0411691 0.302604 0.211905 0.703965 
0.192465 0.0873222 0.0773342 0.270097 0.053861 
0.710393 0.64308 0.202621 0.335808 0.220616 
0.537326 0.0019054 0.753628 0.775768 0.115958 
0.975468 0.137782 0.251081 0.53881 0.93475 
0.946538 0.0455431 0.962543 0.275672 0.0690955 
0.790848 0.965626 0.0593421 0.115267 0.648858 
0.317591 0.327593 0.339107 0.381776 0.168373 
0.427454 0.167088 0.232836 0.540277 0.496553 
0.0536702 0.96386 0.280017 0.310223 0.918484 
0.351894 0.651415 0.091654 0.304213 0.0921289 
0.894131 0.737023 0.197962 0.107093 0.172396 
0.0199942 0.540157 0.480766 0.395501 0.626042 
0.641995 0.675878 0.693976 0.31451 0.291268 
0.174021 0.00573647 0.84281 0.55667 0.190784 
0.264542 0.360498 0.649641 0.70699 0.0272721 
0.958724 0.881317 0.106254 0.284014 0.934279 
0.34054 0.993644 0.539409 0.911912 0.45637 
0.78136 0.601568 0.887235 0.132927 0.028957 
0.904915 0.378606 0.707479 0.805158 0.0788675 
0.881464 0.940295 0.986853 0.720358 0.93427 
0.299435 0.0496118 0.572227 0.968456 0.825435 
0.845232 0.328724 0.621317 0.720967 0.814723 
0.149241 0.606651 0.10042 0.759244 0.261422 
0.719936 0.527258 0.634521 0.885149 0.0755014 
0.845164 0.207515 0.613908 0.409438 0.276015 
0.50722 0.545983 0.296482 0.755755 0.582643 
0.000444803 0.1598 0.184364 0.651088 0.850962 
0.660931 0.923308 0.0484071 0.587338 0.973273 
0.970177 0.291169 0.124987 0.437695 0.740007 
0.336253 0.447251 0.652109 0.846067 0.672179 
0.374784 0.347916 0.128553 0.790141 0.984877 
0.998851 0.0446043 0.66137 0.536928 0.964554 
0.0442638 0.621166 0.110049 0.0151025 0.716432 
0.186228 0.271966 0.545664 0.540543 0.563996 
0.376177 0.887758 0.319951 0.945387 0.737564 
0.0565253 0.278922 0.181551 0.0218422 0.583039 
0.964417 0.585808 0.556977 0.459177 0.272827 
0.0231575 0.213259 0.83237 0.626251 0.369529 
0.253132 0.97304 0.0797739 0.920296 0.595554 
0.892029 0.961181 0.581265 0.557432 0.40197 
0.0744024 0.434171 0.410338 0.89101 0.280842 
0.822706 0.084347 0.512591 0.0395276 0.131845 
0.582846 0.45579 0.49988 0.915494 0.529077 
0.518089 0.348173 0.936135 0.137085 0.370387 
0.281061 0.32778 0.505923 0.736813 0.749204 
0.155332 0.336221 0.568986 0.757747 0.406738 
0.882276 0.970723 0.771516 0.682621 0.457126 
0.627312 0.489799 0.15263 0.0200814 0.252073 
0.305325 0.262599 0.568494 0.786073 0.01276 
0.304147 0.495163 0.505825 0.797681 0.634858 
0.510765 0.362283 0.434679 0.764975 0.895906 
0.436752 0.421353 0.218482 0.870185 0.392328 
0.573491 0.561118 0.325175 0.434113 0.593871 
0.722013 0.930228 0.824705 0.197061 0.149651 
0.369889 0.847841 0.792439 0.844144 0.643066 
0.0788425 0.76522 0.265857 0.175783 0.388268 
0.874091 0.643315 0.0232364 0.135913 0.699933 
0.46939 0.126062 0.0617307 0.579551 0.242043 
0.242328 0.362082 0.856231 0.646952 0.267538 
0.374673 0.101655 0.632659 0.460617 0.561728 
0.65172 0.278106 0.442884 0.878632 0.542089 
0.551812 0.682789 0.427822 0.0626092 0.388167 
0.253938 0.701828 0.928785 0.297814 0.227709 
0.185137 0.554044 0.442825 0.800068 0.122643 
0.0454521 0.0833571 0.830182 0.720674 0.847083 
0.538543 0.571271 0.881358 0.287668 0.166377 
0.890695 0.753698 0.702486 0.678168 0.723302 
0.108183 0.963174 0.558728 0.478285 0.24352 
0.64897 0.609026 0.380981 0.0673956 0.491298 
0.200388 0.0659426 0.796979 0.531879 0.244362 
0.971172 0.930441 0.154798 0.932463 0.408374 
0.207578 0.162729 0.837955 0.873163 0.111067 
0.281894 0.913526 0.467868 0.262202 0.253233 
0.979361 0.766225 0.122052 0.136078 0.315296 
0.215537 0.736751 0.33421 0.448883 0.0720828 
0.609478 0.113413 0.749749 0.292923 0.796169 
0.871435 0.36043 0.41036 0.811257 0.175113 
0.0985032 0.881592 0.630462 0.645658 0.150105 
0.57693 0.74258 0.381511 0.735157 0.314874 
0.471658 0.670036 0.185556 0.633353 0.479733 
0.834406 0.9535 0.651882 0.643798 0.267149 
0.894754 0.909111 0.416505 0.983348 0.290358 
0.718613 0.600565 0.996398 0.0625719 0.928362 
0.27604 0.550316 0.84329 0.536769 0.230797 
0.967587 0.22422 0.819404 0.234823 0.273202 
0.442957 0.16751 0.89137 0.00682766 0.528988 
0.542954 0.238858 0.496066 0.856649 0.451416 
0.95287 0.917155 0.911406 0.827667 0.842396 
0.718341 0.813292 0.480446 0.33634 0.97142 
0.569256 0.480176 0.001515 0.502302 0.883706 
0.371752 0.27385 0.914268 0.522654 0.895935 
0.62407 0.105677 0.324616 0.134438 0.282776 
0.510836 0.482787 0.357646 0.479632 0.943299 
0.706787 0.840826 0.155272 0.700572 0.162422 
0.0720145 0.578745 0.422347 0.518472 0.483855 
0.792283 0.139499 0.552872 0.80172 0.612958 
0.428237 0.85647 0.981638 0.527598 0.2105 
0.501948 0.0262872 0.965234 0.464584 0.865575 
0.158827 0.262826 0.583751 0.154614 0.607983 
0.00273321 0.197155 0.812705 0.104829 0.986764 
0.487974 0.11319 0.187977 0.970279 0.940428 
0.35954 0.821091 0.490091 0.37942 0.213698 
0.22094 0.646319 0.0772792 0.041553 0.953152 
0.28436 0.816664 0.048425 0.696075 0.523694 
0.951147 0.0355852 0.603338 0.425496 0.5046 
0.929293 0.650639 0.0771264 0.404073 0.643384 
0.763781 0.953569 0.14932 0.157077 0.453471 
0.403586 0.703493 0.719533 0.00529396 0.363521 
0.340522 0.832871 0.410435 0.141554 0.0444126 
0.914237 0.691334 0.915776 0.768154 0.986114 
0.175231 0.652769 0.829497 0.509794 0.84131 
0.33336 0.194143 0.778829 0.408495 0.213533 
0.832307 0.448044 0.384898 0.524053 0.959192 
0.35656 0.534106 0.275814 0.799224 0.757383 
0.18575 0.749398 0.154246 0.190415 0.0750224 
0.42764 0.68824 0.0378733 0.188142 0.721394 
0.657442 0.327609 0.941152 0.148251 0.64121 
0.0751751 0.35931 0.288395 0.17464 0.876911 
0.256168 0.546108 0.957532 0.207081 0.191804 
0.144911 0.727293 0.832354 0.965362 0.776069 
0.729409 0.0482862 0.763314 0.796782 0.422767 
0.292116 0.327503 0.182249 0.915912 0.500069 
0.510915 0.978342 0.562433 0.304023 0.830485 
0.338868 0.930758 0.334182 0.954278 0.113731 
0.374963 0.824778 0.0149441 0.27025 0.0504324 
0.198838 0.772746 0.30225 0.351889 0.513562 
0.674379 0.54924 0.528138 0.9119 0.874151 
0.423645 0.550229 0.456495 0.502388 0.510533 
0.622325 0.748652 0.104063 0.407981 0.826723 
0.0142489 0.75403 0.723718 0.382097 0.526191 
0.32818 0.892406 0.623155 0.166603 0.130652 
0.299379 0.00720401 0.997709 0.23757 0.829564 
0.700361 0.972449 0.00232898 0.0445307 0.320102 
0.0486545 0.784051 0.266437 0.536622 0.16129 
0.646754 0.731621 0.4239 0.864118 0.904119 
0.672819 0.727231 0.678136 0.648749 0.256808 
0.517975 0.784914 0.865014 0.567413 0.379423 
0.327146 0.846347 0.674654 0.613429 0.258587 
0.243362 0.54512 0.348816 0.556508 0.261045 
0.390727 0.635179 0.569864 0.491424 0.718625 
0.773874 0.603418 0.0573099 0.293114 0.390664 
0.104448 0.111305 0.687278 0.953986 0.199193 
0.427661 0.696756 0.246818 0.382345 0.660416 
0.891568 0.145173 0.688452 0.569787 0.106839 
0.849506 0.649651 0.43055 0.513555 0.212945 
0.428127 0.241342 0.59543 0.503157 0.136496 
0.795411 0.567557 0.473197 0.628913 0.231783 
0.379443 0.354653 0.941163 0.384852 0.0177171 
0.799296 0.119323 0.784409 0.790144 0.136436 
0.240754 0.742061 0.0236916 0.0654844 0.561028 
0.297855 0.0952121 0.82909 0.156775 0.762285 
0.54681 0.357897 0.130442 0.864238 0.678502 
0.674126 0.573195 0.0255537 0.251127 0.23128 
0.89697 0.433038 0.70989 0.686534 0.452402 
0.81647 0.0109483 0.536962 0.823097 0.889795 
0.482514 0.721929 0.149296 0.194963 0.420419 
