3200 5
0.481056 0.0202695 0.220199 0.207145 0.029656 
0.787979 0.694796 0.222688 0.763446 0.168833 
0.521578 0.379252 0.35088 0.862772 0.0566469 
0.149078 0.941069 0.913458 0.795128 0.274953 
0.984465 0.185275 0.713985 0.260533 0.439273 
0.961543 0.384973 0.396613 0.406271 0.946519 
0.655238 0.754056 0.359349 0.747398 0.404871 
0.318266 0.229436 0.568227 0.319919 0.779716 
0.386306 0.127704 0.0668562 0.396388 0.551861 
0.429262 0.702471 0.382055 0.758994 0.130161 
0.331794 0.998153 0.569728 0.987382 0.647894 
0.331757 0.0179499 0.605089 0.767762 0.111311 
0.928429 0.61951 0.143449 0.317012 0.402562 
0.764643 0.358583 0.0140461 0.483479 0.589767 
0.762052 0.986696 0.569521 0.803409 0.0392378 
0.356311 0.120337 0.696768 0.0641176 0.20803 
0.295389 0.0699217 0.499906 0.0990289 0.889497 
0.253878 0.356603 0.640017 0.108573 0.873818 
0.264522 0.0883472 0.303649 0.231731 0.711255 
0.937627 0.215321 0.783179 0.557345 0.852558 
0.998724 0.592194 0.0932557 0.509142 0.207638 
0.403968 0.0746827 0.535815 0.839181 0.187357 
0.725264 0.451598 0.0472215 0.745702 0.584998 
0.0541761 0.510179 0.0904148 0.182924 0.0612388 
0.325338 0.416513 0.477492 0.469745 0.875762 
0.98138 0.208503 0.0103077 0.537509 0.856321 
0.205663 0.640831 0.332228 0.88081 0.305662 
0.271738 0.0946818 0.759486 0.0303906 0.657562 
0.778273 0.844599 0.666789 0.582542 0.127575 
0.587732 0.393721 0.429477 0.290459 0.204703 
0.869638 0.727167 0.321687 0.561489 0.410253 
0.192522 0.383077 0.93321 0.143613 0.147029 
0.607685 0.311842 0.790776 0.389661 0.355239 
0.109317 0.230207 0.00722744 0.783207 0.923707 
0.0433945 0.813668 0.925053 0.195838 0.366587 
0.130525 0.983555 0.574026 0.299213 0.0598828 
0.253625 0.929843 0.965934 0.716018 0.48826 
0.0562495 0.786319 0.101564 0.459352 0.183152 
0.00648054 0.525057 0.165899 0.266697 0.333823 
0.411089 0.38486 0.411891 0.660426 0.0793602 
0.640608 0.48314 0.0662547 0.310368 0.973063 
0.613794 0.976197 0.827308 0.46082 0.868319 
0.121127 0.847357 0.115255 0.827142 0.921193 
0.172625 0.814365 0.424035 0.591772 0.608839 
0.0382981 0.412147 0.459038 0.498316 0.117703 
0.641602 0.370223 0.969468 0.127687 0.170756 
0.469614 0.253641 0.438554 0.866467 0.644068 
0.179299 0.565558 0.79367 0.156852 0.500965 
0.773107 0.180722 0.858595 0.263057 0.753605 
0.99297 0.979 0.0163974 0.83157 0.536602 
0.727642 0.599548 0.65916 0.435445 0.253398 
0.559384 0.721871 0.847689 0.389993 0.690044 
0.99912 0.0983817 0.688267 0.539955 0.26635 
0.431288 0.987874 0.090005 0.843844 0.11815 
0.615817 0.917461 0.970532 0.0612596 0.200613 
0.826663 0.230574 0.722546 0.678405 0.868132 
0.352854 0.0516695 0.467456 0.587441 0.411882 
0.51102 0.1512 0.187661 0.115949 0.256109 
0.950727 0.931995 0.983333 0.757647 0.953349 
0.743329 0.451039 0.128651 0.809525 0.123265 
0.843925 0.202202 0.916346 0.0428372 0.703534 
0.24769 0.506767 0.0308197 0.456896 0.29096 
0.477141 0.855335 0.788033 0.543121 0.399018 
0.143869 0.405372 0.842916 0.0509189 0.870864 
0.451868 0.271833 0.755918 0.735796 0.881317 
0.541535 0.396763 0.0563109 0.791782 0.440868 
0.479939 0.757687 0.266479 0.981205 0.818672 
0.890065 0.815415 0.712914 0.939416 0.362157 
0.0407989 0.129786 0.964744 0.480609 0.894031 
0.111854 0.6793 0.351737 0.778734 0.840543 
0.47799 0.0784411 0.279737 0.719986 0.927925 
0.347386 0.453066 0.656855 0.432031 0.0756451 
0.120076 0.932685 0.111464 0.208405 0.333758 
0.9339 0.551653 0.310633 0.196918 0.101207 
0.615445 0.156523 0.428745 0.636982 0.267185 
0.373358 0.444968 0.345585 0.771623 0.764227 
0.524631 0.537782 0.690572 0.809134 0.684183 
0.93755 0.499228 0.7575 0.470452 0.819548 
0.0683382 0.137771 0.199664 0.0429999 0.67421 
0.438607 0.597683 0.956147 0.669038 0.619051 
0.683347 0.919064 0.199337 0.0435911 0.307682 
0.166016 0.506936 0.647639 0.175382 0.0206427 
0.177481 0.675795 0.408802 0.632022 0.66418 
0.425957 0.897163 0.503234 0.595154 0.84118 
0.717616 0.715966 0.460509 0.439463 0.520969 
0.196217 0.0549636 0.832012 0.360657 0.406006 
0.819421 0.483838 0.788226 0.667127 0.748981 
0.688753 0.81108 0.732501 0.657092 0.9418 
0.832825 0.230359 0.117442 0.990011 0.708339 
0.0632481 0.269559 0.106089 0.639839 0.723495 
0.794134 0.512187 0.0409211 0.200681 0.199133 
0.72942 0.535854 0.0167014 0.682524 0.793281 
0.695561 0.592061 0.34789 0.729409 0.796027 
0.572249 0.697785 0.0370934 0.614095 0.358251 
0.117812 0.973077 0.269745 0.951508 0.384729 
0.00212412 0.763548 0.71173 0.164389 0.329171 
0.0392635 0.894206 0.0639422 0.882457 0.463308 
0.222046 0.205719 0.0871349 0.464709 0.420343 
0.991074 0.414709 0.240113 0.480906 0.40565 
0.860831 0.312934 0.891181 0.909241 0.589015 
0.950683 0.299643 0.573399 0.830957 0.955844 
0.997638 0.725978 0.207794 0.780073 0.606406 
0.606913 0.148333 0.306138 0.0055708 0.0709126 
0.634363 0.646654 0.231619 0.32829 0.411712 
0.492611 0.89106 0.551289 0.986271 0.459956 
0.457985 0.905484 0.46399 0.0691525 0.230483 
0.539659 0.772987 0.528711 0.361422 0.528347 
0.215427 0.916011 0.682119 0.835364 0.812651 
0.929692 0.606373 0.0588314 0.807138 0.832809 
0.149161 0.0558325 0.0415019 0.00725074 0.0199949 
0.0188501 0.153754 0.841943 0.769002 0.716424 
0.686709 0.112436 0.593562 0.69337 0.654939 
0.188892 0.0770378 0.885988 0.870616 0.514376 
0.395809 0.0918967 0.101994 0.421651 0.258977 
0.302627 0.955878 0.136192 0.0512675 0.516685 
0.231445 0.0634821 0.4785 0.973871 0.163446 
0.165359 0.92416 0.0354896 0.308108 0.740069 
0.931676 0.607657 0.0215294 0.939002 0.526689 
0.579264 0.491616 0.276306 0.36217 0.477457 
0.27268 0.597219 0.594704 0.166296 0.296883 
0.285467 0.709272 0.725914 0.728307 0.704114 
0.40415 0.8533 0.478874 0.785531 0.621594 
0.472374 0.334004 0.0882885 0.731274 0.300141 
0.858977 0.600079 0.085106 0.366812 0.209938 
0.148824 0.419969 0.881021 0.336941 0.014877 
0.665866 0.331352 0.776626 0.712846 0.0273359 
0.193455 0.706434 0.748349 0.248907 0.245674 
0.0962039 0.578664 0.375754 0.15716 0.266616 
0.255323 0.640586 0.915156 0.520001 0.682067 
0.635675 0.540239 0.465828 0.833855 0.693357 
0.659344 0.861594 0.421795 0.888624 0.349848 
0.88333 0.211564 0.095712 0.626512 0.0447963 
0.944658 0.819365 0.268353 0.180022 0.804153 
0.763743 0.261888 0.940269 0.297067 0.202609 
0.136631 0.19428 0.890827 0.338509 0.888367 
0.231845 0.919498 0.957206 0.762095 0.234682 
0.897933 0.0799033 0.0566076 0.448924 0.121427 
0.76055 0.963007 0.389201 0.899837 0.294931 
0.346607 0.313515 0.666043 0.924113 0.289597 
0.998509 0.136739 0.568811 0.928669 0.961129 
0.558503 0.171519 0.806299 0.166637 0.282838 
0.0391661 0.608174 0.122451 0.549297 0.695201 
0.812046 0.672069 0.935819 0.0756915 0.179658 
0.464227 0.87116 0.355222 0.137908 0.476094 
0.595182 0.281238 0.0260865 0.706661 0.1496 
0.0377126 0.455312 0.0763199 0.0287114 0.548608 
0.933194 0.778168 0.681966 0.690328 0.552664 
0.140934 0.774257 0.0471382 0.129339 0.506042 
0.442456 0.90087 0.870073 0.551629 0.683854 
0.42097 0.926099 0.235949 0.959166 0.127563 
0.808578 0.050986 0.225794 0.0858029 0.381338 
0.976771 0.366151 0.583469 0.792443 0.144816 
0.521388 0.315578 0.153158 0.306502 0.223879 
0.0295028 0.916001 0.0555126 0.737159 0.777901 
0.434435 0.699509 0.0967622 0.0378071 0.578973 
0.299338 0.77088 0.547831 0.0103974 0.0977015 
0.706602 0.735587 0.579214 0.535366 0.788782 
0.445527 0.788313 0.45453 0.785868 0.0516805 
0.040203 0.418912 0.648067 0.609694 0.628916 
0.420622 0.0602472 0.801268 0.180528 0.916973 
0.990532 0.128423 0.484664 0.476886 0.384092 
0.67087 0.960755 0.879711 0.0185641 0.711661 
0.984021 0.481504 0.181445 0.568685 0.688997 
0.447091 0.20843 0.831756 0.14108 0.395656 
0.811221 0.543692 0.905462 0.537457 0.263594 
0.872869 0.744747 0.104534 0.206301 0.153573 
0.623842 0.443233 0.524774 0.291937 0.292881 
0.918717 0.838238 0.599971 0.826431 0.0318192 
0.103673 0.166306 0.0864204 0.851554 0.180742 
0.393686 0.0688553 0.961298 0.410008 0.393689 
0.852279 0.248566 0.379301 0.298298 0.0203703 
0.252021 0.106499 0.211696 0.038891 0.170237 
0.870048 0.81004 0.955481 0.669778 0.16726 
0.430105 0.652964 0.680328 0.237122 0.341429 
0.595335 0.350348 0.25385 0.77458 0.563519 
0.555496 0.792479 0.508109 0.399066 0.856542 
0.226738 0.223434 0.777783 0.336232 0.0838224 
0.941702 0.545736 0.154188 0.512593 0.330186 
0.837599 0.84751 0.405022 0.783671 0.516718 
0.615083 0.0445422 0.804589 0.0937166 0.718801 
0.0101582 0.683696 0.478455 0.231064 0.132954 
0.122953 0.360821 0.0855306 0.444584 0.271729 
0.606502 0.722546 0.980194 0.449497 0.134144 
0.760297 0.91944 0.89742 0.0252982 0.976376 
0.114904 0.0620555 0.32382 0.684463 0.903977 
0.298951 0.641144 0.474203 0.0660569 0.340308 
0.278744 0.357178 0.566657 0.990317 0.248507 
0.174734 0.662175 0.93502 0.271659 0.761086 
0.428029 0.789878 0.933626 0.306051 0.83141 
0.815082 0.884033 0.861563 0.380221 0.836238 
0.0550111 0.263324 0.644162 0.442369 0.729323 
0.136174 0.470339 0.357612 0.823895 0.89224 
0.560431 0.83671 0.36981 0.465327 0.820797 
0.559349 0.588722 0.0416121 0.426335 0.173082 
0.374347 0.257068 0.522356 0.694614 0.330952 
0.374906 0.341688 0.240737 0.58981 0.959539 
0.40962 0.942097 0.863375 0.515261 0.048612 
0.371488 0.0994898 0.889648 0.438834 0.6282 
0.770678 0.126851 0.788486 0.547187 0.0523553 
0.0439465 0.651257 0.0375621 0.833264 0.0225624 
0.50955 0.724131 0.411827 0.723635 0.674163 
0.886636 0.904096 0.779629 0.649988 0.560595 
0.822088 0.960161 0.526444 0.35665 0.591992 
0.267739 0.301127 0.832055 0.105544 0.782621 
0.731488 0.421535 0.104997 0.712894 0.936056 
0.814324 0.386417 0.546244 0.841677 0.807434 
0.990801 0.882551 0.736793 0.0325082 0.81609 
0.177324 0.435789 0.204157 0.683888 0.846356 
0.555797 0.0456858 0.652623 0.325719 0.620679 
0.139267 0.229723 0.713657 0.975577 0.973114 
0.716407 0.0953403 0.241454 0.954007 0.497361 
0.143538 0.0234788 0.654549 0.348465 0.1764 
0.678414 0.299369 0.118269 0.883189 0.926976 
0.934759 0.77653 0.146124 0.131922 0.393365 
0.25104 0.920386 0.630127 0.979255 0.29992 
0.735611 0.377307 0.443013 0.318561 0.131768 
0.852036 0.831717 0.708712 0.439962 0.5029 
0.281987 0.367303 0.906597 0.537376 0.23129 
0.360654 0.716312 0.771518 0.82918 0.119136 
0.864704 0.579393 0.342486 0.494582 0.781918 
0.156363 0.104034 0.229299 0.734286 0.834607 
0.431032 0.804175 0.868471 0.406401 0.699351 
0.575111 0.159095 0.164953 0.0920677 0.420834 
0.548291 0.108439 0.157367 0.47933 0.959223 
0.509731 0.432754 0.35035 0.971135 0.0143229 
0.00864091 0.547977 0.532597 0.0820507 0.652306 
0.117658 0.915337 0.402539 0.469216 0.130738 
0.714214 0.87414 0.817767 0.243395 0.179055 
0.123966 0.492291 0.623611 0.767315 0.323775 
0.94124 0.950441 0.252014 0.22499 0.627768 
0.525225 0.31419 0.620066 0.25695 0.976603 
0.111586 0.893529 0.449038 0.560611 0.060503 
0.458138 0.98325 0.695383 0.734296 0.0709581 
0.0156255 0.402177 0.902932 0.0563143 0.741815 
0.258316 0.870278 0.282182 0.868057 0.883913 
0.551502 0.279111 0.392903 0.81168 0.844161 
0.613469 0.593136 0.067445 0.595998 0.226247 
0.459724 0.390149 0.00343729 0.213026 0.642476 
0.291255 0.662535 0.0899402 0.275199 0.525909 
0.142636 0.28979 0.776402 0.968769 0.753889 
0.604483 0.692606 0.25957 0.095989 0.92704 
0.0527551 0.289446 0.811161 0.952909 0.855033 
0.203154 0.250371 0.947777 0.184918 0.436918 
0.387082 0.742858 0.703977 0.175305 0.176228 
0.220534 0.454761 0.215675 0.544927 0.50291 
0.845991 0.571237 0.0776941 0.91485 0.71612 
0.335084 0.493933 0.731623 0.830646 0.328003 
0.506957 0.483659 0.218203 0.171737 0.454778 
0.072572 0.332125 0.991874 0.917634 0.640099 
0.490628 0.755897 0.894424 0.290801 0.980669 
0.888717 0.731392 0.482443 0.314378 0.553438 
0.321834 0.269364 0.421259 0.57344 0.220148 
0.452991 0.0973676 0.841154 0.7786 0.0678685 
0.590281 0.938426 0.819963 0.632195 0.297534 
0.44509 0.876909 0.444654 0.701798 0.54549 
0.677415 0.654628 0.895207 0.954776 0.383528 
0.236542 0.214208 0.288765 0.224795 0.426866 
0.565516 0.677526 0.459844 0.736404 0.598689 
0.998416 0.280702 0.881952 0.318155 0.204445 
0.36686 0.767396 0.915669 0.994751 0.649457 
0.350128 0.12772 0.946182 0.878062 0.3244 
0.443864 0.434379 0.360635 0.732367 0.797499 
0.680177 0.764877 0.825307 0.42939 0.353378 
0.67257 0.729058 0.563012 0.991904 0.0887956 
0.439015 0.496272 0.960436 0.605065 0.187101 
0.278818 0.876093 0.249629 0.429764 0.314501 
0.777391 0.757423 0.406039 0.461049 0.444299 
0.114138 0.66887 0.0609223 0.0887925 0.80402 
0.512072 0.0178825 0.0307372 0.789111 0.667127 
0.614224 0.963273 0.828674 0.326017 0.413789 
0.896998 0.315488 0.980988 0.507001 0.355842 
0.502312 0.139281 0.668922 0.0562359 0.894635 
0.57376 0.528895 0.221785 0.377108 0.890829 
0.0943002 0.338523 0.497624 0.950868 0.329138 
0.649171 0.0784767 0.679984 0.823672 0.13983 
0.468561 0.185604 0.93505 0.200999 0.0905323 
0.0889736 0.277689 0.450028 0.309633 0.842235 
0.594023 0.479257 0.0736026 0.0298108 0.703956 
0.602842 0.165185 0.493575 0.388901 0.681821 
0.911163 0.605631 0.49748 0.223223 0.585659 
0.751004 0.590358 0.571129 0.712018 0.96263 
0.679834 0.856927 0.268853 0.912561 0.0205873 
0.427437 0.764947 0.901358 0.551071 0.299385 
0.949182 0.100168 0.0550584 0.808315 0.978484 
0.607597 0.760509 0.59448 0.736642 0.141437 
0.50149 0.208508 0.1222 0.200542 0.497943 
0.0992133 0.703152 0.301121 0.714126 0.565134 
0.739113 0.548968 0.293169 0.187282 0.467643 
0.97291 0.841632 0.196971 0.76783 0.235893 
0.464876 0.528047 0.734138 0.0619571 0.587593 
0.251733 0.836501 0.911369 0.920477 0.721388 
0.154015 0.293106 0.979931 0.877729 0.083873 
0.648088 0.0563131 0.83699 0.368604 0.934018 
0.167389 0.119978 0.397142 0.990271 0.776661 
0.692077 0.258303 0.822157 0.35099 0.587464 
0.822035 0.899684 0.0899047 0.367034 0.914173 
0.533678 0.0352902 0.938827 0.992804 0.817411 
0.919654 0.686249 0.24006 0.439694 0.24555 
0.744982 0.225008 0.723249 0.0746405 0.0955037 
0.46931 0.0544102 0.635672 0.203426 0.768438 
0.316101 0.346586 0.0677825 0.620093 0.648825 
0.460575 0.348971 0.471738 0.641162 0.446587 
0.403932 0.246648 0.0762408 0.61951 0.777163 
0.482303 0.879152 0.0293002 0.229127 0.335128 
0.144019 0.46314 0.0389598 0.82799 0.987609 
0.0330283 0.100662 0.966422 0.0431415 0.405526 
0.604327 0.709401 0.635344 0.528899 0.240882 
0.413291 0.442448 0.740156 0.0467939 0.126907 
0.654491 0.789458 0.911617 0.451144 0.370954 
0.760515 0.762929 0.0194667 0.208468 0.62941 
0.933378 0.626304 0.836646 0.874406 0.91913 
0.73601 0.0495352 0.370628 0.552913 0.854428 
0.948176 0.80622 0.243942 0.522436 0.774996 
0.85054 0.720191 0.67744 0.188385 0.477833 
0.106077 0.676247 0.729477 0.343536 0.907664 
0.0781809 0.897181 0.161747 0.564926 0.207522 
0.687565 0.342984 0.566022 0.925705 0.279845 
0.696651 0.469311 0.567944 0.428963 0.710287 
0.711598 0.781745 0.062497 0.0389504 0.121327 
0.818894 0.885061 0.359412 0.0282197 0.538514 
0.870469 0.338914 0.476541 0.396148 0.576652 
0.762559 0.251083 0.922205 0.996756 0.380227 
0.543897 0.471975 0.710794 0.052526 0.524124 
0.959665 0.947585 0.385425 0.940906 0.867213 
0.995561 0.890613 0.747266 0.700479 0.378406 
0.945031 0.54126 0.749092 0.361355 0.17529 
0.524928 0.713628 0.584809 0.328834 0.731883 
0.315433 0.123816 0.704543 0.262994 0.943216 
0.0651524 0.831935 0.503837 0.167811 0.675962 
0.0450562 0.726799 0.506068 0.406214 0.728993 
0.0418331 0.0160746 0.464483 0.261216 0.500213 
0.173237 0.330233 0.180409 0.498175 0.525724 
0.831579 0.15554 0.51615 0.151309 0.23294 
0.278171 0.120654 0.209688 0.573864 0.361499 
0.015759 0.186941 0.894438 0.427307 0.154439 
0.462221 0.467718 0.797633 0.93792 0.0681526 
0.260335 0.941702 0.577451 0.808027 0.389218 
0.731121 0.1998 0.797071 0.00409811 0.700402 
0.870795 0.647247 0.229686 0.716037 0.930781 
0.195337 0.869957 0.398451 0.906888 0.0923451 
0.484977 0.877545 0.291297 0.613979 0.548733 
0.784212 0.0703889 0.663347 0.799479 0.807706 
0.695363 0.573957 0.0832282 0.146366 0.463823 
0.567039 0.372064 0.783597 0.0840727 0.508084 
0.0740199 0.898342 0.49627 0.774444 0.59166 
0.190165 0.931946 0.81842 0.630328 0.85651 
0.535117 0.948261 0.273237 0.935994 0.372395 
0.756183 0.566224 0.919626 0.290614 0.964433 
0.428289 0.689547 0.913288 0.55336 0.46978 
0.859087 0.931219 0.393437 0.986563 0.0330744 
0.408281 0.535025 0.88458 0.996324 0.469908 
0.910935 0.29475 0.293538 0.364144 0.0871463 
0.596033 0.887876 0.183999 0.399 0.501762 
0.409143 0.62784 0.826825 0.0682273 0.942175 
0.673923 0.320125 0.727895 0.560315 0.717568 
0.74725 0.262742 0.583433 0.209884 0.511112 
0.19324 0.215708 0.0538419 0.993557 0.777498 
0.465476 0.02274 0.595756 0.0470784 0.788649 
0.676708 0.816446 0.0873068 0.409626 0.547903 
0.967636 0.571384 0.74361 0.972523 0.395686 
0.981285 0.585037 0.117115 0.341546 0.635668 
0.830951 0.810486 0.793995 0.627895 0.919063 
0.0551171 0.59024 0.768195 0.405043 0.703964 
0.759922 0.981091 0.403394 0.013401 0.229892 
0.223411 0.649559 0.140835 0.994313 0.331574 
0.655534 0.589972 0.884168 0.941115 0.114171 
0.771608 0.17995 0.865463 0.957995 0.219014 
0.064118 0.157981 0.00815254 0.0527761 0.0234682 
0.294024 0.781401 0.0785708 0.580278 0.410839 
0.30254 0.682728 0.782191 0.114899 0.631824 
0.803786 0.660147 0.308754 0.380296 0.459015 
0.485211 0.0293706 0.405852 0.541686 0.100941 
0.7263 0.5296 0.377253 0.28308 0.552977 
0.21444 0.806619 0.99431 0.869103 0.124634 
0.289636 0.210404 0.185308 0.098998 0.121642 
0.922799 0.238604 0.182861 0.582857 0.942043 
0.992081 0.23672 0.64677 0.812749 0.844771 
0.699152 0.307665 0.133859 0.710373 0.32905 
0.573236 0.484132 0.345878 0.736714 0.98352 
0.115414 0.976858 0.813986 0.650257 0.775522 
0.3922 0.899374 0.303215 0.0951979 0.420041 
0.666129 0.46302 0.116399 0.141932 0.608692 
0.416663 0.453444 0.463196 0.836742 0.0612551 
0.168162 0.350552 0.109842 0.905607 0.365806 
0.885226 0.387778 0.74806 0.585507 0.341262 
0.734639 0.474625 0.814845 0.601163 0.57029 
0.891462 0.832451 0.753688 0.52429 0.424256 
0.375276 0.371373 0.804969 0.0125395 0.365847 
0.967214 0.867941 0.0531749 0.860381 0.18826 
0.877405 0.890422 0.444952 0.399387 0.261238 
0.0208761 0.716454 0.657995 0.059955 0.656634 
0.00548353 0.776433 0.709408 0.457606 0.672163 
0.449319 0.504542 0.175465 0.1478 0.431248 
0.0745457 0.308512 0.560918 0.671154 0.120957 
0.677481 0.12073 0.681985 0.65858 0.215271 
0.561339 0.235168 0.338211 0.577197 0.461083 
0.962484 0.262092 0.904236 0.154988 0.201594 
0.926366 0.0381125 0.476125 0.81244 0.0369044 
0.81637 0.350961 0.276547 0.0363819 0.530313 
0.697017 0.0745867 0.10536 0.72885 0.369672 
0.742795 0.168409 0.654617 0.441066 0.915715 
0.344618 0.616759 0.914629 0.625343 0.824838 
0.240002 0.993148 0.418101 0.352657 0.699281 
0.556911 0.0841665 0.813821 0.878803 0.757269 
0.596271 0.350066 0.502703 0.518798 0.796182 
0.48729 0.681759 0.520857 0.923401 0.663891 
0.18899 0.393149 0.0706372 0.9021 0.854529 
0.394593 0.527194 0.0227035 0.119528 0.0285222 
0.382094 0.989296 0.996144 0.387691 0.780839 
0.188512 0.256119 0.8895 0.0146978 0.202552 
0.572153 0.216673 0.597566 0.20335 0.0400091 
0.881072 0.10808 0.733165 0.0429922 0.938844 
0.110558 0.0633499 0.639422 0.990882 0.239872 
0.0114723 0.331066 0.113044 0.298289 0.663686 
0.597215 0.473163 0.907644 0.419672 0.620492 
0.538536 0.5144 0.870995 0.926011 0.217053 
0.4858 0.12363 0.614083 0.903579 0.789469 
0.144871 0.942554 0.481435 0.768704 0.535731 
0.274852 0.364643 0.3981 0.313386 0.403808 
0.339483 0.855532 0.538111 0.649381 0.886575 
0.810889 0.110414 0.998178 0.597921 0.353861 
0.404914 0.755641 0.619011 0.869659 0.425737 
0.15094 0.405966 0.890163 0.625554 0.678362 
0.152862 0.281456 0.259083 0.361903 0.401253 
0.0219259 0.970071 0.35259 0.58597 0.813016 
0.58432 0.806137 0.54953 0.975378 0.780836 
0.237829 0.141297 0.667831 0.730168 0.12249 
0.325651 0.0584279 0.690762 0.678163 0.541424 
0.643847 0.210108 0.209435 0.73933 0.245149 
0.961377 0.303397 0.854791 0.128987 0.0677328 
0.172855 0.318163 0.684635 0.950656 0.227494 
0.438221 0.11443 0.437468 0.535946 0.231237 
0.907609 0.0284074 0.35533 0.924965 0.0889544 
0.571329 0.597041 0.65786 0.527507 0.879595 
0.799867 0.0510841 0.211947 0.0295324 0.512202 
0.750909 0.0680159 0.892784 0.00376726 0.720086 
0.0619451 0.829325 0.475582 0.873282 0.345722 
0.210831 0.886935 0.15994 0.687474 0.5866 
0.826709 0.0673855 0.251983 0.0923972 0.974673 
0.971866 0.420364 0.675173 0.618841 0.162274 
0.777611 0.917007 0.16457 0.117344 0.771776 
0.3375 0.184305 0.949404 0.81596 0.498346 
0.710138 0.522151 0.973435 0.13206 0.41166 
0.990722 0.829808 0.0730533 0.990115 0.112878 
0.651121 0.221083 0.300581 0.675479 0.299647 
0.475772 0.686822 0.0586037 0.885764 0.965788 
0.488801 0.500719 0.251225 0.49026 0.0119223 
0.916908 0.297652 0.353477 0.970716 0.834132 
0.686447 0.811677 0.23769 0.900205 0.584611 
0.678189 0.75248 0.997862 0.924044 0.751421 
0.350613 0.129487 0.504182 0.526257 0.563186 
0.708303 0.983177 0.68383 0.99056 0.0761264 
0.237691 0.410697 0.186186 0.885221 0.573344 
0.88287 0.123697 0.321966 0.0877122 0.0807559 
0.921538 0.412831 0.165718 0.0401341 0.342742 
0.892914 0.781396 0.795143 0.599046 0.982716 
0.881641 0.893821 0.108195 0.814379 0.846889 
0.543635 0.194854 0.630441 0.330439 0.51738 
0.50207 0.988366 0.720698 0.501122 0.836759 
0.684104 0.0636342 0.60045 0.834698 0.226248 
0.49431 0.595722 0.653478 0.271576 0.505253 
0.856045 0.680867 0.255746 0.920246 0.715798 
0.0962141 0.823953 0.00984323 0.571478 0.718534 
0.661291 0.292791 0.412434 0.790597 0.32278 
0.191501 0.864139 0.940523 0.896057 0.217867 
0.639141 0.69215 0.454337 0.617431 0.206031 
0.684732 0.360672 0.802031 0.0173128 0.204161 
0.733568 0.944617 0.28024 0.190616 0.560518 
0.110203 0.155205 0.615135 0.964829 0.317085 
0.867648 0.625933 0.512146 0.299321 0.222044 
0.03265 0.426295 0.199641 0.121409 0.822491 
0.400496 0.163787 0.763644 0.758853 0.239116 
0.776526 0.510915 0.878609 0.2951 0.944958 
0.776273 0.716853 0.287967 0.331264 0.801134 
0.758834 0.895662 0.838649 0.446375 0.0039359 
0.611447 0.714005 0.243409 0.357317 0.309135 
0.906119 0.213966 0.586105 0.468918 0.576083 
0.408726 0.87671 0.554486 0.451032 0.622288 
0.413776 0.733159 0.659242 0.630302 0.600263 
0.344426 0.157645 0.236146 0.736355 0.503529 
0.580623 0.266827 0.0091933 0.697606 0.632678 
0.440804 0.445764 0.87994 0.51058 0.749765 
0.408377 0.0508725 0.469913 0.125479 0.896676 
0.653835 0.0667544 0.206647 0.721201 0.897664 
0.899371 0.211668 0.124381 0.761015 0.567128 
0.206894 0.27227 0.938994 0.822734 0.247289 
0.105056 0.428536 0.265901 0.816219 0.874809 
0.0767484 0.591281 0.416565 0.202294 0.275751 
0.0597462 0.929709 0.510135 0.481529 0.729351 
0.486011 0.223398 0.0762152 0.0813211 0.416905 
0.131912 0.626879 0.0982994 0.442577 0.935967 
0.868461 0.738217 0.580219 0.387282 0.51097 
0.518964 0.286868 0.129954 0.554556 0.246891 
0.357478 0.304963 0.132664 0.741337 0.84495 
0.632743 0.045327 0.782247 0.83406 0.366243 
0.242874 0.688512 0.627577 0.553423 0.621646 
0.230283 0.75364 0.898294 0.774318 0.139998 
0.307825 0.55386 0.767156 0.23332 0.174829 
0.997464 0.12992 0.644685 0.393821 0.869639 
0.0656594 0.175751 0.341563 0.334002 0.424775 
0.999498 0.996118 0.946406 0.784467 0.737222 
0.666664 0.298305 0.77186 0.666498 0.607281 
0.287023 0.013759 0.273776 0.676677 0.42548 
0.721242 0.417241 0.170581 0.288748 0.973303 
0.74011 0.420245 0.982034 0.873661 0.936128 
0.830109 0.414604 0.87898 0.310991 0.269797 
0.760806 0.018609 0.539126 0.0294062 0.686826 
0.551408 0.955546 0.380858 0.809147 0.0433156 
0.98856 0.670402 0.415601 0.915751 0.993789 
0.750605 0.464921 0.856212 0.0581108 0.735508 
0.428008 0.529368 0.72172 0.0161207 0.173666 
0.501924 0.88956 0.591012 0.746612 0.0659388 
0.309354 0.28562 0.901829 0.964031 0.19904 
0.0561411 0.874449 0.359053 0.958202 0.800008 
0.138255 0.0312608 0.379148 0.625902 0.230229 
0.743084 0.767169 0.713829 0.518499 0.0474574 
0.773906 0.579856 0.81579 0.236795 0.505739 
0.48689 0.65981 0.147318 0.709974 0.633889 
0.0183251 0.645893 0.8154 0.847831 0.861134 
0.116814 0.779767 0.958486 0.77152 0.67759 
0.308478 0.715993 0.155393 0.867307 0.160951 
0.989452 0.88485 0.587148 0.112335 0.346167 
0.148485 0.802448 0.80538 0.0697405 0.457695 
0.598294 0.789064 0.450672 0.611891 0.573709 
0.914189 0.84848 0.784669 0.90882 0.0238643 
0.506358 0.293492 0.245671 0.851848 0.456796 
0.218402 0.276493 0.420569 0.410426 0.00762304 
0.292341 0.741953 0.745601 0.834899 0.558772 
0.814216 0.17065 0.655005 0.350281 0.738641 
0.693624 0.418904 0.710352 0.168088 0.373738 
0.469359 0.497127 0.604276 0.0856905 0.707888 
0.521472 0.640777 0.231029 0.647235 0.633564 
0.593637 0.254027 0.879992 0.963575 0.612779 
0.429814 0.0810986 0.863391 0.711139 0.557345 
0.753458 0.56695 0.67075 0.697401 0.0827669 
0.687818 0.228523 0.599561 0.0380009 0.989834 
0.311207 0.617472 0.499245 0.473459 0.434844 
0.907387 0.147275 0.830155 0.753149 0.574294 
0.484756 0.543293 0.700413 0.397141 0.537947 
0.719007 0.197493 0.692845 0.433994 0.505855 
0.828362 0.568027 0.999976 0.456915 0.420675 
0.896769 0.731283 0.384772 0.0939057 0.741205 
0.658594 0.836264 0.637563 0.802431 0.822961 
0.55483 0.383698 0.269395 0.446482 0.0918387 
0.263562 0.895524 0.0480341 0.755896 0.745165 
0.434572 0.791419 0.015214 0.135441 0.78553 
0.92083 0.307909 0.347051 0.448025 0.201869 
0.928714 0.819723 0.68232 0.00672715 0.604049 
0.52013 0.835887 0.435791 0.279475 0.539466 
0.661849 0.635238 0.0507437 0.151409 0.343623 
0.0552189 0.296287 0.95021 0.996835 0.787319 
0.733993 0.716062 0.236223 0.565114 0.80382 
0.060789 0.952394 0.708355 0.627158 0.45998 
0.708237 0.543059 0.925388 0.152241 0.471715 
0.000745993 0.915823 0.137225 0.0489702 0.182999 
0.0660477 0.994385 0.586365 0.689734 0.190778 
0.611842 0.299109 0.0732755 0.0585749 0.796801 
0.142829 0.000327752 0.938591 0.222549 0.543669 
0.185682 0.506254 0.174451 0.543791 0.0426805 
0.246641 0.889474 0.263426 0.839312 0.259431 
0.24301 0.433903 0.440402 0.304106 0.874656 
0.199742 0.4023 0.591593 0.587412 0.394185 
0.432829 0.051139 0.412727 0.91467 0.737853 
0.590403 0.67661 0.812004 0.289959 0.443464 
0.324812 0.189948 0.17818 0.653104 0.0771535 
0.303233 0.223403 0.983209 0.107891 0.555273 
0.840535 0.372851 0.97252 0.963275 0.322924 
0.501466 0.115946 0.116914 0.326199 0.365402 
0.948622 0.45261 0.638664 0.933391 0.348947 
0.70353 0.077853 0.794097 0.131238 0.624991 
0.611409 0.176047 0.995218 0.874343 0.870184 
0.0568904 0.148081 0.250227 0.502355 0.396935 
0.533162 0.526051 0.600419 0.891475 0.439103 
0.491532 0.71391 0.097318 0.807575 0.246027 
0.722566 0.634736 0.0224605 0.161456 0.82668 
0.46183 0.572236 0.321699 0.430641 0.013071 
0.499684 0.108339 0.102163 0.583835 0.315929 
0.71148 0.655008 0.707424 0.0622068 0.902532 
0.81516 0.886837 0.0499765 0.791607 0.42907 
0.406471 0.714806 0.363202 0.885203 0.222638 
0.674562 0.391478 0.628003 0.57327 0.295615 
0.850398 0.634073 0.311744 0.859822 0.839948 
0.564253 0.382851 0.965294 0.233519 0.149228 
0.571617 0.300689 0.14184 0.438461 0.0604282 
0.698298 0.356304 0.0819006 0.914766 0.198073 
0.290259 0.162321 0.490723 0.547299 0.718703 
0.685099 0.259599 0.231792 0.179047 0.350426 
0.593873 0.670736 0.974836 0.431593 0.597731 
0.747317 0.417732 0.126741 0.589423 0.414117 
0.306708 0.275762 0.608768 0.910811 0.941112 
0.126768 0.198708 0.533007 0.866871 0.63887 
0.48332 0.7914 0.709907 0.257308 0.380848 
0.932337 0.456042 0.0678189 0.91802 0.300736 
0.718634 0.448342 0.0453801 0.218907 0.844429 
0.419285 0.191453 0.292361 0.383586 0.114303 
0.306288 0.465161 0.896436 0.190808 0.351127 
0.278338 0.0277466 0.270255 0.310996 0.789418 
0.539212 0.0949166 0.0984942 0.364489 0.695988 
0.679068 0.458563 0.774964 0.612878 0.605786 
0.942149 0.745966 0.122255 0.160964 0.0233023 
0.993071 0.96585 0.0778404 0.902143 0.320853 
0.468235 0.990041 0.879161 0.720879 0.326137 
0.482275 0.279704 0.076643 0.150955 0.936746 
0.652245 0.602846 0.319774 0.99762 0.430132 
0.700977 0.977402 0.314294 0.961802 0.314678 
0.668033 0.0538079 0.399258 0.0184493 0.0890441 
0.346413 0.7311 0.0701428 0.546871 0.648426 
0.828483 0.204522 0.431402 0.774284 0.318755 
0.225485 0.228781 0.49531 0.466746 0.0706382 
0.404877 0.306093 0.232881 0.905758 0.101558 
0.222977 0.932602 0.701768 0.498411 0.560165 
0.0417965 0.573101 0.380876 0.451864 0.836504 
0.909622 0.00772055 0.789886 0.975728 0.839992 
0.556905 0.511347 0.198468 0.480451 0.516335 
0.433582 0.820059 0.0175895 0.431344 0.395193 
0.171398 0.234892 0.380898 0.367964 0.250638 
0.27802 0.132357 0.072017 0.443947 0.433565 
0.507956 0.888614 0.00380911 0.863738 0.208233 
0.289403 0.396442 0.767583 0.308162 0.35258 
0.81267 0.378461 0.263767 0.266785 0.532549 
0.703871 0.53893 0.808684 0.419876 0.40637 
0.955962 0.360549 0.374956 0.139217 0.87177 
0.236371 0.0707865 0.344369 0.484949 0.843451 
0.496381 0.226208 0.563002 0.574426 0.589503 
0.184757 0.436468 0.838903 0.456132 0.654272 
0.455142 0.430466 0.420633 0.388221 0.00256451 
0.865069 0.587138 0.347106 0.98845 0.178418 
0.906595 0.943843 0.65907 0.787302 0.116455 
0.601425 0.919071 0.631842 0.443284 0.800902 
0.55062 0.0583676 0.970763 0.652478 0.820459 
0.228383 0.951436 0.48896 0.133638 0.684902 
0.538969 0.324174 0.849098 0.643934 0.75186 
0.689765 0.251572 0.512656 0.546464 0.0875587 
0.236853 0.191484 0.883092 0.490646 0.993624 
0.260891 0.914085 0.294772 0.61718 0.215846 
0.963615 0.246468 0.943534 0.229059 0.988983 
0.607574 0.0306918 0.847503 0.453621 0.22722 
0.361152 0.503025 0.57144 0.218616 0.983049 
0.0563128 0.717675 0.416081 0.251949 0.995424 
0.991994 0.641762 0.604542 0.634678 0.39912 
0.0346087 0.268969 0.650179 0.585267 0.355036 
0.0338438 0.848525 0.350074 0.000523508 0.285796 
0.760012 0.190369 0.406621 0.206998 0.0868562 
0.36685 0.249767 0.814078 0.646678 0.282075 
0.965931 0.756902 0.680536 0.549721 0.402097 
0.256684 0.597678 0.123066 0.866413 0.178828 
0.256114 0.140335 0.143389 0.913668 0.65367 
0.927452 0.878699 0.847404 0.165533 0.230174 
0.563435 0.985052 0.303345 0.884609 0.693812 
0.714334 0.475735 0.782887 0.528327 0.0761158 
0.293873 0.204805 0.835671 0.343358 0.76845 
0.674595 0.8468 0.0248064 0.139045 0.322941 
0.0105328 0.352548 0.0224063 0.051384 0.0439484 
0.835479 0.690689 0.323111 0.233592 0.415452 
0.0664792 0.536931 0.168732 0.726219 0.794926 
0.78372 0.300146 0.81637 0.896017 0.230566 
0.0921286 0.2324 0.830908 0.853616 0.00555756 
0.473748 0.917586 0.428514 0.343307 0.465961 
0.395275 0.246697 0.881445 0.24943 0.997808 
0.135659 0.368253 0.725087 0.911634 0.516557 
0.884237 0.156567 0.619138 0.0764645 0.525033 
0.200128 0.0493239 0.147883 0.0601396 0.829009 
0.19048 0.964101 0.173109 0.0959699 0.311553 
0.682185 0.24483 0.911436 0.405776 0.409889 
0.384353 0.12427 0.1245 0.0414378 0.746561 
0.0611536 0.375736 0.711997 0.675345 0.58258 
0.46032 0.785848 0.814611 0.412359 0.19165 
0.725163 0.540643 0.665246 0.555191 0.814655 
0.587786 0.0425592 0.00547025 0.558338 0.296987 
0.472956 0.71548 0.832242 0.242265 0.0404697 
0.149495 0.276572 0.645743 0.683116 0.735916 
0.981346 0.284384 0.772388 0.433195 0.717385 
0.0913335 0.972214 0.125676 0.649692 0.720974 
0.3257 0.649506 0.546807 0.640355 0.217217 
0.181182 0.53893 0.539002 0.851417 0.205842 
0.167187 0.305364 0.0031689 0.54243 0.584686 
0.127484 0.149546 0.946951 0.281481 0.40221 
0.866135 0.736201 0.757072 0.025709 0.837354 
0.277896 0.27141 0.287009 0.495498 0.427161 
0.907769 0.152409 0.272384 0.925865 0.208308 
0.545217 0.379234 0.63082 0.438998 0.296864 
0.653785 0.948525 0.0149198 0.661535 0.298281 
0.168069 0.296688 0.4866 0.020752 0.619954 
0.907966 0.390432 0.00631732 0.0477454 0.447989 
0.264604 0.559858 0.57826 0.0131329 0.115691 
0.623323 0.124841 0.0841616 0.549302 0.437478 
0.325681 0.707774 0.265273 0.176784 0.82044 
0.230167 0.87657 0.359291 0.107975 0.172479 
0.668519 0.626272 0.425545 0.763369 0.898887 
0.136006 0.654702 0.734631 0.445007 0.759075 
0.819746 0.0895155 0.931796 0.250927 0.46327 
0.968469 0.822755 0.38473 0.646159 0.699114 
0.303238 0.343097 0.589239 0.802995 0.269586 
0.725512 0.385304 0.16472 0.596627 0.475309 
0.960374 0.685854 0.867883 0.19573 0.742108 
0.620343 0.744801 0.49249 0.0419476 0.228192 
0.522531 0.56821 0.361454 0.00524839 0.280741 
0.874655 0.252231 0.0551353 0.932419 0.669334 
0.506169 0.269511 0.489482 0.884812 0.466914 
0.635996 0.840213 0.303968 0.359864 0.883853 
0.168029 0.938707 0.822029 0.540736 0.118401 
0.593293 0.67934 0.0110212 0.00963873 0.760767 
0.730231 0.936465 0.396573 0.589198 0.201605 
0.309986 0.0442939 0.298653 0.531565 0.127879 
0.962593 0.580824 0.322951 0.913898 0.489964 
0.619536 0.145481 0.371318 0.594576 0.538722 
0.799417 0.442528 0.215202 0.184266 0.398493 
0.642238 0.811917 0.726177 0.344583 0.275132 
0.380247 0.318956 0.0572359 0.95375 0.99745 
0.795876 0.639831 0.573043 0.0344764 0.0224 
0.309599 0.761448 0.468386 0.526401 0.590906 
0.418331 0.489424 0.808328 0.554719 0.418506 
0.000860916 0.508202 0.69849 0.465842 0.651065 
0.774521 0.897009 0.869432 0.723371 0.949807 
0.486535 0.676026 0.506132 0.138442 0.0775301 
0.575453 0.4538 0.636667 0.62833 0.93857 
0.908104 0.261508 0.492277 0.466962 0.649976 
0.00763302 0.914788 0.909593 0.590966 0.0991652 
0.495648 0.248624 0.899988 0.251929 0.422908 
0.732693 0.719522 0.972803 0.181913 0.982917 
0.571106 0.094646 0.114889 0.411741 0.649132 
0.870395 0.427563 0.73033 0.143146 0.245539 
0.956007 0.224193 0.770268 0.549423 0.300001 
0.90504 0.25235 0.906608 0.14462 0.447232 
0.315136 0.804397 0.616265 0.797555 0.265629 
0.506277 0.619971 0.91549 0.37007 0.917895 
0.252423 0.765424 0.293574 0.647203 0.374171 
0.0665054 0.842061 0.764729 0.418099 0.887336 
0.581051 0.655607 0.692245 0.904384 0.834173 
0.743619 0.0634663 0.163592 0.991779 0.421657 
0.758053 0.273173 0.876198 0.102804 0.91852 
0.754943 0.94589 0.0605432 0.477586 0.084351 
0.594591 0.178214 0.890005 0.334863 0.438837 
0.0181621 0.378101 0.144828 0.30708 0.0837011 
0.535323 0.288505 0.47414 0.0864586 0.508595 
0.544655 0.768295 0.224272 0.389266 0.521932 
0.989021 0.129637 0.916905 0.864326 0.139516 
0.618638 0.857226 0.524752 0.336345 0.597349 
0.92009 0.0864171 0.133808 0.7901 0.530617 
0.311886 0.0161513 0.399092 0.731132 0.278005 
0.844579 0.136777 0.0935633 0.170635 0.474233 
0.434511 0.128505 0.0532759 0.912169 0.412433 
0.939353 0.516501 0.240007 0.956429 0.761058 
0.171178 0.401098 0.342167 0.273863 0.533137 
0.300761 0.325411 0.471715 0.499305 0.505542 
0.468849 0.482637 0.767108 0.697193 0.847195 
0.224732 0.928545 0.157988 0.186401 0.779731 
0.0957647 0.937745 0.0656331 0.206507 0.819298 
0.659273 0.601104 0.841933 0.395848 0.395425 
0.368017 0.916906 0.621586 0.315151 0.961776 
0.389636 0.991668 0.482817 0.0018203 0.281769 
0.0617991 0.571013 0.217485 0.843044 0.591906 
0.809499 0.941528 0.382542 0.619004 0.825775 
0.578861 0.588713 0.441881 0.11548 0.315785 
0.793637 0.60315 0.111729 0.994635 0.49209 
0.363464 0.54245 0.438502 0.488688 0.59646 
0.833221 0.739759 0.288052 0.742162 0.87779 
0.774233 0.974648 0.118167 0.0768669 0.506885 
0.349173 0.562184 0.992846 0.495882 0.990342 
0.192344 0.288849 0.209658 0.995701 0.208539 
0.509466 0.0418462 0.956274 0.0617991 0.606596 
0.0633651 0.511996 0.503218 0.808648 0.424861 
0.905809 0.424994 0.572972 0.234098 0.50915 
0.652193 0.522819 0.0879988 0.0985228 0.374128 
0.332462 0.49448 0.211911 0.983881 0.830371 
0.721697 0.453565 0.146355 0.75054 0.931665 
0.0790232 0.28792 0.475009 0.654392 0.901163 
0.55275 0.595305 0.302891 0.250936 0.669871 
0.26837 0.612676 0.160783 0.197328 0.868651 
0.733006 0.451545 0.852283 0.848738 0.0247985 
0.226704 0.222024 0.330114 0.901395 0.748193 
0.89792 0.647808 0.221526 0.127027 0.136256 
0.712533 0.247005 0.11872 0.0233266 0.471251 
0.817687 0.272903 0.161457 0.0761962 0.17771 
0.573313 0.0383318 0.43853 0.574214 0.712518 
0.931746 0.61905 0.12647 0.254355 0.0933133 
0.424584 0.471646 0.253988 0.761815 0.188704 
0.2537 0.963681 0.102458 0.722034 0.415464 
0.186601 0.00938497 0.408819 0.794376 0.480581 
0.277204 0.95736 0.867908 0.892601 0.531293 
0.365483 0.554028 0.714919 0.791305 0.117558 
0.227843 0.441826 0.0835611 0.220885 0.918162 
0.231412 0.690792 0.774808 0.97777 0.943063 
0.263301 0.150945 0.233262 0.896071 0.830591 
0.408617 0.721634 0.0929278 0.133658 0.0558667 
0.803338 0.350385 0.249272 0.259711 0.33186 
0.435876 0.068116 0.696937 0.457847 0.248499 
0.926538 0.236729 0.309299 0.174758 0.612803 
0.109231 0.919224 0.0163862 0.0202759 0.196645 
0.837308 0.266288 0.691676 0.0808008 0.795714 
0.29943 0.0184033 0.4269 0.963925 0.763846 
0.0342502 0.936855 0.348047 0.297893 0.253128 
0.129223 0.164607 0.126854 0.539098 0.939086 
0.147844 0.766961 0.960717 0.646997 0.139488 
0.799425 0.29881 0.945395 0.853669 0.451029 
0.935744 0.376518 0.155995 0.230473 0.731345 
0.604594 0.961983 0.350246 0.588517 0.132272 
0.865024 0.962867 0.885717 0.248907 0.425477 
0.796839 0.646257 0.869065 0.683499 0.356056 
0.850536 0.417166 0.736146 0.420655 0.635875 
0.654669 0.474922 0.543667 0.442332 0.0228822 
0.59396 0.497809 0.935758 0.532339 0.856942 
0.36317 0.956813 0.223286 0.864389 0.624223 
0.719065 0.0551981 0.0915143 0.211049 0.318573 
0.689147 0.751204 0.617946 0.00647471 0.881138 
0.938597 0.137643 0.603855 0.823228 0.954376 
0.0471402 0.989561 0.0998489 0.92766 0.406123 
0.659571 0.858629 0.272505 0.758337 0.341141 
0.595865 0.194691 0.642144 0.451908 0.728272 
0.309059 0.0662403 0.300507 0.918924 0.412734 
0.60383 0.16956 0.529042 0.526623 0.474457 
0.232341 0.541503 0.929435 0.780633 0.860591 
0.0646676 0.648726 0.207117 0.241028 0.444475 
0.614588 0.138761 0.208626 0.328376 0.349024 
0.629346 0.0323766 0.097673 0.540251 0.657398 
0.349507 0.137548 0.638384 0.882802 0.49114 
0.809326 0.409455 0.101863 0.322212 0.184451 
0.150445 0.920312 0.413026 0.637962 0.0708463 
0.507936 0.381326 0.770131 0.0356011 0.0183734 
0.972067 0.901642 0.788587 0.202212 0.809091 
0.0850594 0.576695 0.744538 0.422265 0.866549 
0.850137 0.649494 0.294753 0.175614 0.208226 
0.760289 0.947672 0.646617 0.324161 0.077737 
0.855054 0.554904 0.654817 0.578611 0.142842 
0.478981 0.706998 0.995436 0.115087 0.257466 
0.283103 0.75125 0.200316 0.0153766 0.116419 
0.389379 0.277919 0.50698 0.585453 0.672061 
0.841433 0.152109 0.0129893 0.657445 0.878325 
0.570581 0.794757 0.674488 0.436706 0.667439 
0.787889 0.972694 0.497636 0.692993 0.280671 
0.16164 0.245671 0.0154054 0.964993 0.971232 
0.693063 0.119051 0.759236 0.0595014 0.0408133 
0.769145 0.670242 0.890344 0.133156 0.971891 
0.85835 0.454603 0.276648 0.583025 0.474561 
0.31431 0.741436 0.749722 0.335004 0.647757 
0.354611 0.0510569 0.644427 0.615639 0.223067 
0.921744 0.657 0.614128 0.18964 0.814549 
0.446376 0.148904 0.888208 0.494286 0.758986 
0.644291 0.75615 0.37569 0.0728317 0.300178 
0.831058 0.478418 0.26305 0.433463 0.983084 
0.214086 0.562547 0.11746 0.367327 0.965861 
0.288435 0.424369 0.728811 0.50356 0.240183 
0.183211 0.369377 0.248 0.938538 0.511314 
0.641067 0.21026 0.248057 0.384869 0.192716 
0.492848 0.724066 0.925529 0.780112 0.695487 
0.956241 0.472185 0.779502 0.97783 0.680622 
0.572333 0.971439 0.157189 0.823607 0.822814 
0.149356 0.57254 0.741043 0.243578 0.465577 
0.64031 0.0924724 0.269328 0.287241 0.569499 
0.719202 0.284492 0.826186 0.677596 0.630893 
0.215668 0.752338 0.498238 0.525278 0.262842 
0.236398 0.228375 0.330796 0.0899101 0.113474 
0.138278 0.998923 0.512106 0.210359 0.947554 
0.343517 0.90486 0.296617 0.791463 0.945501 
0.538867 0.81831 0.0518777 0.99134 0.928919 
0.785206 0.809704 0.132699 0.450637 0.863959 
0.10075 0.995186 0.518273 0.643615 0.429544 
0.139197 0.0179016 0.182692 0.726238 0.882586 
0.148827 0.357204 0.714926 0.713437 0.914023 
0.203223 0.321445 0.375796 0.786784 0.841101 
0.902894 0.304027 0.622462 0.776015 0.896848 
0.662079 0.428133 0.407201 0.883922 0.195395 
0.693781 0.609317 0.0325546 0.56214 0.092366 
0.435885 0.444901 0.324821 0.0247827 0.0331254 
0.665606 0.637823 0.399483 0.397761 0.11569 
0.0847024 0.878143 0.826077 0.249656 0.100325 
0.273565 0.573197 0.98074 0.183766 0.389715 
0.0272718 0.436168 0.316914 0.670383 0.797069 
0.148345 0.744085 0.0858506 0.120741 0.115143 
0.440516 0.463013 0.944531 0.719721 0.0184864 
0.950378 0.0591698 0.207647 0.967316 0.527814 
0.417616 0.568891 0.0520644 0.918382 0.0474904 
0.838988 0.30604 0.500199 0.194426 0.331965 
0.084874 0.831253 0.649166 0.575198 0.788939 
0.405261 0.597923 0.639014 0.348622 0.857697 
0.750894 0.560676 0.574195 0.326554 0.255313 
0.04349 0.577569 0.370876 0.428582 0.696973 
0.0455735 0.657579 0.24928 0.515819 0.547626 
0.078313 0.784669 0.294891 0.80069 0.643003 
0.324418 0.138165 0.617148 0.0803297 0.794063 
0.431281 0.603348 0.806642 0.0540481 0.557392 
0.0245988 0.038692 0.914277 0.0200587 0.150179 
0.649962 0.0969403 0.371084 0.288323 0.973971 
0.544432 0.350819 0.0388975 0.757429 0.175203 
0.28714 0.164184 0.536283 0.96009 0.791532 
0.325163 0.817653 0.707754 0.989257 0.787047 
0.150183 0.0879583 0.217563 0.756962 0.982981 
0.447878 0.568818 0.97427 0.0536673 0.569932 
0.870508 0.486198 0.606687 0.678427 0.628533 
0.635243 0.660459 0.309724 0.218647 0.994398 
0.929189 0.396585 0.692155 0.130791 0.953148 
0.329932 0.656204 0.219409 0.607319 0.908525 
0.789299 0.759864 0.0603351 0.830881 0.0495845 
0.0658065 0.741084 0.249452 0.753791 0.944456 
0.558128 0.559019 0.549184 0.156958 0.411223 
0.523494 0.424895 0.201776 0.754095 0.114143 
0.691508 0.624569 0.466953 0.520489 0.75094 
0.69837 0.649372 0.17582 0.353297 0.852705 
0.826369 0.489933 0.614218 0.761776 0.140603 
0.762086 0.598071 0.756818 0.11667 0.425908 
0.0900169 0.806249 0.365813 0.103478 0.773664 
0.397884 0.569336 0.626203 0.536651 0.366906 
0.913374 0.979724 0.0578549 0.127062 0.784811 
0.445394 0.163186 0.909453 0.412011 0.0319059 
0.278048 0.137548 0.48716 0.53759 0.958793 
0.29248 0.982587 0.715562 0.260542 0.296902 
0.699802 0.492444 0.0858211 0.890608 0.864415 
0.676209 0.271914 0.318456 0.112288 0.434719 
0.845145 0.043547 0.949882 0.00468116 0.26464 
0.965119 0.162684 0.383183 0.547125 0.0635724 
0.780769 0.59806 0.342486 0.740273 0.788808 
0.27302 0.31054 0.221878 0.111245 0.895807 
0.360962 0.964344 0.736947 0.391396 0.824512 
0.680631 0.655035 0.274502 0.501983 0.596793 
0.726856 0.588484 0.81515 0.393731 0.79469 
0.721792 0.131946 0.2483 0.404204 0.825589 
0.222461 0.701938 0.693629 0.887076 0.102682 
0.451563 0.653686 0.860013 0.597355 0.734252 
0.129227 0.711445 0.162045 0.955154 0.57883 
0.654133 0.351505 0.571884 0.829919 0.795218 
0.819694 0.913651 0.391707 0.178813 0.00153646 
0.585362 0.858544 0.460668 0.485518 0.801305 
0.0706119 0.782357 0.928647 0.0985452 0.887981 
0.881098 0.474287 0.235834 0.768039 0.935755 
0.667486 0.957582 0.546627 0.0109683 0.0972067 
0.261491 0.0385161 0.710369 0.361211 0.734211 
0.500909 0.182976 0.476833 0.169057 0.12299 
0.203015 0.524413 0.694994 0.396739 0.271708 
0.281019 0.418564 0.00507834 0.416858 0.318887 
0.479469 0.50706 0.476984 0.485819 0.249878 
0.650397 0.630814 0.552238 0.113327 0.442633 
0.0196024 0.710776 0.746038 0.86489 0.801313 
0.219533 0.135543 0.401051 0.088838 0.953177 
0.873565 0.410807 0.538133 0.516325 0.495684 
0.184133 0.942184 0.624491 0.228356 0.536059 
0.303326 0.403913 0.552368 0.862927 0.541682 
0.478307 0.585004 0.199506 0.331451 0.959198 
0.643337 0.665219 0.0717932 0.263881 0.974634 
0.876139 0.916976 0.340729 0.372706 0.0649826 
0.433813 0.933963 0.819496 0.3651 0.792588 
0.515359 0.861668 0.375847 0.453919 0.390412 
0.78362 0.176204 0.206536 0.629482 0.073224 
0.608223 0.192524 0.0641745 0.50273 0.257388 
0.432083 0.911767 0.629961 0.770722 0.116337 
0.331755 0.144269 0.826453 0.626682 0.664711 
0.506224 0.245887 0.460156 0.261674 0.157119 
0.93483 0.933632 0.248526 0.643351 0.701927 
0.934434 0.4767 0.432374 0.122604 0.832964 
0.315756 0.421056 0.324594 0.036953 0.847185 
0.438267 0.44134 0.606888 0.702984 0.624849 
0.165136 0.0573073 0.249357 0.642109 0.0346506 
0.443253 0.704386 0.0915545 0.757434 0.217022 
0.0992499 0.204268 0.701017 0.898368 0.270093 
0.895989 0.499509 0.335817 0.160384 0.775191 
0.865981 0.901375 0.972852 0.987767 0.330678 
0.033586 0.224612 0.904781 0.287624 0.989991 
0.284862 0.531377 0.124879 0.737252 0.974112 
0.624554 0.171304 0.0215484 0.708436 0.230253 
0.713283 0.0322537 0.764499 0.394467 0.440209 
0.848199 0.736913 0.682163 0.397214 0.530463 
0.726156 0.194512 0.803184 0.308776 0.811698 
0.936739 0.298179 0.0424034 0.0285628 0.00791424 
0.0488243 0.186791 0.641541 0.0771652 0.490448 
0.619385 0.457059 0.319307 0.894542 0.645791 
0.292351 0.135632 0.871475 0.783229 0.995987 
0.996138 0.743037 0.871971 0.121591 0.0392941 
0.801518 0.687276 0.208691 0.824795 0.257916 
0.572284 0.63482 0.301818 0.944842 0.0671633 
0.132094 0.864087 0.300406 0.901913 0.455427 
0.191903 0.242339 0.880447 0.3082 0.536893 
0.0669603 0.0693949 0.416756 0.132983 0.949934 
0.837807 0.135305 0.989855 0.226275 0.666263 
0.79567 0.666533 0.10867 0.951194 0.658122 
0.738451 0.695056 0.285785 0.672647 0.168893 
0.0899177 0.683278 0.888151 0.262991 0.59246 
0.326641 0.812525 0.585126 0.0600014 0.377207 
0.542999 0.896793 0.106371 0.442593 0.195609 
0.332806 0.744093 0.540753 0.226697 0.798046 
0.227098 0.759928 0.625601 0.656773 0.948649 
0.402519 0.669865 0.608883 0.174538 0.854748 
0.794538 0.947686 0.0175071 0.192416 0.0269464 
0.556186 0.618959 0.989426 0.529248 0.866702 
0.228959 0.585785 0.463595 0.860667 0.581685 
0.1323 0.94736 0.73164 0.00767172 0.125378 
0.946901 0.460119 0.980011 0.557746 0.180915 
0.945552 0.227243 0.323217 0.743802 0.955234 
0.873352 0.390659 0.639929 0.129845 0.824156 
0.682498 0.113974 0.87349 0.619228 0.698574 
0.635989 0.443931 0.969718 0.502678 0.736053 
0.261596 0.78888 0.824316 0.94696 0.460516 
0.660535 0.407092 0.828958 0.545357 0.923774 
0.960164 0.883672 0.636014 0.572739 0.295629 
0.170979 0.925567 0.516646 0.669777 0.226656 
0.112342 0.668123 0.468984 0.371928 0.438698 
0.0318107 0.974598 0.70796 0.233354 0.10635 
0.817127 0.145906 0.323119 0.171704 0.0776998 
0.413047 0.843078 0.600253 0.0402536 0.754873 
0.734188 0.52537 0.632323 0.216022 0.556164 
0.118465 0.214356 0.112844 0.462674 0.567763 
0.0807783 0.111485 0.295209 0.380115 0.508672 
0.0909459 0.323747 0.259343 0.975809 0.855603 
0.748222 0.625755 0.356919 0.303376 0.558653 
0.090737 0.152006 0.990811 0.624938 0.144169 
0.706451 0.209117 0.0103324 0.908355 0.279823 
0.153173 0.13463 0.390011 0.723005 0.812988 
0.698874 0.564105 0.318228 0.951704 0.417776 
0.295199 0.980188 0.266356 0.661227 0.583055 
0.74931 0.165986 0.89726 0.578252 0.570078 
0.499509 0.22918 0.252222 0.320957 0.0285186 
0.366011 0.848986 0.312595 0.586236 0.919222 
0.48908 0.605016 0.568303 0.544142 0.855303 
0.455799 0.865284 0.507227 0.569292 0.240514 
0.3208 0.900145 0.0463123 0.426027 0.44253 
0.0844975 0.497845 0.334625 0.636479 0.351968 
0.708517 0.399038 0.827528 0.551159 0.632573 
0.275889 0.747149 0.491327 0.401955 0.71371 
0.398692 0.509441 0.865721 0.911956 0.829855 
0.947236 0.175063 0.119405 0.75174 0.97278 
0.256654 0.657661 0.135443 0.988108 0.505632 
0.483836 0.128831 0.50564 0.120839 0.763909 
0.699297 0.554057 0.14434 0.0419925 0.0511819 
0.975229 0.854021 0.152697 0.379442 0.935561 
0.91263 0.496629 0.110545 0.779384 0.225448 
0.548027 0.569739 0.237135 0.49733 0.313599 
0.975828 0.223328 0.795597 0.278514 0.997052 
0.635225 0.736675 0.698669 0.865168 0.900762 
0.39291 0.186344 0.526734 0.718657 0.629412 
0.902628 0.520636 0.852413 0.454231 0.222233 
0.360468 0.412785 0.842128 0.499422 0.469972 
0.364249 0.0337561 0.5029 0.187724 0.374785 
0.316429 0.0763713 0.909443 0.638905 0.502149 
0.869706 0.0537249 0.96212 0.208484 0.104587 
0.467084 0.139425 0.0822896 0.227124 0.706225 
0.916969 0.593703 0.851759 0.0997534 0.868734 
0.18511 0.894407 0.64541 0.758914 0.0949815 
0.669746 0.0911038 0.422331 0.778361 0.171056 
0.850817 0.041492 0.445774 0.676878 0.855271 
0.328358 0.0753651 0.803737 0.943326 0.662692 
0.339921 0.193739 0.203936 0.289877 0.90024 
0.10344 0.413738 0.840601 0.622625 0.584002 
0.0852925 0.492354 0.768281 0.455181 0.519766 
0.46675 0.411193 0.920839 0.835087 0.75008 
0.0160509 0.573998 0.493369 0.954795 0.765707 
