5000 5
0.647426 0.556709 0.533243 0.748329 0.433706 
0.831333 0.368665 0.889804 0.32087 0.701634 
0.909704 0.79358 0.445028 0.890284 0.76161 
0.671332 0.20117 0.442681 0.660912 0.367538 
0.868646 0.131447 0.650034 0.844699 0.785677 
0.688151 0.866924 0.875112 0.900564 0.683304 
0.834272 0.881335 0.210733 0.18865 0.829369 
0.409352 0.195865 0.0319723 0.00555275 0.126206 
0.283141 0.204235 0.39827 0.227193 0.936398 
0.791867 0.107576 0.46217 0.854085 0.0983477 
0.112544 0.835049 0.814027 0.907761 0.259834 
0.894509 0.447214 0.453638 0.389574 0.179683 
0.236644 0.391634 0.208009 0.099221 0.108775 
0.565806 0.359421 0.439645 0.410816 0.890461 
0.335262 0.190012 0.691503 0.813796 0.622726 
0.827902 0.0378358 0.910697 0.892843 0.30832 
0.583831 0.595371 0.385583 0.268232 0.719103 
0.680027 0.60484 0.174928 0.718504 0.806804 
0.711233 0.44956 0.32626 0.970595 0.432076 
0.0938798 0.924412 0.647415 0.386861 0.78137 
0.849287 0.96962 0.717011 0.96989 0.839667 
0.617736 0.05245 0.445443 0.121772 0.188029 
0.0334573 0.874762 0.852746 0.614104 0.20781 
0.378767 0.0709799 0.0679833 0.908406 0.112559 
0.220259 0.154391 0.18425 0.762227 0.525164 
0.599281 0.998774 0.808392 0.300383 0.66605 
0.202664 0.328722 0.668304 0.557055 0.25883 
0.37355 0.699415 0.223049 0.409286 0.231291 
0.942949 0.653472 0.550048 0.671883 0.904989 
0.817668 0.652797 0.483451 0.174846 0.0585938 
0.659846 0.362113 0.884328 0.863712 0.0786121 
0.677669 0.898146 0.527018 0.608214 0.00234855 
0.959673 0.156005 0.110189 0.975529 0.737851 
0.542014 0.629813 0.834927 0.307858 0.259765 
0.155007 0.0670648 0.554205 0.529759 0.221329 
0.0579352 0.00484001 0.247997 0.373398 0.873511 
0.460986 0.54582 0.599251 0.1914 0.412107 
0.269573 0.700916 0.598775 0.0548159 0.497295 
0.744906 0.806473 0.0343737 0.324699 0.850719 
0.698446 0.37576 0.976941 0.678899 0.938412 
0.62233 0.992777 0.949505 0.459185 0.519471 
0.780881 0.894863 0.694751 0.118145 0.373711 
0.586629 0.583099 0.735307 0.408898 0.155144 
0.428773 0.397622 0.0582648 0.621126 0.618797 
0.873478 0.365644 0.88444 0.009363 0.821568 
0.739514 0.468852 0.53059 0.230175 0.801151 
0.144275 0.313547 0.853897 0.0301715 0.498961 
0.317643 0.372448 0.192786 0.211449 0.895451 
0.923419 0.179226 0.711012 0.387884 0.983402 
0.433273 0.954563 0.188122 0.533326 0.602028 
0.530453 0.995018 0.365084 0.273531 0.284715 
0.0559939 0.576462 0.692608 0.464281 0.590141 
0.426133 0.288306 0.983687 0.340788 0.894276 
0.279851 0.332235 0.991082 0.52199 0.984208 
0.36393 0.551476 0.313872 0.227553 0.573925 
0.990787 0.15056 0.312137 0.312896 0.878016 
0.184608 0.2969 0.792205 0.939432 0.00144288 
0.678483 0.512802 0.82719 0.148978 0.0921072 
0.752165 0.823921 0.442067 0.39387 0.279104 
0.568725 0.821252 0.599533 0.787858 0.732813 
0.612 0.203306 0.349713 0.389788 0.903568 
0.925558 0.918968 0.517834 0.317735 0.486519 
0.796874 0.534516 0.397486 0.976201 0.289269 
0.110033 0.18874 0.238211 0.871753 0.584147 
0.493069 0.206173 0.77391 0.899708 0.257597 
0.288356 0.639408 0.00890464 0.0987592 0.63803 
0.964843 0.693809 0.399452 0.173257 0.870143 
0.987686 0.14493 0.905218 0.381485 0.298047 
0.83538 0.221238 0.666424 0.120952 0.0200033 
0.270631 0.00697375 0.496722 0.283991 0.770419 
0.360128 0.562022 0.817855 0.757302 0.85617 
0.836883 0.0494961 0.205869 0.728563 0.820608 
0.984343 0.495696 0.154998 0.100123 0.455655 
0.718659 0.785077 0.199859 0.112117 0.505119 
0.99607 0.351686 0.703574 0.900958 0.319802 
0.0213321 0.846869 0.112128 0.171592 0.431943 
0.705529 0.653959 0.43605 0.248593 0.840409 
0.769634 0.490628 0.559623 0.362137 0.976085 
0.127487 0.671123 0.210551 0.921006 0.375271 
0.992945 0.739971 0.669291 0.787899 0.972789 
0.932037 0.876969 0.825757 0.0181338 0.787269 
0.783915 0.3652 0.961473 0.964857 0.69674 
0.458316 0.822853 0.549891 0.765915 0.98965 
0.266902 0.972255 0.171123 0.727947 0.908558 
0.777291 0.121079 0.615554 0.105251 0.0811252 
0.193085 0.705484 0.88705 0.781827 0.865648 
0.00716722 0.247419 0.773591 0.847564 0.703219 
0.903311 0.522687 0.671042 0.465234 0.00159787 
0.925922 0.825802 0.0881871 0.651158 0.0786701 
0.321999 0.00792778 0.583022 0.394942 0.643684 
0.492455 0.773171 0.213532 0.659221 0.561014 
0.512081 0.736118 0.960671 0.159835 0.153578 
0.736957 0.62297 0.402578 0.408232 0.0459909 
0.266395 0.804613 0.645943 0.469669 0.104623 
0.196963 0.493095 0.0658253 0.014454 0.2064 
0.721356 0.227927 0.899388 0.120283 0.147411 
0.203643 0.338744 0.265857 0.613023 0.771424 
0.304592 0.406972 0.623645 0.323436 0.8199 
0.229535 0.367873 0.665505 0.771378 0.695846 
0.802998 0.461076 0.815484 0.952039 0.163262 
0.79159 0.479072 0.754955 0.954772 0.922538 
0.814284 0.643331 0.809221 0.00869931 0.399473 
0.19956 0.866296 0.676669 0.891084 0.831753 
0.357472 0.634546 0.214993 0.0272006 0.843364 
0.253743 0.99533 0.188307 0.703448 0.24008 
0.692213 0.923831 0.459161 0.362399 0.261109 
0.955753 0.606172 0.824838 0.543928 0.57898 
0.983094 0.0109328 0.663581 0.903881 0.202934 
0.458234 0.5921 0.102391 0.867634 0.178835 
0.576708 0.951146 0.265702 0.668089 0.959427 
0.974258 0.197878 0.916719 0.273074 0.225884 
0.798107 0.678546 0.211048 0.121137 0.137161 
0.166296 0.632478 0.693998 0.403901 0.897949 
0.0358844 0.768809 0.257449 0.211694 0.586718 
0.109025 0.296997 0.218826 0.120205 0.103494 
0.912313 0.427043 0.0199513 0.604895 0.416513 
0.532249 0.298157 0.527215 0.243392 0.656513 
0.885465 0.322774 0.959101 0.916255 0.910388 
0.45866 0.73592 0.784168 0.506114 0.238561 
0.0671869 0.0626647 0.0371978 0.246118 0.424145 
0.936428 0.364128 0.851309 0.327548 0.241329 
0.419489 0.494696 0.381414 0.198813 0.366035 
0.849907 0.286421 0.454889 0.0377977 0.0722149 
0.174234 0.901573 0.396286 0.256904 0.256368 
0.192952 0.104385 0.809309 0.848009 0.64755 
0.579295 0.0855102 0.940265 0.274009 0.73183 
0.500466 0.266421 0.82878 0.21128 0.650124 
0.0663361 0.122469 0.403115 0.103523 0.236575 
0.056107 0.408259 0.601226 0.828004 0.579174 
0.772378 0.0320627 0.701906 0.978544 0.986271 
0.459467 0.327145 0.424444 0.907462 0.337933 
0.0294704 0.488938 0.285349 0.265946 0.933656 
0.404451 0.564118 0.294721 0.123819 0.119131 
0.00642715 0.801403 0.319847 0.16013 0.916199 
0.877586 0.405917 0.670657 0.710667 0.724594 
0.682763 0.614922 0.560973 0.698096 0.417132 
0.270163 0.882286 0.0225562 0.550386 0.18368 
0.361228 0.354581 0.446726 0.640629 0.937384 
0.618556 0.42609 0.224918 0.749922 0.930146 
0.988336 0.0815426 0.36305 0.506994 0.625369 
0.501105 0.763765 0.610467 0.471135 0.345736 
0.127596 0.481654 0.519814 0.0453168 0.4725 
0.37007 0.150465 0.286069 0.89373 0.529315 
0.185486 0.469271 0.0176539 0.820625 0.919023 
0.498341 0.888934 0.32625 0.379997 0.439392 
0.649502 0.681115 0.494209 0.537208 0.140371 
0.276305 0.995124 0.928543 0.43171 0.432338 
0.328419 0.903339 0.0502687 0.479295 0.420772 
0.361476 0.67006 0.640928 0.881537 0.746615 
0.970158 0.423794 0.15822 0.18361 0.996966 
0.419513 0.12793 0.31811 0.214095 0.390652 
0.393097 0.602217 0.458093 0.955005 0.642927 
0.142352 0.462938 0.88542 0.469355 0.253051 
0.777045 0.199753 0.559118 0.203553 0.0736485 
0.418587 0.989663 0.754454 0.689574 0.55215 
0.217478 0.741322 0.838186 0.991756 0.380091 
0.954592 0.752042 0.66684 0.169504 0.892084 
0.622654 0.653016 0.911279 0.974966 0.654744 
0.614739 0.403805 0.0566941 0.634998 0.0240422 
0.322179 0.521896 0.766219 0.719375 0.344871 
0.0403341 0.442129 0.935143 0.575929 0.00682776 
0.611291 0.585664 0.315663 0.0279221 0.994488 
0.298068 0.473478 0.26595 0.5232 0.028411 
0.340598 0.107659 0.657499 0.0986012 0.853612 
0.0506962 0.720453 0.573256 0.902075 0.772489 
0.21292 0.331844 0.977484 0.695381 0.443369 
0.0749313 0.743277 0.222668 0.216762 0.901563 
0.924965 0.677328 0.859575 0.577958 0.221078 
0.51115 0.432288 0.421724 0.740084 0.693125 
0.911837 0.518068 0.573733 0.850138 0.428192 
0.430958 0.489914 0.661979 0.584813 0.981164 
0.602812 0.433939 0.302152 0.0764867 0.305632 
0.811498 0.81491 0.554932 0.131753 0.520161 
0.688231 0.502374 0.417042 0.730831 0.428506 
0.87897 0.925068 0.214185 0.838028 0.193886 
0.593046 0.594988 0.373164 0.709874 0.640875 
0.666409 0.951648 0.344141 0.899471 0.70294 
0.263365 0.944148 0.999191 0.116649 0.821964 
0.397322 0.374858 0.86837 0.974277 0.330621 
0.335125 0.150572 0.163848 0.138141 0.112371 
0.127117 0.477517 0.953669 0.175247 0.28601 
0.459876 0.92562 0.296211 0.111178 0.206675 
0.427919 0.129413 0.192466 0.308764 0.331989 
0.767401 0.386017 0.45913 0.410059 0.0488133 
0.0413156 0.592931 0.754524 0.576615 0.994637 
0.772495 0.929995 0.0362591 0.636138 0.392222 
0.994542 0.52575 0.513545 0.730013 0.708867 
0.290127 0.728156 0.681457 0.510338 0.107445 
0.228111 0.230233 0.342323 0.501956 0.934191 
0.96613 0.18098 0.129119 0.132639 0.269428 
0.890334 0.693776 0.601204 0.856167 0.708192 
0.748473 0.220291 0.165535 0.941083 0.48888 
0.139853 0.403885 0.210926 0.467885 0.659905 
0.906198 0.0216679 0.757147 0.379737 0.723267 
0.120823 0.0876874 0.927022 0.730319 0.00176952 
0.381602 0.141712 0.0726708 0.980333 0.069073 
0.0736252 0.39298 0.576862 0.841012 0.418476 
0.407062 0.0268194 0.877684 0.280587 0.66499 
0.0910051 0.415804 0.964414 0.357976 0.210416 
0.215895 0.568025 0.754726 0.805477 0.325428 
0.385816 0.480089 0.333294 0.297746 0.334141 
0.222534 0.78225 0.422276 0.352925 0.31579 
0.445085 0.820153 0.523033 0.39039 0.90137 
0.821589 0.368602 0.710804 0.496952 0.891629 
0.244149 0.0841188 0.307493 0.0444143 0.663119 
0.408205 0.0882948 0.564562 0.22216 0.255368 
0.99596 0.485597 0.911765 0.0973838 0.768216 
0.438194 0.840889 0.812686 0.519177 0.956682 
0.119139 0.91854 0.730835 0.692796 0.62549 
0.545787 0.176404 0.623938 0.0782404 0.863 
0.690233 0.768248 0.89961 0.844475 0.925382 
0.768774 0.479946 0.418468 0.43805 0.830873 
0.732359 0.974746 0.961731 0.449373 0.0683193 
0.638593 0.00127489 0.51985 0.0572828 0.662588 
0.554654 0.766734 0.479841 0.314248 0.28369 
0.496431 0.527243 0.96922 0.465796 0.649714 
0.809348 0.644106 0.169505 0.742331 0.231899 
0.471098 0.0425086 0.203746 0.637176 0.466392 
0.283474 0.874253 0.456157 0.801736 0.533939 
0.583226 0.933071 0.125824 0.364822 0.361721 
0.860527 0.165897 0.802614 0.902308 0.423979 
0.552304 0.225815 0.258868 0.700639 0.975334 
0.121461 0.347853 0.214422 0.181445 0.433234 
0.962364 0.37005 0.198312 0.405433 0.56033 
0.183287 0.626454 0.251351 0.801236 0.549554 
0.0911835 0.33911 0.0416215 0.0560907 0.372666 
0.290851 0.101394 0.202241 0.898734 0.473404 
0.592648 0.12868 0.654253 0.919877 0.2591 
0.865634 0.852263 0.548926 0.558323 0.458384 
0.261029 0.086697 0.375332 0.879797 0.143522 
0.14367 0.395277 0.020192 0.69953 0.0798531 
0.506761 0.12106 0.0525169 0.540017 0.478189 
0.932082 0.767764 0.355809 0.73858 0.607263 
0.667815 0.762943 0.959212 0.869117 0.155048 
0.749316 0.766667 0.422168 0.856487 0.47417 
0.149566 0.36817 0.334231 0.308739 0.444348 
0.53168 0.328808 0.324489 0.171267 0.518115 
0.877791 0.42765 0.0252749 0.0152552 0.596375 
0.160005 0.846973 0.0121596 0.628626 0.779073 
0.130543 0.168137 0.914655 0.208656 0.573645 
0.0893889 0.496714 0.99396 0.977324 0.4656 
0.126512 0.574625 0.831203 0.738726 0.746406 
0.507125 0.657484 0.0377259 0.401936 0.0115827 
0.260011 0.260353 0.842121 0.680663 0.0910305 
0.828042 0.574399 0.630789 0.168118 0.216771 
0.496993 0.717024 0.57016 0.704236 0.437469 
0.429231 0.465814 0.216552 0.00860949 0.548157 
0.0101545 0.968101 0.957993 0.55223 0.0503684 
0.538562 0.77106 0.059182 0.225783 0.49813 
0.76709 0.287025 0.55565 0.958993 0.252576 
0.448585 0.403142 0.442135 0.409371 0.163548 
0.598112 0.728966 0.156103 0.951232 0.736048 
0.500716 0.946843 0.406229 0.10879 0.208773 
0.27751 0.792902 0.714926 0.41817 0.129633 
0.290293 0.273871 0.801322 0.361598 0.56992 
0.42492 0.780893 0.0159344 0.466371 0.952062 
0.079559 0.113937 0.969345 0.381139 0.534253 
0.940645 0.21893 0.573342 0.66704 0.488392 
0.927986 0.908477 0.254908 0.234136 0.152511 
0.917884 0.561129 0.343887 0.253741 0.109176 
0.727731 0.052443 0.52421 0.261041 0.78335 
0.380232 0.302269 0.827538 0.838489 0.583858 
0.146659 0.247218 0.397418 0.502255 0.457462 
0.750121 0.948139 0.963263 0.595969 0.674265 
0.578334 0.596584 0.817838 0.798663 0.758752 
0.849638 0.677775 0.870755 0.682678 0.978142 
0.503296 0.694245 0.0241058 0.920628 0.510085 
0.867359 0.734656 0.533617 0.892736 0.329019 
0.843005 0.384109 0.121502 0.476151 0.257569 
0.0512491 0.697564 0.42218 0.153393 0.254015 
0.434309 0.457362 0.802046 0.310819 0.348052 
0.755796 0.643075 0.0926211 0.293245 0.135106 
0.0592207 0.737996 0.805953 0.954448 0.27751 
0.557239 0.822421 0.0692754 0.137926 0.0758088 
0.718376 0.498911 0.00265992 0.735144 0.260454 
0.334438 0.947893 0.353122 0.328776 0.361691 
0.0623664 0.846531 0.29681 0.27139 0.71319 
0.449056 0.673821 0.438071 0.878127 0.219919 
0.385859 0.555833 0.242949 0.934412 0.468832 
0.022682 0.687739 0.0608593 0.145326 0.489409 
0.596259 0.162576 0.148904 0.953314 0.957016 
0.480787 0.781816 0.897706 0.353295 0.0529891 
0.663207 0.486367 0.554938 0.792437 0.870052 
0.202364 0.370383 0.0908464 0.22648 0.754383 
0.049686 0.970694 0.993996 0.131188 0.54031 
0.423852 0.686603 0.926549 0.955493 0.0565913 
0.986807 0.842043 0.754694 0.507604 0.552927 
0.516156 0.393293 0.329363 0.346997 0.0357708 
0.892087 0.736055 0.769451 0.608276 0.577225 
0.085585 0.587248 0.405161 0.014051 0.174362 
0.584704 0.845997 0.806396 0.646227 0.771611 
0.7699 0.170517 0.296839 0.507008 0.639997 
0.844811 0.269137 0.214971 0.197124 0.788049 
0.844375 0.149638 0.175315 0.524855 0.616897 
0.0523206 0.292505 0.052861 0.765009 0.213214 
0.281054 0.987163 0.288029 0.152743 0.272282 
0.0568154 0.243525 0.423098 0.904338 0.0494995 
0.227044 0.31644 0.643583 0.0720834 0.649888 
0.130824 0.188054 0.303886 0.9713 0.939804 
0.229002 0.0966489 0.530677 0.0972486 0.638973 
0.042916 0.593758 0.0613442 0.788169 0.044285 
0.828237 0.752528 0.199792 0.117685 0.501116 
0.703736 0.465688 0.911053 0.660943 0.162435 
0.0347501 0.126955 0.971117 0.310894 0.367291 
0.189379 0.211898 0.246414 0.957621 0.231218 
0.322481 0.560068 0.226132 0.497333 0.140169 
0.636556 0.760211 0.0251366 0.480397 0.291007 
0.326565 0.796482 0.789964 0.339179 0.551727 
0.294714 0.660015 0.939635 0.282413 0.446103 
0.27514 0.534102 0.150752 0.660125 0.249926 
0.84693 0.171689 0.647664 0.863151 0.0629317 
0.812034 0.374819 0.880051 0.0628016 0.633686 
0.185961 0.0872193 0.307285 0.185176 0.860955 
0.174113 0.0456098 0.4175 0.720003 0.284693 
0.123038 0.271498 0.645233 0.366597 0.852274 
0.0457161 0.0471536 0.927506 0.986713 0.0420984 
0.0937908 0.444191 0.0820341 0.770342 0.754415 
0.0824113 0.620383 0.508432 0.276093 0.618918 
0.479614 0.500733 0.489148 0.00838865 0.942827 
0.634582 0.708887 0.43694 0.477697 0.445688 
0.1771 0.366293 0.0436369 0.334643 0.935822 
0.741662 0.546149 0.801274 0.633682 0.0659432 
0.553578 0.981528 0.883374 0.907688 0.21725 
0.882169 0.0681845 0.125405 0.823375 0.476047 
0.739228 0.751231 0.62766 0.936177 0.669947 
0.178904 0.881307 0.392866 0.465156 0.886 
0.0310723 0.138959 0.153456 0.341448 0.524885 
0.646069 0.27771 0.278854 0.79548 0.588486 
0.486822 0.994345 0.858478 0.27614 0.85921 
0.168273 0.0296205 0.558263 0.20247 0.535086 
0.71775 0.368361 0.527668 0.392614 0.970796 
0.538936 0.758837 0.22642 0.808424 0.0267039 
0.272273 0.979625 0.167202 0.797235 0.158645 
0.56568 0.0699084 0.459987 0.810198 0.204253 
0.227406 0.179182 0.76092 0.723502 0.261635 
0.329711 0.206959 0.435768 0.665915 0.112688 
0.834728 0.910237 0.0450905 0.757993 0.0455672 
0.384206 0.886896 0.633172 0.914206 0.523492 
0.700541 0.196371 0.384957 0.830599 0.856945 
0.538377 0.914067 0.236481 0.754897 0.25821 
0.562727 0.208701 0.377118 0.192483 0.0362168 
0.454713 0.875183 0.0585785 0.931754 0.268598 
0.0410574 0.717997 0.397782 0.855956 0.0899024 
0.802513 0.228592 0.894467 0.698393 0.00494946 
0.681087 0.935643 0.497959 0.99887 0.650553 
0.307367 0.448314 0.277321 0.587855 0.968612 
0.574045 0.120197 0.797532 0.705676 0.318377 
0.214401 0.911332 0.0479643 0.997363 0.197342 
0.366261 0.654261 0.0925684 0.53678 0.380313 
0.125164 0.502851 0.251828 0.0183766 0.375503 
0.818406 0.0549379 0.488088 0.192628 0.790048 
0.707287 0.00171322 0.531997 0.755616 0.659233 
0.384557 0.708375 0.295502 0.68458 0.859152 
0.319241 0.988639 0.281116 0.508833 0.973936 
0.675257 0.896506 0.501951 0.695573 0.607291 
0.777945 0.772298 0.0781723 0.281609 0.0428891 
0.929029 0.171939 0.514237 0.978651 0.317614 
0.0314801 0.979429 0.915482 0.912102 0.4752 
0.892601 0.145855 0.872678 0.840571 0.600673 
0.907868 0.147931 0.275306 0.90364 0.596555 
0.915343 0.521299 0.788597 0.293222 0.851446 
0.135825 0.82095 0.345447 0.605367 0.479056 
0.582913 0.378636 0.758783 0.19188 0.315162 
0.977806 0.70831 0.265885 0.91256 0.32692 
0.511151 0.720087 0.310677 0.0208276 0.222887 
0.202383 0.978455 0.103716 0.573912 0.777226 
0.433019 0.302474 0.361339 0.723012 0.068483 
0.044931 0.446055 0.818998 0.718775 0.702776 
0.148043 0.785942 0.0048311 0.239395 0.400367 
0.435761 0.632647 0.316821 0.66728 0.0194298 
0.894288 0.0966091 0.57099 0.983663 0.314078 
0.0866061 0.389582 0.621745 0.0440304 0.620752 
0.420993 0.111926 0.236794 0.606936 0.000622098 
0.77391 0.129819 0.868918 0.690909 0.156457 
0.81155 0.57742 0.788829 0.240545 0.0805882 
0.624279 0.48799 0.223546 0.205479 0.539418 
0.107045 0.267106 0.463336 0.0724741 0.793039 
0.633683 0.0862908 0.661499 0.985531 0.602209 
0.765081 0.191874 0.927239 0.894582 0.0685407 
0.854542 0.887912 0.849918 0.38082 0.92867 
0.131036 0.149424 0.834229 0.7763 0.387502 
0.741243 0.442301 0.203468 0.709188 0.501062 
0.248319 0.166272 0.686 0.237952 0.373926 
0.34838 0.671049 0.203299 0.823178 0.861099 
0.486735 0.353695 0.0040301 0.561324 0.23006 
0.357325 0.167057 0.524953 0.0556926 0.135351 
0.210521 0.352676 0.613614 0.843848 0.674488 
0.612616 0.592995 0.927228 0.987134 0.122884 
0.693709 0.0891009 0.520373 0.427452 0.330934 
0.792798 0.966552 0.167854 0.490429 0.280088 
0.217834 0.490289 0.965505 0.756535 0.448325 
0.432166 0.481267 0.113944 0.0199984 0.174658 
0.662028 0.0410865 0.185961 0.152183 0.176548 
0.31909 0.797607 0.110367 0.757607 0.71311 
0.493573 0.254048 0.70428 0.94239 0.293318 
0.480021 0.446903 0.97848 0.609141 0.554311 
0.258638 0.205012 0.8685 0.91716 0.208951 
0.550513 0.848936 0.897409 0.196257 0.855174 
0.208806 0.76256 0.0981656 0.68021 0.53607 
0.910486 0.568215 0.361604 0.555464 0.240635 
0.484901 0.964405 0.128936 0.201484 0.957054 
0.632887 0.128967 0.234097 0.859356 0.576018 
0.639713 0.43575 0.0235622 0.340219 0.0608998 
0.0271005 0.733272 0.0106968 0.535199 0.634845 
0.814002 0.396657 0.86072 0.606948 0.990565 
0.414423 0.91284 0.256214 0.457178 0.912747 
0.252885 0.976887 0.244893 0.382703 0.555144 
0.477522 0.999737 0.0628586 0.137944 0.736955 
0.31216 0.705333 0.108867 0.39189 0.180142 
0.512029 0.873338 0.880787 0.134107 0.884929 
0.155471 0.809948 0.744622 0.29162 0.877406 
0.480766 0.877213 0.824735 0.625843 0.743983 
0.596142 0.302199 0.929244 0.350984 0.0863753 
0.512144 0.661379 0.83899 0.360228 0.441883 
0.523559 0.625343 0.92612 0.841178 0.46765 
0.863143 0.185322 0.968569 0.0918099 0.807627 
0.529037 0.502126 0.76397 0.374734 0.731044 
0.0864526 0.484167 0.533427 0.147878 0.731068 
0.815922 0.199442 0.815712 0.435657 0.381361 
0.796579 0.718942 0.64023 0.379211 0.553442 
0.53785 0.81873 0.438018 0.766492 0.404766 
0.16298 0.940311 0.807179 0.882112 0.632322 
0.330536 0.14789 0.487762 0.844173 0.27579 
0.810076 0.957755 0.329301 0.628012 0.0530434 
0.131939 0.268763 0.645142 0.47061 0.777081 
0.766991 0.525582 0.0107918 0.0502663 0.0556958 
0.767607 0.342113 0.927434 0.617447 0.174716 
0.123541 0.301945 0.316254 0.702849 0.36197 
0.873353 5.96397e-05 0.321562 0.0574299 0.466565 
0.138213 0.701027 0.407821 0.517359 0.724058 
0.908891 0.982202 0.526272 0.566938 0.0646321 
0.548403 0.995848 0.997548 0.737466 0.513767 
0.778148 0.906904 0.0739462 0.476985 0.556805 
0.665172 0.755915 0.89602 0.516752 0.30822 
0.917945 0.187704 0.235064 0.0315029 0.672931 
0.354782 0.272932 0.418345 0.678251 0.956186 
0.550961 0.220616 0.452349 0.84024 0.202032 
0.986881 0.499573 0.36312 0.923751 0.76957 
0.819433 0.569758 0.533454 0.946074 0.865895 
0.756903 0.126003 0.806958 0.480401 0.998302 
0.944687 0.622075 0.860895 0.309043 0.680814 
0.00460975 0.27959 0.546394 0.9859 0.100056 
0.431224 0.735378 0.779155 0.87576 0.0493642 
0.929969 0.845354 0.322985 0.195022 0.582161 
0.386431 0.901796 0.486485 0.674097 0.017117 
0.930523 0.562421 0.364241 0.803435 0.0429302 
0.517075 0.35945 0.886467 0.532063 0.435392 
0.750819 0.160458 0.443206 0.0360974 0.642757 
0.784536 0.0600511 0.339471 0.550918 0.352547 
0.956666 0.973726 0.467078 0.99415 0.482621 
0.49208 0.542719 0.668491 0.275852 0.581664 
0.345362 0.208922 0.084869 0.269371 0.592906 
0.452104 0.690488 0.663571 0.459658 0.546343 
0.924846 0.930689 0.90181 0.896233 0.599412 
0.00228337 0.191385 0.404563 0.386062 0.0858867 
0.80786 0.592117 0.41765 0.563042 0.0200267 
0.334606 0.925495 0.910481 0.305849 0.457848 
0.309871 0.154483 0.341104 0.186873 0.978531 
0.549367 0.114833 0.618979 0.455992 0.947094 
0.217954 0.250227 0.404482 0.616295 0.568133 
0.169362 0.334522 0.819034 0.455158 0.436862 
0.845122 0.407859 0.0806859 0.257663 0.445542 
0.880548 0.596537 0.725011 0.255259 0.632846 
0.520681 0.947545 0.552507 0.768109 0.163382 
0.102908 0.651953 0.876448 0.46418 0.357125 
0.997421 0.551128 0.903456 0.294792 0.942168 
0.718685 0.893232 0.685456 0.543504 0.721565 
0.291267 0.057145 0.888028 0.422016 0.838227 
0.726727 0.47704 0.402668 0.882672 0.454564 
0.929926 0.643396 0.225614 0.154404 0.701088 
0.988266 0.608382 0.881095 0.919429 0.316149 
0.00927974 0.248864 0.485608 0.423244 0.971033 
0.579262 0.437984 0.436478 0.80237 0.740612 
0.555056 0.756167 0.528608 0.257676 0.305697 
0.663351 0.271477 0.0100761 0.913262 0.113319 
0.951216 0.349795 0.358442 0.659685 0.400313 
0.74943 0.756841 0.976374 0.0733107 0.753278 
0.497622 0.619712 0.168598 0.913759 0.85164 
0.614111 0.608133 0.0288721 0.978639 0.950982 
0.918723 0.684465 0.210638 0.672345 0.980508 
0.515685 0.593712 0.706676 0.707544 0.382083 
0.111345 0.017538 0.589711 0.939974 0.237892 
0.356361 0.273495 0.375677 0.291912 0.217716 
0.0502424 0.18697 0.566925 0.245953 0.238391 
0.68835 0.278488 0.740055 0.220334 0.262695 
0.552553 0.835575 0.442678 0.326244 0.793668 
0.139266 0.504696 0.620356 0.38712 0.0128675 
0.13573 0.222826 0.812986 0.985215 0.154033 
0.690824 0.274914 0.864134 0.406911 0.41212 
0.386354 0.829277 0.758126 0.00490354 0.156618 
0.0727948 0.324748 0.600954 0.660837 0.591049 
0.878797 0.901188 0.452995 0.291219 0.972245 
0.736677 0.237502 0.499299 0.486944 0.781182 
0.0215877 0.830347 0.0198235 0.182133 0.67298 
0.388487 0.389325 0.538903 0.128594 0.395969 
0.770917 0.120927 0.254046 0.496692 0.992982 
0.686626 0.501505 0.983977 0.157031 0.335338 
0.120872 0.156521 0.0715479 0.632072 0.227076 
0.189082 0.838171 0.280345 0.156457 0.637114 
0.783087 0.708886 0.506723 0.517334 0.618948 
0.668333 0.522118 0.822169 0.26011 0.54496 
0.38461 0.551628 0.177192 0.439158 0.669767 
0.281549 0.151374 0.355337 0.678586 0.0626675 
0.350808 0.536496 0.566874 0.577924 0.665191 
0.690415 0.197958 0.176767 0.232984 0.491336 
0.0242914 0.979585 0.790745 0.819189 0.255842 
0.342063 0.362025 0.333735 0.757411 0.103057 
0.118009 0.640109 0.390236 0.394186 0.216202 
0.327719 0.0670836 0.769198 0.0442634 0.172609 
0.89963 0.179514 0.781365 0.795202 0.752685 
0.334389 0.336834 0.666171 0.620636 0.0398831 
0.818598 0.886207 0.0773655 0.512734 0.730345 
0.00244701 0.771933 0.495501 0.93754 0.592133 
0.406266 0.185008 0.291526 0.986703 0.508514 
0.736725 0.171355 0.377815 0.907603 0.842821 
0.631777 0.0637514 0.607083 0.609889 0.813457 
0.39618 0.353904 0.40736 0.148288 0.721186 
0.281905 0.0693092 0.846384 0.0169769 0.217914 
0.358602 0.123953 0.850336 0.187003 0.499061 
0.518167 0.7283 0.34803 0.232314 0.877609 
0.535121 0.104596 0.546786 0.143324 0.336132 
0.581003 0.329309 0.304767 0.624852 0.260456 
0.0184795 0.970019 0.855051 0.222112 0.748141 
0.613372 0.828783 0.505931 0.556105 0.630443 
0.64821 0.634643 0.184742 0.914623 0.91952 
0.518313 0.61852 0.117242 0.7816 0.275761 
0.0236972 0.919933 0.839649 0.986248 0.597161 
0.53982 0.978044 0.163559 0.224927 0.973343 
0.982792 0.341751 0.41523 0.23665 0.513584 
0.361134 0.393964 0.550091 0.9651 0.494205 
0.756171 0.313803 0.296048 0.748345 0.974433 
0.861816 0.313993 0.635309 0.84246 0.178508 
0.0412437 0.146248 0.354877 0.611064 0.761298 
0.729782 0.985458 0.248467 0.117543 0.682068 
0.0742464 0.416303 0.00869602 0.592669 0.145471 
0.289737 0.739174 0.963702 0.223324 0.29445 
0.722285 0.00624629 0.973026 0.849128 0.718122 
0.247355 0.573052 0.308356 0.137143 0.769355 
0.591648 0.964213 0.315751 0.173357 0.855886 
0.737777 0.94871 0.0840706 0.55021 0.564892 
0.446538 0.57892 0.693335 0.403534 0.193958 
0.0252308 0.784579 0.67949 0.301718 0.166802 
0.187677 0.799184 0.182234 0.883427 0.349514 
0.518299 0.0743032 0.146966 0.609586 0.725718 
0.169317 0.96145 0.71202 0.959944 0.438319 
0.642276 0.547235 0.0794606 0.583859 0.814612 
0.131147 0.319473 0.310992 0.288559 0.554337 
0.901271 0.431992 0.907541 0.115108 0.358515 
0.921796 0.178717 0.740839 0.167076 0.707467 
0.939625 0.130115 0.471318 0.958233 0.985547 
0.638942 0.69954 0.609902 0.426305 0.846329 
0.642583 0.452883 0.997327 0.0963997 0.95958 
0.781001 0.169713 0.527018 0.656128 0.766758 
0.856878 0.428812 0.58203 0.902804 0.867676 
0.91319 0.0594825 0.0649039 0.445713 0.900604 
0.649935 0.271719 0.0145484 0.539078 0.411465 
0.947435 0.984037 0.377064 0.35176 0.380819 
0.145245 0.5907 0.570362 0.755546 0.841926 
0.0509499 0.504867 0.429875 0.959942 0.420185 
0.825593 0.882429 0.99574 0.296672 0.759757 
0.253772 0.656013 0.579675 0.47462 0.093334 
0.998473 0.447513 0.470247 0.400772 0.942925 
0.850621 0.0652141 0.582999 0.179863 0.580364 
0.0858848 0.738936 0.821239 0.711528 0.356884 
0.787956 0.275934 0.144994 0.51298 0.524449 
0.189656 0.439943 0.498771 0.302857 0.734346 
0.243373 0.347757 0.759208 0.504312 0.56546 
0.408498 0.747199 0.212353 0.0189975 0.930328 
0.716015 0.161062 0.652691 0.30392 0.884529 
0.523909 0.15618 0.147878 0.224383 0.356949 
0.500746 0.345915 0.520828 0.638378 0.592728 
0.307766 0.767353 0.0229907 0.425388 0.78252 
0.818144 0.745105 0.118338 0.479232 0.290287 
0.0158331 0.166189 0.0826316 0.884995 0.80546 
0.693672 0.344206 0.35547 0.982281 0.510364 
0.285484 0.728184 0.0596486 0.309137 0.970972 
0.971938 0.673333 0.236054 0.902797 0.735959 
0.92598 0.479637 0.968758 0.541429 0.308114 
0.234265 0.459301 0.909453 0.338808 0.443153 
0.74274 0.963766 0.962544 0.76236 0.361498 
0.832156 0.476183 0.613927 0.233784 0.954605 
0.231379 0.346745 0.130504 0.77194 0.308114 
0.433658 0.00411199 0.0634528 0.0256833 0.115228 
0.850101 0.567547 0.866959 0.30252 0.752881 
0.895533 0.230778 0.661078 0.307897 0.749333 
0.797846 0.594678 0.890818 0.413204 0.398491 
0.266157 0.970651 0.172722 0.605965 0.962142 
0.396424 0.452262 0.922404 0.181488 0.0905032 
0.850379 0.762231 0.437221 0.878662 0.896029 
0.918227 0.402529 0.84812 0.743372 0.676148 
0.0826591 0.5682 0.40082 0.579459 0.505108 
0.419261 0.636355 0.184438 0.343341 0.261344 
0.390498 0.459537 0.439215 0.616727 0.592266 
0.776315 0.422268 0.217544 0.214468 0.688038 
0.647 0.662949 0.894513 0.922993 0.311675 
0.222758 0.825816 0.104604 0.0739853 0.4517 
0.969591 0.399044 0.717696 0.629381 0.761988 
0.0478438 0.469639 0.871728 0.340345 0.989703 
0.216658 0.482371 0.469038 0.155913 0.211757 
0.306681 0.421274 0.090801 0.600702 0.381711 
0.513649 0.927775 0.74428 0.467764 0.00814711 
0.994625 0.706296 0.7397 0.493434 0.096154 
0.587006 0.0275766 0.136268 0.453117 0.72455 
0.699233 0.268041 0.704281 0.868902 0.441083 
0.0832054 0.735584 0.0279787 0.187501 0.649855 
0.146398 0.169249 0.668825 0.528078 0.316046 
0.709367 0.641565 0.222187 0.946086 0.836671 
0.909154 0.361623 0.625131 0.534856 0.95288 
0.0387815 0.57628 0.582099 0.175624 0.90261 
0.374554 0.989267 0.987288 0.488751 0.188428 
0.101048 0.0594346 0.90432 0.997079 0.983623 
0.586228 0.34736 0.809805 0.934477 0.580649 
0.124513 0.147313 0.0567049 0.448928 0.411657 
0.894979 0.794706 0.953978 0.931669 0.77343 
0.977717 0.21375 0.580173 0.210442 0.564451 
0.165794 0.526896 0.757764 0.830222 0.466366 
0.567166 0.0901283 0.405487 0.0792451 0.0877155 
0.992136 0.117395 0.42194 0.556142 0.180752 
0.892027 0.241259 0.896341 0.148514 0.411151 
0.192391 0.318306 0.450365 0.289816 0.196152 
0.708692 0.815429 0.671483 0.807113 0.316743 
0.948289 0.780045 0.628105 0.321308 0.496878 
0.480224 0.196803 0.31463 0.492582 0.79947 
0.52848 0.316577 0.448593 0.146395 0.472659 
0.692183 0.835782 0.336197 0.0378881 0.289399 
0.223607 0.420989 0.738233 0.0507657 0.384135 
0.0611892 0.515034 0.69622 0.340628 0.162188 
0.948511 0.274421 0.273729 0.355275 0.548576 
0.462171 0.410937 0.236586 0.0198615 0.708283 
0.494703 0.064058 0.987033 0.305972 0.942664 
0.00352886 0.598965 0.558104 0.995446 0.892808 
0.250882 0.324331 0.0505519 0.162011 0.92969 
0.00299087 0.475217 0.366609 0.787397 0.44222 
0.562645 0.513793 0.0257843 0.888081 0.284524 
0.451744 0.700351 0.645146 0.037595 0.00362105 
0.521132 0.142805 0.551059 0.432798 0.587026 
0.0302062 0.616207 0.346352 0.215558 0.853946 
0.89842 0.585292 0.717087 0.457411 0.380061 
0.319148 0.235205 0.0082023 0.668673 0.993586 
0.964336 0.0332992 0.419685 0.0867767 0.371603 
0.913089 0.603743 0.143407 0.0420081 0.981002 
0.399072 0.947749 0.760649 0.887288 0.936264 
0.125426 0.0441381 0.919182 0.998032 0.146353 
0.386916 0.17099 0.683976 0.674311 0.454428 
0.00503485 0.268125 0.520627 0.69927 0.598357 
0.210725 0.320018 0.55471 0.532815 0.390069 
0.758605 0.641552 0.0236141 0.608357 0.00722917 
0.0224736 0.711672 0.350677 0.777005 0.805944 
0.726154 0.0107523 0.0514328 0.898604 0.884212 
0.19615 0.667139 0.738421 0.838145 0.622069 
0.21685 0.782854 0.890903 0.713464 0.0324562 
0.102682 0.829429 0.776706 0.736404 0.759976 
0.309515 0.562415 0.964191 0.496693 0.512739 
0.275555 0.738799 0.0193462 0.694951 0.800446 
0.147142 0.770554 0.342915 0.786141 0.35532 
0.341517 0.610108 0.61336 0.694866 0.930991 
0.667296 0.409722 0.429197 0.478518 0.0565949 
0.976562 0.259441 0.976222 0.689531 0.814067 
0.269842 0.408854 0.359773 0.658529 0.946335 
0.843898 0.357464 0.728432 0.689796 0.417648 
0.59711 0.123033 0.737589 0.669057 0.595255 
0.726566 0.397542 0.210621 0.277361 0.626131 
0.987703 0.36655 0.316924 0.480603 0.761723 
0.329216 0.837932 0.970291 0.357835 0.107773 
0.10446 0.995757 0.0510557 0.711108 0.936949 
0.636183 0.233321 0.588259 0.123717 0.870794 
0.574999 0.834254 0.983631 0.973586 0.134963 
0.466074 0.16038 0.286691 0.79284 0.837479 
0.273418 0.75141 0.743333 0.759076 0.267759 
0.779033 0.337606 0.314067 0.905278 0.674329 
0.816464 0.0485873 0.538863 0.907104 0.686298 
0.585545 0.335311 0.762638 0.637924 0.00844234 
0.915924 0.180379 0.962245 0.293645 0.655334 
0.994717 0.622991 0.922677 0.258724 0.327144 
0.755383 0.519599 0.168719 0.19564 0.416761 
0.0594027 0.255884 0.534469 0.931806 0.511031 
0.982165 0.682872 0.444939 0.255395 0.643502 
0.3981 0.59897 0.764694 0.572646 0.989975 
0.452672 0.537569 0.297656 0.668485 0.864294 
0.783798 0.94625 0.892336 0.184324 0.109145 
0.404298 0.6707 0.135104 0.416674 0.118293 
0.503603 0.249921 0.629112 0.926939 0.899376 
0.607286 0.890708 0.0842733 0.412176 0.919586 
0.422184 0.119333 0.0241658 0.382381 0.69599 
0.124378 0.276553 0.0588192 0.762549 0.442309 
0.0754743 0.281731 0.643361 0.878098 0.434827 
0.813545 0.900547 0.132602 0.164089 0.388515 
0.148932 0.703624 0.819262 0.11332 0.93009 
0.0603565 0.0295263 0.96254 0.905128 0.854467 
0.352567 0.780091 0.438506 0.634277 0.780672 
0.935251 0.161684 0.108178 0.996096 0.582956 
0.0348997 0.369682 0.0646992 0.205759 0.553337 
0.958415 0.692706 0.354994 0.588128 0.472506 
0.091565 0.510871 0.357816 0.24444 0.300159 
0.0219325 0.140672 0.109443 0.568142 0.632315 
0.226241 0.673912 0.235812 0.898802 0.0873655 
0.689044 0.653388 0.470783 0.251838 0.917406 
0.89209 0.141 0.931456 0.274939 0.771632 
0.741377 0.549944 0.21357 0.358189 0.633604 
0.525593 0.301519 0.817065 0.385466 0.551375 
0.0911021 0.724058 0.966246 0.635706 0.556508 
0.858471 0.290046 0.702943 0.851421 0.903711 
0.141271 0.152432 0.712597 0.0229312 0.763833 
0.0795419 0.407506 0.667285 0.0704607 0.539787 
0.921895 0.214558 0.618349 0.462275 0.142894 
0.351728 0.900628 0.510591 0.107128 0.298195 
0.973047 0.213651 0.815808 0.287823 0.0361071 
0.402902 0.80761 0.449853 0.198379 0.26293 
0.214791 0.617613 0.107873 0.706005 0.0205791 
0.99235 0.355328 0.403574 0.666127 0.420823 
0.362358 0.410777 0.350432 0.656665 0.178663 
0.139851 0.26151 0.962429 0.427082 0.203305 
0.912739 0.325158 0.415105 0.21625 0.735994 
0.955974 0.258084 0.0412963 0.938204 0.480452 
0.481032 0.305682 0.62825 0.240132 0.77069 
0.845295 0.652269 0.165315 0.829033 0.501857 
0.0837797 0.548151 0.705591 0.0369037 0.855278 
0.152268 0.611765 0.878464 0.522927 0.37039 
0.688104 0.570087 0.556565 0.571143 0.574521 
0.345169 0.740224 0.484365 0.490863 0.100576 
0.329909 0.0156352 0.595288 0.499173 0.115776 
0.691489 0.480356 0.689373 0.640803 0.751354 
0.0496861 0.0441784 0.0469763 0.422497 0.611547 
0.342376 0.707648 0.353052 0.129513 0.542541 
0.847786 0.405712 0.137423 0.895863 0.484356 
0.437284 0.864949 0.395732 0.925519 0.777992 
0.582526 0.552562 0.148105 0.477902 0.295197 
0.965386 0.163972 0.148824 0.537656 0.362518 
0.596947 0.509166 0.566295 0.984387 0.802853 
0.277002 0.272784 0.612339 0.496821 0.844095 
0.188657 0.62465 0.568172 0.714233 0.634956 
0.965803 0.983414 0.855415 0.476631 0.500927 
0.584187 0.0381153 0.603248 0.865978 0.323987 
0.060635 0.599245 0.648902 0.619985 0.373129 
0.458239 0.570264 0.306464 0.264971 0.578717 
0.722546 0.124346 0.684546 0.136022 0.918415 
0.967106 0.574244 0.28432 0.530739 0.513326 
0.769731 0.517767 0.586635 0.159459 0.991421 
0.294957 0.151211 0.179267 0.88662 0.552345 
0.00600094 0.355485 0.930738 0.627342 0.864426 
0.831383 0.238028 0.536517 0.531169 0.0496347 
0.456193 0.428261 0.815622 0.437179 0.362045 
0.821431 0.261727 0.184542 0.0434364 0.68791 
0.236912 0.698126 0.714378 0.382518 0.226329 
0.657314 0.0557136 0.804695 0.980688 0.659039 
0.462774 0.266895 0.362002 0.341697 0.30763 
0.519639 0.72947 0.746349 0.852797 0.855911 
0.905885 0.808949 0.221173 0.145632 0.14868 
0.739583 0.925382 0.534649 0.221435 0.382517 
0.242496 0.119316 0.488288 0.355034 0.944969 
0.780514 0.447141 0.629022 0.74899 0.0692433 
0.896531 0.504133 0.785292 0.169768 0.84375 
0.108583 0.958601 0.353452 0.176384 0.600638 
0.106656 0.711946 0.906566 0.496161 0.617442 
0.168239 0.752488 0.0269985 0.223493 0.0519037 
0.0319447 0.0717582 0.902895 0.899849 0.34941 
0.977322 0.429927 0.134057 0.492414 0.170953 
0.0777593 0.705174 0.696522 0.464607 0.883581 
0.485058 0.286491 0.624046 0.651442 0.220802 
0.611351 0.98094 0.804345 0.186669 0.0618932 
0.0693745 0.621709 0.232565 0.802333 0.633905 
0.203975 0.0575319 0.335829 0.674955 0.35233 
0.926336 0.844319 0.378013 0.794336 0.563471 
0.114309 0.678849 0.565845 0.642315 0.106437 
0.421177 0.175312 0.288049 0.60082 0.8099 
0.0869709 0.819904 0.905783 0.448231 0.7722 
0.852106 0.0713153 0.701066 0.515549 0.991728 
0.317152 0.374784 0.519811 0.609646 0.111289 
0.893177 0.721935 0.764623 0.622041 0.766571 
0.490587 0.928545 0.942155 0.771179 0.575309 
0.333934 0.5637 0.774399 0.344319 0.861342 
0.147419 0.353967 0.319458 0.143188 0.726271 
0.515786 0.510269 0.437733 0.119248 0.371177 
0.365842 0.956251 0.655158 0.681066 0.260768 
0.915784 0.393838 0.553086 0.309509 0.0790406 
0.514302 0.362885 0.0162896 0.507787 0.34206 
0.36141 0.58486 0.0657131 0.084362 0.88288 
0.746023 0.0187896 0.554172 0.0312092 0.0575218 
0.834036 0.338949 0.89881 0.697492 0.793604 
0.401543 0.620646 0.738163 0.562819 0.999913 
0.921498 0.474747 0.908818 0.774244 0.689416 
0.714597 0.146765 0.686659 0.0629527 0.966293 
0.0670106 0.322662 0.108781 0.849008 0.587762 
0.239609 0.148018 0.680947 0.608143 0.264559 
0.528503 0.812641 0.752266 0.302961 0.638158 
0.827229 0.322462 0.816833 0.846441 0.397325 
0.478337 0.436505 0.461308 0.11501 0.458519 
0.670607 0.127012 0.5375 0.882858 0.774005 
0.605592 0.243657 0.645411 0.959786 0.709787 
0.896729 0.359977 0.770166 0.359155 0.409128 
0.141421 0.447422 0.511106 0.438292 0.658694 
0.647055 0.200919 0.961775 0.977664 0.847707 
0.110122 0.415911 0.121914 0.336172 0.160984 
0.247285 0.589034 0.79037 0.825622 0.297718 
0.421594 0.13953 0.309212 0.255312 0.995244 
0.527612 0.976119 0.131673 0.630671 0.584483 
0.809521 0.101525 0.373793 0.88418 0.646548 
0.340737 0.736065 0.959211 0.178313 0.0515454 
0.51027 0.10797 0.647889 0.858806 0.733303 
0.740171 0.349789 0.433637 0.50013 0.685975 
0.855389 0.999368 0.591161 0.267123 0.0557826 
0.949297 0.693061 0.666251 0.838611 0.64627 
0.126437 0.57995 0.142511 0.0715772 0.78893 
0.643944 0.298802 0.878715 0.160509 0.505552 
0.662219 0.838889 0.990923 0.148411 0.506042 
0.209047 0.0236852 0.475079 0.317198 0.158967 
0.807563 0.364853 0.0861158 0.833066 0.130459 
0.341234 0.192255 0.257919 0.0890686 0.42959 
0.154315 0.496977 0.739642 0.153117 0.490472 
0.783682 0.956257 0.916045 0.955932 0.183993 
0.662923 0.656171 0.954498 0.729793 0.555884 
0.0885827 0.0318775 0.0841867 0.0139541 0.296772 
0.308295 0.762068 0.968285 0.24752 0.58188 
0.137457 0.53809 0.784172 0.810811 0.738838 
0.351599 0.751625 0.263295 0.245182 0.112716 
0.607382 0.147299 0.533787 0.424253 0.635571 
0.877849 0.319431 0.643948 0.557217 0.142562 
0.573294 0.511558 0.608453 0.624323 0.186458 
0.806356 0.806135 0.914757 0.492669 0.213517 
0.151411 0.413425 0.247768 0.807019 0.0648777 
0.512064 0.205093 0.441961 0.481789 0.148374 
0.747547 0.63996 0.175594 0.458572 0.820425 
0.281733 0.487084 0.505573 0.352745 0.0767292 
0.906617 0.648605 0.430781 0.100056 0.679779 
0.625104 0.81405 0.921176 0.514983 0.999579 
0.516802 0.40176 0.165546 0.6778 0.644303 
0.850408 0.0155003 0.0657253 0.607381 0.909075 
0.797285 0.900726 0.517178 0.842063 0.0386753 
0.223288 0.399262 0.0624547 0.783873 0.420051 
0.362543 0.780432 0.75807 0.251148 0.0579916 
0.546455 0.545639 0.509003 0.575971 0.018687 
0.0241247 0.991284 0.184404 0.99516 0.989305 
0.775815 0.163285 0.586676 0.333323 0.161958 
0.748399 0.266008 0.696121 0.971489 0.649746 
0.467412 0.467021 0.40889 0.598233 0.605486 
0.78159 0.40835 0.267785 0.400689 0.924877 
0.109231 0.393681 0.286156 0.649366 0.543561 
0.0646443 0.639183 0.326502 0.582305 0.846084 
0.0955547 0.672942 0.422274 0.0019294 0.244592 
0.440673 0.365349 0.860986 0.580041 0.595064 
0.76521 0.50271 0.507129 0.0169049 0.904568 
0.913026 0.796361 0.0346673 0.657447 0.574946 
0.595554 0.662042 0.564881 0.484711 0.945024 
0.0139949 0.338487 0.647182 0.46857 0.707108 
0.814301 0.946208 0.691415 0.343925 0.377386 
0.535571 0.964781 0.188524 0.507246 0.132424 
0.896327 0.647633 0.808388 0.356714 0.647243 
0.339484 0.0322226 0.823189 0.0566462 0.474385 
0.337876 0.192217 0.150201 0.248327 0.751577 
0.890089 0.244364 0.730283 0.3526 0.609988 
0.489065 0.389095 0.712035 0.781754 0.876076 
0.355922 0.0239213 0.298612 0.721059 0.884228 
0.936582 0.8887 0.948185 0.413642 0.969523 
0.12795 0.143326 0.814571 0.382369 0.61132 
0.00427171 0.176693 0.68261 0.625971 0.306821 
0.390117 0.94276 0.822175 0.0752184 0.158631 
0.792297 0.325386 0.762863 0.638451 0.313041 
0.252703 0.671685 0.454053 0.0652671 0.0315549 
0.817674 0.562768 0.638636 0.426197 0.813608 
0.992112 0.360939 0.250793 0.189806 0.245969 
0.895588 0.288715 0.234964 0.883403 0.517442 
0.740608 0.380791 0.279242 0.799562 0.113831 
0.118673 0.960981 0.447585 0.706481 0.651123 
0.848868 0.068688 0.0504111 0.681552 0.0905962 
0.910886 0.942191 0.799284 0.600058 0.410152 
0.93107 0.705896 0.88668 0.139595 0.980196 
0.0137808 0.581113 0.422208 0.391946 0.335497 
0.9108 0.872332 0.459311 0.464707 0.702098 
0.445974 0.419505 0.992771 0.213727 0.411677 
0.566102 0.783169 0.0165345 0.457488 0.447346 
0.475225 0.431649 0.936503 0.325193 0.338918 
0.0554511 0.3832 0.822833 0.104847 0.0528124 
0.396729 0.629834 0.217765 0.990227 0.429357 
0.739412 0.5202 0.592906 0.792891 0.780923 
0.149961 0.952914 0.369999 0.514273 0.127023 
0.194096 0.669587 0.0668358 0.0361002 0.0990955 
0.548479 0.0916576 0.814948 0.226271 0.968598 
0.952616 0.384363 0.332357 0.432795 0.261949 
0.636341 0.496308 0.230733 0.868079 0.141419 
0.75065 0.625002 0.0197595 0.600097 0.389071 
0.466842 0.94247 0.587599 0.0274267 0.222209 
0.955136 0.631481 0.520952 0.880897 0.641825 
0.645101 0.959103 0.324685 0.586204 0.163154 
0.971756 0.669 0.683807 0.981622 0.589305 
0.408257 0.266543 0.269663 0.327598 0.476135 
0.451186 0.704321 0.280556 0.433866 0.170549 
0.421559 0.121374 0.444971 0.95213 0.618123 
0.387857 0.659536 0.146686 0.172183 0.480277 
0.951179 0.778789 0.254718 0.979167 0.946258 
0.156868 0.817453 0.74728 0.636159 0.183447 
0.904789 0.222945 0.627992 0.559244 0.7821 
0.953217 0.117578 0.995361 0.49169 0.969007 
0.568995 0.223776 0.829796 0.334376 0.195889 
0.109979 0.465993 0.594956 0.731311 0.947768 
0.708895 0.164438 0.376355 0.243856 0.784534 
0.811615 0.930393 0.477361 0.187503 0.762208 
0.856627 0.180249 0.714649 0.722664 0.635281 
0.73602 0.908254 0.275824 0.158033 0.867571 
0.965878 0.39285 0.177528 0.0398255 0.570306 
0.957115 0.821945 0.150848 0.165412 0.49063 
0.662225 0.120163 0.440727 0.191334 0.719785 
0.718415 0.860761 0.782935 0.172898 0.853788 
0.706861 0.602444 0.0615737 0.847992 0.478593 
0.108232 0.69226 0.672007 0.029528 0.834794 
0.284908 0.0919846 0.714295 0.557404 0.176691 
0.355759 0.150583 0.370321 0.716425 0.405496 
0.457968 0.88064 0.491896 0.50039 0.00369908 
0.834176 0.298915 0.155635 0.917036 0.610781 
0.802502 0.240017 0.460786 0.0426401 0.25278 
0.958116 0.830392 0.804494 0.947189 0.427599 
0.794303 0.0507646 0.666016 0.567105 0.0331148 
0.0429567 0.684625 0.0848608 0.868792 0.64238 
0.250285 0.552775 0.191175 0.183568 0.366661 
0.284531 0.712933 0.907262 0.621548 0.417161 
0.567722 0.871112 0.565722 0.350201 0.216032 
0.516044 0.377871 0.637709 0.550708 0.94765 
0.587594 0.302973 0.382009 0.385059 0.465272 
0.653893 0.0499658 0.198408 0.690164 0.371614 
0.954314 0.12868 0.427809 0.186623 0.710441 
0.0158184 0.693024 0.944804 0.897299 0.924477 
0.948066 0.536152 0.829018 0.491409 0.247705 
0.86841 0.497622 0.85202 0.576447 0.799932 
0.930101 0.467896 0.509575 0.0556506 0.53491 
0.750684 0.515199 0.205333 0.661417 0.424147 
0.756173 0.890031 0.597177 0.0394248 0.120607 
0.720538 0.235542 0.869509 0.341576 0.435753 
0.902299 0.981603 0.783901 0.906241 0.550506 
0.427433 0.266203 0.259818 0.517917 0.86878 
0.105459 0.0138685 0.110975 0.633504 0.583446 
0.484705 0.980792 0.393545 0.545278 0.916409 
0.998966 0.68371 0.446242 0.39514 0.377866 
0.0768531 0.497669 0.992005 0.972945 0.788202 
0.183278 0.690613 0.601285 0.584824 0.503699 
0.641096 0.876234 0.232024 0.874187 0.793393 
0.647088 0.840073 0.528385 0.593561 0.946453 
0.624384 0.8983 0.581154 0.115672 0.76326 
0.804383 0.742938 0.899468 0.398489 0.150415 
0.796923 0.146448 0.982261 0.0520652 0.258041 
0.706895 0.581195 0.0728481 0.373905 0.751392 
0.619933 0.264134 0.286155 0.796384 0.707053 
0.668475 0.850648 0.422204 0.816128 0.0525331 
0.806785 0.146222 0.232257 0.969969 0.185112 
0.209308 0.92672 0.193403 0.858959 0.784305 
0.32662 0.605146 0.599618 0.0808056 0.742349 
0.130743 0.656761 0.570022 0.955221 0.956618 
0.111998 0.29601 0.45482 0.280831 0.403483 
0.019771 0.929139 0.512276 0.227905 0.178537 
0.960917 0.990599 0.418969 0.13272 0.013279 
0.047975 0.444203 0.593583 0.220095 0.781919 
0.45539 0.362481 0.334693 0.382325 0.813988 
0.436263 0.862935 0.796512 0.959604 0.21477 
0.222436 0.762871 0.250538 0.205048 0.347435 
0.0973255 0.0585961 0.544825 0.896058 0.373791 
0.791253 0.266242 0.449977 0.020694 0.742217 
0.506175 0.652269 0.831118 0.392429 0.567072 
0.79352 0.814201 0.866693 0.255537 0.920325 
0.969289 0.78104 0.926346 0.353665 0.361666 
0.435659 0.758257 0.590978 0.239544 0.955455 
0.17448 0.674327 0.128682 0.688725 0.171358 
0.949542 0.109535 0.929326 0.672465 0.0866496 
0.979219 0.103709 0.583207 0.460302 0.408902 
0.549573 0.394565 0.264798 0.346415 0.272299 
0.618254 0.614793 0.132004 0.473209 0.368842 
0.148764 0.577429 0.755289 0.722492 0.512076 
0.598238 0.863423 0.0102916 0.717467 0.101183 
0.12117 0.165208 0.914402 0.432959 0.143844 
0.796902 0.668865 0.244951 0.229248 0.773424 
0.735543 0.664415 0.839709 0.396036 0.820217 
0.259223 0.46359 0.0857034 0.760906 0.655383 
0.334894 0.924257 0.973935 0.910183 0.525054 
0.838371 0.230708 0.0499229 0.849895 0.108121 
0.975234 0.627267 0.554057 0.166607 0.164557 
0.250941 0.790599 0.403845 0.614186 0.503755 
0.252105 0.538394 0.799213 0.688948 0.963563 
0.776313 0.049857 0.377037 0.33046 0.175287 
0.939738 0.354812 0.475216 0.796094 0.943117 
0.137391 0.238594 0.222264 0.287446 0.737021 
0.977264 0.374016 0.198291 0.10266 0.517244 
0.15601 0.179946 0.243724 0.390022 0.233739 
0.735596 0.943706 0.147111 0.259107 0.996134 
0.454013 0.75306 0.876807 0.813431 0.519202 
0.109718 0.296509 0.991228 0.51033 0.412599 
0.0716419 0.371527 0.27334 0.702412 0.684853 
0.234388 0.460287 0.576529 0.872246 0.0855508 
0.508989 0.423593 0.802887 0.0571254 0.581362 
0.931388 0.843846 0.16567 0.511747 0.326422 
0.724118 0.108751 0.714628 0.897997 0.717708 
0.487193 0.0846579 0.645144 0.815492 0.627485 
0.546024 0.8404 0.41282 0.39795 0.87151 
0.864722 0.998188 0.662593 0.109164 0.843241 
0.553841 0.709845 0.935384 0.391003 0.619404 
0.196715 0.657256 0.400527 0.7496 0.579809 
0.5602 0.903085 0.889198 0.497739 0.675263 
0.361723 0.880131 0.764688 0.744368 0.610851 
0.0176442 0.697501 0.178153 0.0718398 0.197541 
0.691292 0.570801 0.767056 0.960285 0.305147 
0.392324 0.0401674 0.712558 0.431295 0.763972 
0.211517 0.700491 0.765654 0.164309 0.0293221 
0.189009 0.483751 0.910705 0.72711 0.163418 
0.75245 0.199467 0.673249 0.981874 0.896441 
0.27376 0.567471 0.462753 0.173151 0.163979 
0.809973 0.0633538 0.117122 0.00741472 0.562536 
0.179268 0.242891 0.0116591 0.888675 0.354586 
0.440676 0.843561 0.557477 0.346853 0.267324 
0.831375 0.104782 0.471584 0.631407 0.69456 
0.612813 0.234832 0.870368 0.380426 0.995353 
0.795032 0.919741 0.316841 0.51009 0.0386455 
0.234494 0.273196 0.508491 0.919877 0.723806 
0.0452104 0.199461 0.0371107 0.222445 0.897843 
0.215484 0.0131006 0.835189 0.804079 0.78632 
0.417941 0.907516 0.365619 0.528368 0.28786 
0.770304 0.0782178 0.247665 0.318709 0.6604 
0.751622 0.0690112 0.809004 0.873075 0.684774 
0.514793 0.63403 0.700236 0.983986 0.966766 
0.845945 0.226182 0.798236 0.182661 0.206017 
0.129607 0.708695 0.56008 0.751077 0.279165 
0.171029 0.880026 0.402033 0.251306 0.152706 
0.822165 0.995158 0.271492 0.920133 0.0198171 
0.759846 0.806004 0.751441 0.868315 0.703373 
0.300239 0.256598 0.589824 0.356548 0.7346 
0.207235 0.782282 0.713683 0.784567 0.412907 
0.458538 0.988749 0.871232 0.989832 0.632979 
0.502044 0.242584 0.934279 0.221885 0.222203 
0.610138 0.51026 0.781804 0.181191 0.342262 
0.726356 0.310571 0.817355 0.584653 0.754905 
0.756892 0.870568 0.788993 0.418632 0.543202 
0.933252 0.530646 0.709521 0.763329 0.173989 
0.649047 0.670585 0.581165 0.902507 0.695004 
0.316907 0.757566 0.784853 0.850688 0.472177 
0.522181 0.439612 0.875778 0.814495 0.0656069 
0.500228 0.438611 0.301585 0.675688 0.34553 
0.721862 0.0248725 0.595975 0.463615 0.837754 
0.385108 0.105827 0.351905 0.885475 0.526216 
0.686673 0.298136 0.263516 0.88319 0.121214 
0.722072 0.3359 0.171113 0.594902 0.458075 
0.334804 0.600211 0.767479 0.11818 0.471268 
0.470792 0.675103 0.0481511 0.994248 0.105443 
0.288075 0.150325 0.00963639 0.306305 0.896266 
0.350965 0.51028 0.526795 0.797964 0.163009 
0.23975 0.271884 0.0611184 0.116558 0.415542 
0.631813 0.322152 0.832593 0.244001 0.125413 
0.556568 0.96427 0.945757 0.408944 0.712003 
0.127063 0.575917 0.403553 0.460949 0.207932 
0.446603 0.77389 0.559111 0.559335 0.579604 
