600 5
0.660256 0.639735 0.154827 0.627 0.813299 
0.365678 0.160569 0.301685 0.615869 0.428197 
0.777904 0.871911 0.838307 0.0219481 0.595145 
0.967422 0.345659 0.0155966 0.604519 0.224456 
0.545748 0.234501 0.0372477 0.473138 0.955145 
0.526889 0.59183 0.483613 0.347646 0.863774 
0.412388 0.0199902 0.719208 0.994928 0.207975 
0.579699 0.115207 0.355206 0.425092 0.220959 
0.252273 0.421931 0.476278 0.128086 0.695688 
0.480986 0.713514 0.481397 0.133913 0.381819 
0.592288 0.388762 0.919691 0.524145 0.44974 
0.525418 0.990065 0.83266 0.725132 0.874684 
0.704812 0.483003 0.177903 0.402554 0.663983 
0.200962 0.21397 0.456298 0.104686 0.609456 
0.267531 0.132355 0.231456 0.69677 0.626065 
0.340831 0.111541 0.803551 0.954563 0.35984 
0.122101 0.52284 0.467857 0.230708 0.194884 
0.403065 0.0201656 0.377639 0.333248 0.582375 
0.164939 0.988419 0.515282 0.499984 0.678507 
0.0940063 0.102122 0.841921 0.67744 0.568982 
0.774349 0.54635 0.100797 0.235298 0.629914 
0.0864465 0.57612 0.893543 0.038547 0.282166 
0.10256 0.635323 0.321513 0.278074 0.755903 
0.93401 0.358756 0.148022 0.0191228 0.635064 
0.93072 0.505604 0.145197 0.377914 0.399482 
0.394965 0.566729 0.00401316 0.91806 0.413935 
0.16293 0.462168 0.949712 0.0780152 0.861148 
0.254227 0.225154 0.136827 0.0438736 0.584158 
0.862877 0.490049 0.58133 0.769391 0.573879 
0.5492 0.18874 0.575943 0.30356 0.129081 
0.25707 0.272181 0.289975 0.450875 0.956278 
0.614886 0.0139193 0.799235 0.331247 0.65717 
0.412174 0.516523 0.0289149 0.28734 0.413304 
0.194838 0.921522 0.481749 0.0601528 0.0221453 
0.954932 0.911365 0.936305 0.0747759 0.560729 
0.185083 0.349881 0.205901 0.975528 0.447481 
0.0481239 0.174751 0.565006 0.30963 0.525453 
0.38353 0.955438 0.740202 0.124782 0.472032 
0.24715 0.148965 0.768084 0.272603 0.734608 
0.790015 0.908707 0.721897 0.802584 0.819394 
0.306522 0.978905 0.371405 0.653435 0.533353 
0.347815 0.591564 0.537807 0.376671 0.611036 
0.796283 0.584499 0.478651 0.712552 0.835318 
0.671523 0.616246 0.0683698 0.72852 0.889302 
0.103388 0.430401 0.682964 0.995298 0.207647 
0.881659 0.308617 0.822998 0.980738 0.627135 
0.713573 0.622468 0.26515 0.386654 0.138107 
0.4548 0.17239 0.981327 0.608875 0.0418708 
0.165759 0.127449 0.146851 0.0881355 0.15511 
0.0444118 0.234735 0.440711 0.875945 0.651656 
0.125676 0.809326 0.149078 0.768237 0.876996 
0.142479 0.95506 0.91771 0.333524 0.87376 
0.443385 0.856712 0.145567 0.247319 0.843899 
0.998817 0.738409 0.430428 0.522268 0.76971 
0.15852 0.831582 0.173291 0.570339 0.0836329 
0.0690604 0.208992 0.272187 0.879138 0.912852 
0.0376023 0.265319 0.721194 0.572267 0.303041 
0.255037 0.41599 0.157912 0.3074 0.599088 
0.286409 0.730033 0.0488497 0.116708 0.256341 
0.381892 0.016109 0.314664 0.894425 0.14033 
0.297306 0.745653 0.666258 0.06483 0.844692 
0.18178 0.942272 0.54746 0.68826 0.807927 
0.247481 0.384681 0.916596 0.588906 0.90098 
0.942005 0.991899 0.252948 0.947549 0.075768 
0.344859 0.98098 0.355913 0.32738 0.687626 
0.30577 0.801276 0.938457 0.929804 0.76992 
0.126106 0.448955 0.256772 0.455867 0.610558 
0.10164 0.872661 0.888987 0.165475 0.57693 
0.852623 0.167336 0.721751 0.608902 0.0730764 
0.784462 0.750909 0.870182 0.506009 0.692248 
0.707344 0.747468 0.11971 0.461181 0.215602 
0.207719 0.624165 0.118474 0.273684 0.0565023 
0.718571 0.530049 0.348654 0.537615 0.146042 
0.101856 0.195943 0.490502 0.423545 0.0194661 
0.938177 0.155727 0.564045 0.909868 0.856318 
0.846433 0.684954 0.583181 0.707809 0.0413753 
0.668293 0.920696 0.783733 0.204547 0.921064 
0.802998 0.904328 0.908491 0.691067 0.216637 
0.107871 0.571329 0.278369 0.470174 0.868984 
0.207756 0.21408 0.513505 0.638897 0.64354 
0.523537 0.791105 0.471675 0.18848 0.141961 
0.0189847 0.945189 0.672544 0.201476 0.345711 
0.921945 0.0257712 0.842374 0.0628104 0.903644 
0.320534 0.410644 0.124106 0.273513 0.213043 
0.958686 0.901626 0.913748 0.114198 0.450777 
0.954712 0.092976 0.265625 0.0400531 0.754486 
0.546659 0.363434 0.391478 0.830051 0.636699 
0.309579 0.998011 0.37853 0.237004 0.675756 
0.948871 0.233671 0.5472 0.732531 0.50161 
0.185528 0.247815 0.746181 0.652354 0.0793044 
0.783494 0.37535 0.596514 0.300933 0.239498 
0.186778 0.668699 0.00238588 0.350506 0.482899 
0.556567 0.941445 0.483146 0.984413 0.911065 
0.150922 0.761706 0.545751 0.46802 0.419211 
0.142882 0.217588 0.668596 0.651116 0.580877 
0.52769 0.620057 0.0341757 0.248209 0.843849 
0.502791 0.93307 0.23146 0.532195 0.745393 
0.885421 0.657081 0.775825 0.0228343 0.991921 
0.963273 0.676344 0.208106 0.302285 0.107702 
0.889788 0.373323 0.303732 0.146065 0.311177 
0.711823 0.922646 0.774218 0.0804047 0.0186659 
0.863934 0.0671408 0.331165 0.719775 0.576154 
0.127359 0.492702 0.753289 0.151573 0.430234 
0.0966806 0.964972 0.580281 0.614006 0.443079 
0.71746 0.745483 0.0159746 0.0453501 0.785159 
0.525972 0.0963311 0.461998 0.434231 0.933803 
0.0560955 0.191589 0.876199 0.243662 0.87768 
0.0943722 0.570995 0.0686422 0.140903 0.187164 
0.879759 0.828351 0.181167 0.0267085 0.599051 
0.911086 0.759242 0.644357 0.485721 0.716064 
0.239215 0.483412 0.491327 0.32725 0.457066 
0.942526 0.831257 0.221021 0.625457 0.551056 
0.575113 0.725365 0.100962 0.175235 0.81163 
0.101633 0.205938 0.630706 0.00119076 0.329501 
0.904517 0.595438 0.0375761 0.61064 0.349374 
0.495215 0.152047 0.194863 0.0840877 0.154107 
0.266037 0.28247 0.255712 0.59324 0.101205 
0.675289 0.216377 0.800724 0.460376 0.185423 
0.310716 0.197455 0.199135 0.404749 0.237419 
0.503298 0.397431 0.975368 0.254909 0.456761 
0.857178 0.656711 0.00324663 0.952495 0.200139 
0.159948 0.83243 0.369322 0.622859 0.341883 
0.505633 0.604907 0.394119 0.846484 0.265315 
0.802713 0.962285 0.482763 0.526146 0.884325 
0.948454 0.574578 0.414503 0.336335 0.683073 
0.25242 0.541344 0.511796 0.969343 0.415075 
0.68002 0.211424 0.161906 0.883607 0.44085 
0.125804 0.325108 0.805702 0.634334 0.21212 
0.698088 0.451922 0.600248 0.382338 0.46957 
0.900029 0.638137 0.572589 0.154755 0.365938 
0.956447 0.133897 0.520564 0.0197999 0.990198 
0.254086 0.67438 0.735042 0.507604 0.177859 
0.467741 0.349883 0.463583 0.443062 0.123073 
0.113526 0.454459 0.718687 0.960388 0.528193 
0.775587 0.305823 0.890545 0.620853 0.351824 
0.352282 0.222504 0.353129 0.596343 0.582006 
0.500321 0.0714174 0.9184 0.651999 0.402916 
0.26657 0.988484 0.439368 0.867296 0.216908 
0.327704 0.324914 0.815181 0.0217583 0.837698 
0.964977 0.817725 0.186842 0.897412 0.66274 
0.278543 0.641713 0.352558 0.5636 0.261331 
0.604976 0.276112 0.312655 0.476175 0.656028 
0.681813 0.950271 0.330173 0.701056 0.582651 
0.874665 0.834579 0.320461 0.453582 0.459566 
0.30961 0.75628 0.9148 0.356272 0.285756 
0.189579 0.639289 0.529351 0.0675731 0.386058 
0.485694 0.993038 0.780232 0.374109 0.633567 
0.892014 0.33431 0.894918 0.0137856 0.392078 
0.431222 0.0161028 0.231426 0.838205 0.344099 
0.597521 0.100638 0.253663 0.899412 0.0740198 
0.663875 0.482227 0.897853 0.87892 0.393886 
0.968304 0.668668 0.64014 0.073379 0.874259 
0.28034 0.57045 0.238328 0.225427 0.325416 
0.416644 0.0295654 0.58593 0.398535 0.200889 
0.630229 0.432381 0.0991793 0.513633 0.547919 
0.11361 0.836392 0.0194069 0.548561 0.960277 
0.522987 0.43146 0.590706 0.950108 0.150523 
0.98642 0.38833 0.246549 0.818796 0.860575 
0.945755 0.345863 0.200667 0.316044 0.539381 
0.676966 0.678366 0.463987 0.14747 0.265796 
0.150325 0.151701 0.655934 0.645512 0.697038 
0.653564 0.90508 0.783384 0.557509 0.789056 
0.234746 0.689752 0.345861 0.19852 0.511017 
0.601258 0.905385 0.711639 0.251101 0.161427 
0.968 0.414753 0.842175 0.146867 0.750286 
0.0918037 0.640446 0.933168 0.226377 0.177768 
0.532351 0.31142 0.151511 0.966609 0.906321 
0.474689 0.273918 0.997615 0.118747 0.604419 
0.0743888 0.6498 0.387153 0.957355 0.997257 
0.708618 0.351184 0.591128 0.93691 0.467418 
0.0673688 0.278766 0.368648 0.479118 0.0781432 
0.17592 0.857794 0.0755664 0.62717 0.0116964 
0.539529 0.939262 0.129772 0.697369 0.682009 
0.521431 0.207058 0.0146835 0.0597848 0.753932 
0.463859 0.312806 0.454973 0.868555 0.434779 
0.40704 0.422471 0.56514 0.782248 0.886548 
0.299225 0.181949 0.943373 0.675539 0.932803 
0.315174 0.923096 0.706443 0.7203 0.223296 
0.112547 0.0863645 0.496573 0.409963 0.391107 
0.172264 0.536664 0.358339 0.635135 0.467495 
0.481279 0.557832 0.116956 0.247903 0.49626 
0.685898 0.15562 0.632676 0.651394 0.6719 
0.341597 0.651566 0.83583 0.406066 0.884915 
0.343753 0.340986 0.683909 0.548913 0.338134 
0.175435 0.000682707 0.241325 0.69174 0.381319 
0.536014 0.704561 0.0412787 0.628793 0.0546503 
0.351378 0.903242 0.000638604 0.980583 0.784292 
0.789325 0.355213 0.82297 0.21872 0.78777 
0.298849 0.0198883 0.349786 0.319377 0.556853 
0.616819 0.883334 0.00108894 0.819792 0.876118 
0.340104 0.0173262 0.588009 0.193334 0.932762 
0.760787 0.12763 0.244488 0.235243 0.624065 
0.583072 0.646073 0.954399 0.998097 0.25494 
0.727542 0.359542 0.732088 0.593933 0.295213 
0.127422 0.00550518 0.414618 0.698392 0.443361 
0.657826 0.178083 0.802888 0.576986 0.790076 
0.6417 0.00632766 0.028425 0.335657 0.160012 
0.229282 0.679774 0.543458 0.176106 0.981695 
0.118872 0.313415 0.346872 0.207567 0.323425 
0.00651448 0.0450194 0.447666 0.704808 0.753466 
0.797511 0.989164 0.46606 0.801709 0.469038 
0.900705 0.689028 0.895288 0.837137 0.374849 
0.0531735 0.152284 0.130061 0.226332 0.954674 
0.744673 0.206139 0.36085 0.429999 0.46019 
0.442497 0.118769 0.940149 0.804864 0.769672 
0.21929 0.413146 0.779308 0.696661 0.794074 
0.830046 0.699935 0.367045 0.205205 0.971904 
0.662914 0.312496 0.591681 0.315392 0.560888 
0.506211 0.409244 0.658129 0.843106 0.86868 
0.310286 0.314519 0.812165 0.307451 0.184595 
0.791195 0.974196 0.372382 0.309751 0.848831 
0.725294 0.452529 0.489621 0.848433 0.744743 
0.896034 0.552107 0.275436 0.203233 0.275031 
0.326919 0.514148 0.244492 0.762366 0.746414 
0.893098 0.160563 0.262354 0.634561 0.34997 
0.32772 0.168298 0.346058 0.542877 0.167218 
0.21167 0.363747 0.520141 0.999511 0.853478 
0.515963 0.895225 0.378739 0.248026 0.784326 
0.193494 0.625823 0.900527 0.668574 0.337257 
0.268582 0.409717 0.593892 0.407878 0.756271 
0.434013 0.56262 0.329635 0.440802 0.851252 
0.789892 0.175527 0.834358 0.671505 0.0682842 
0.531984 0.418057 0.0429799 0.669072 0.287364 
0.856915 0.360857 0.272272 0.271541 0.784512 
0.380433 0.923215 0.574373 0.529328 0.739416 
0.0305221 0.0483299 0.180559 0.254276 0.482675 
0.227024 0.108686 0.516782 0.859641 0.291893 
0.51488 0.408053 0.741157 0.104812 0.632557 
0.82955 0.787965 0.105385 0.46889 0.080492 
0.298937 0.205108 0.850277 0.216968 0.00485421 
0.401577 0.553117 0.540208 0.861475 0.568312 
0.5769 0.222698 0.981482 0.138592 0.168842 
0.740802 0.00352084 0.931222 0.204217 0.786007 
0.868925 0.698682 0.073216 0.360283 0.372642 
0.860416 0.298703 0.767791 0.151613 0.65923 
0.600052 0.933552 0.195905 0.480074 0.52989 
0.201372 0.140804 0.17174 0.210693 0.0677072 
0.400482 0.0152563 0.0266079 0.773559 0.260369 
0.203836 0.0649462 0.0446095 0.097484 0.787652 
0.870283 0.474403 0.222829 0.944193 0.495416 
0.0790759 0.410593 0.825907 0.183001 0.230111 
0.377914 0.0824467 0.448908 0.769556 0.0513356 
0.116618 0.0917218 0.31974 0.521312 0.570836 
0.0238094 0.452442 0.00752794 0.582403 0.264187 
0.798451 0.868083 0.0533086 0.0620973 0.263888 
0.441141 0.251715 0.737612 0.450942 0.757833 
0.3681 0.72846 0.495644 0.842307 0.381651 
0.234507 0.9673 0.934876 0.622708 0.10059 
0.898745 0.179616 0.976926 0.756594 0.243673 
0.6602 0.54872 0.90926 0.494336 0.226961 
0.642457 0.401207 0.851979 0.0346305 0.805329 
0.989705 0.333547 0.422739 0.0607183 0.370475 
0.888318 0.508512 0.942674 0.954002 0.538466 
0.724775 0.678409 0.309014 0.220461 0.323665 
0.0372234 0.79768 0.621645 0.897443 0.736668 
0.934867 0.97666 0.641308 0.5043 0.0301235 
0.566914 0.58348 0.683084 0.18903 0.148018 
0.326921 0.0477666 0.319858 0.596054 0.475803 
0.0582771 0.0815117 0.848845 0.855489 0.039499 
0.677793 0.430036 0.330618 0.216464 0.786678 
0.199036 0.528963 0.889767 0.831076 0.798718 
0.147268 0.39554 0.173218 0.0589888 0.112932 
0.855997 0.697339 0.252499 0.14071 0.697701 
0.158143 0.388459 0.481766 0.134796 0.608214 
0.258414 0.764186 0.874042 0.285677 0.59744 
0.261164 0.607039 0.719557 0.314616 0.501553 
0.583359 0.475921 0.11046 0.805973 0.697271 
0.505328 0.326814 0.214475 0.228544 0.359979 
0.882732 0.667087 0.662176 0.718092 0.0837911 
0.27537 0.586555 0.863254 0.408846 0.211378 
0.178472 0.841115 0.205729 0.395016 0.678731 
0.0886466 0.559922 0.143964 0.114754 0.994423 
0.890963 0.295213 0.654139 0.996699 0.707076 
0.913203 0.705796 0.87971 0.504967 0.710562 
0.211382 0.183593 0.701421 0.380155 0.863681 
0.394966 0.165387 0.861408 0.96767 0.0422977 
0.540824 0.277316 0.229398 0.948536 0.175971 
0.269196 0.299458 0.896803 0.397287 0.394876 
0.646179 0.612843 0.933775 0.114583 0.0432306 
0.658577 0.428382 0.273369 0.889298 0.315577 
0.7212 0.906801 0.745811 0.616661 0.234924 
0.788099 0.854675 0.295441 0.00960141 0.0647713 
0.49817 0.631238 0.24297 0.940851 0.593345 
0.655179 0.592327 0.676187 0.732659 0.402914 
0.532786 0.961501 0.0305711 0.916621 0.651926 
0.102971 0.962803 0.802725 0.517406 0.931812 
0.713097 0.1328 0.443822 0.183002 0.865771 
0.774589 0.481436 0.0141654 0.240815 0.500072 
0.97682 0.582269 0.00603251 0.0176931 0.997702 
0.0944264 0.362034 0.873759 0.733714 0.472987 
0.14269 0.203037 0.624671 0.925028 0.778026 
0.7134 0.134686 0.579515 0.961822 0.38748 
0.867799 0.715691 0.251807 0.352421 0.348697 
0.803083 0.420828 0.973974 0.963238 0.710477 
0.507135 0.49695 0.0423038 0.164819 0.424446 
0.620775 0.813374 0.922067 0.373043 0.117675 
0.310044 0.712064 0.333627 0.530286 0.807743 
0.615615 0.405239 0.666185 0.154399 0.870369 
0.405621 0.419862 0.0682805 0.0468066 0.602844 
0.180853 0.123692 0.105859 0.743282 0.663404 
0.778263 0.14323 0.729024 0.312925 0.825467 
0.765841 0.0315851 0.36584 0.136114 0.470805 
0.106121 0.10603 0.0284536 0.923666 0.637237 
0.538116 0.523153 0.537916 0.482347 0.0651915 
0.220443 0.37885 0.274643 0.202076 0.689107 
0.741946 0.43 0.0428068 0.514978 0.0563297 
0.431269 0.669948 0.497013 0.347632 0.130691 
0.276402 0.836598 0.722935 0.736318 0.960992 
0.64578 0.638076 0.3651 0.214563 0.449828 
0.517965 0.184786 0.417613 0.616687 0.687346 
0.00427259 0.0543074 0.406179 0.990406 0.201498 
0.606857 0.796909 0.442325 0.432005 0.775811 
0.913921 0.17885 0.663581 0.736685 0.288361 
0.926363 0.435213 0.190261 0.792101 0.320022 
0.943227 0.0273118 0.964956 0.0694625 0.939077 
0.985899 0.198885 0.845729 0.333871 0.758592 
0.18862 0.872447 0.352275 0.496493 0.072922 
0.999462 0.914575 0.444239 0.816311 0.749638 
0.598101 0.200914 0.898384 0.198171 0.882733 
0.537748 0.907903 0.274969 0.219768 0.943977 
0.701548 0.27116 0.655735 0.50333 0.286799 
0.945641 0.747322 0.949624 0.551657 0.815843 
0.16867 0.994966 0.0134785 0.745173 0.98877 
0.402302 0.760794 0.719532 0.687889 0.585768 
0.029085 0.622632 0.673757 0.963736 0.753148 
0.274225 0.732688 0.0940628 0.168827 0.368562 
0.0617667 0.857495 0.830986 0.989383 0.616045 
0.0841616 0.733319 0.15855 0.770054 0.500867 
0.836372 0.511585 0.451376 0.000267938 0.858362 
0.770083 0.694939 0.931719 0.946757 0.0359611 
0.353042 0.180262 0.101815 0.699605 0.930711 
0.991368 0.812545 0.844872 0.314686 0.914158 
0.708645 0.737027 0.447422 0.479401 0.640949 
0.690486 0.0757136 0.925127 0.544307 0.276876 
0.748862 0.195645 0.955582 0.802774 0.779402 
0.563224 0.122556 0.731801 0.649919 0.694914 
0.536563 0.364101 0.666055 0.190172 0.754671 
0.0116945 0.0664128 0.874249 0.664272 0.368831 
0.92639 0.256733 0.728744 0.802895 0.938871 
0.343988 0.179688 0.984112 0.35389 0.749176 
0.834078 0.691845 0.526884 0.408058 0.792045 
0.448442 0.910247 0.597516 0.131431 0.11234 
0.0795427 0.96691 0.00248972 0.103934 0.868007 
0.608569 0.551893 0.64891 0.59845 0.0249253 
0.311955 0.0815421 0.11536 0.734743 0.62666 
0.930349 0.661275 0.668693 0.526421 0.876615 
0.281931 0.791353 0.0855034 0.715444 0.178597 
0.773354 0.515328 0.637468 0.729592 0.936799 
0.378962 0.0889841 0.969969 0.238379 0.263949 
0.574318 0.820299 0.741631 0.475198 0.860626 
0.873995 0.411486 0.867761 0.438414 0.107415 
0.790176 0.234566 0.523895 0.767428 0.835709 
0.0813139 0.793117 0.0818338 0.294426 0.970048 
0.339395 0.524805 0.659353 0.03875 0.416508 
0.42427 0.965811 0.736883 0.941989 0.808774 
0.140764 0.676194 0.465133 0.403254 0.915441 
0.988651 0.00113473 0.410172 0.81082 0.397238 
0.2674 0.32977 0.638841 0.399307 0.623426 
0.0103777 0.0608584 0.980507 0.0877946 0.376893 
0.755793 0.579561 0.362776 0.669451 0.549867 
0.253333 0.212712 0.931283 0.79069 0.566537 
0.738703 0.0118487 0.0718192 0.535699 0.889979 
0.0690853 0.523077 0.00351297 0.369565 0.80079 
0.657406 0.474133 0.432413 0.521215 0.861609 
0.853404 0.450337 0.167371 0.071735 0.0110094 
0.750316 0.449117 0.274642 0.747307 0.590621 
0.814526 0.269384 0.689835 0.418942 0.946134 
0.138417 0.895789 0.83883 0.296176 0.0705085 
0.503414 0.423521 0.0194888 0.778438 0.0114646 
0.0391944 0.785341 0.417581 0.125997 0.0570669 
0.515178 0.75864 0.318776 0.497554 0.530033 
0.140479 0.0805782 0.17035 0.787364 0.413358 
0.542758 0.794679 0.188195 0.91181 0.63608 
0.786308 0.0751533 0.148481 0.98728 0.27702 
0.896598 0.823635 0.688808 0.0983377 0.534636 
0.81618 0.402898 0.12115 0.402899 0.050542 
0.885398 0.599176 0.0489956 0.20302 0.586344 
0.78274 0.873375 0.70085 0.608206 0.305191 
0.0373753 0.38146 0.88154 0.571316 0.134798 
0.00259065 0.997777 0.546076 0.711079 0.597325 
0.736629 0.683459 0.450353 0.578803 0.885309 
0.914149 0.860017 0.88502 0.452281 0.76394 
0.0635547 0.674893 0.579126 0.855774 0.351759 
0.852727 0.82568 0.265472 0.715054 0.424792 
0.0517941 0.782087 0.00432794 0.854789 0.40175 
0.798433 0.968596 0.822854 0.722141 0.855605 
0.985889 0.741398 0.278501 0.697033 0.347657 
0.309522 0.880052 0.181531 0.712855 0.685574 
0.245764 0.28115 0.0986812 0.727724 0.463703 
0.367965 0.865177 0.722024 0.829563 0.277332 
0.187124 0.586165 0.25488 0.627221 0.71684 
0.689636 0.216464 0.812647 0.809363 0.124428 
0.139577 0.307204 0.751869 0.14441 0.911935 
0.489538 0.112347 0.546186 0.526042 0.403785 
0.718187 0.847043 0.893918 0.894174 0.441637 
0.659578 0.998147 0.689906 0.338994 0.570618 
0.1413 0.517648 0.821511 0.20714 0.222877 
0.359675 0.154408 0.188046 0.998518 0.229482 
0.126324 0.845137 0.147344 0.484778 0.463108 
0.164452 0.617081 0.413508 0.766773 0.908632 
0.384469 0.41391 0.178589 0.939595 0.897736 
0.0718127 0.320304 0.545118 0.366685 0.460836 
0.0184208 0.834154 0.0394623 0.208332 0.928132 
0.386287 0.298267 0.950278 0.313879 0.937363 
0.860939 0.907608 0.424324 0.869902 0.282416 
0.4228 0.994214 0.802637 0.633756 0.729692 
0.553435 0.244918 0.124274 0.38067 0.80033 
0.191032 0.349437 0.39658 0.631302 0.943428 
0.666627 0.399975 0.232821 0.637639 0.397881 
0.0466402 0.0692239 0.190784 0.40006 0.70199 
0.80687 0.0612589 0.485654 0.375187 0.0180626 
0.821302 0.391149 0.256575 0.65525 0.869614 
0.747557 0.0273692 0.492156 0.486167 0.480489 
0.949312 0.066444 0.211449 0.986448 0.078955 
0.529939 0.234419 0.50103 0.215574 0.138798 
0.822359 0.127389 0.277893 0.501513 0.530015 
0.793379 0.411555 0.993427 0.744597 0.353656 
0.895133 0.0222028 0.99832 0.116654 0.848811 
0.985295 0.667938 0.410958 0.419106 0.578048 
0.866967 0.0466266 0.0978655 0.543588 0.198617 
0.658092 0.185328 0.294569 0.769175 0.818469 
0.622912 0.666929 0.313591 0.781397 0.68344 
0.272197 0.384925 0.104494 0.586424 0.0212784 
0.373343 0.426803 0.0825213 0.718577 0.392248 
0.241136 0.777255 0.970314 0.554791 0.273994 
0.220421 0.950538 0.120952 0.496437 0.154521 
0.922242 0.227719 0.408564 0.674815 0.420084 
0.0506364 0.00495441 0.373671 0.806201 0.625669 
0.942412 0.0778629 0.100214 0.411969 0.26758 
0.123929 0.175349 0.604401 0.374624 0.610272 
0.940147 0.0954424 0.391857 0.605362 0.472271 
0.15172 0.252351 0.575863 0.929703 0.626086 
0.522581 0.949279 0.524888 0.432317 0.176407 
0.476773 0.0288136 0.0472984 0.0878713 0.416984 
0.0961086 0.719438 0.254311 0.2273 0.775475 
0.765865 0.484352 0.479288 0.0904003 0.81206 
0.158022 0.919437 0.0860957 0.153158 0.721823 
0.188828 0.760628 0.242791 0.241973 0.313477 
0.807459 0.456668 0.428211 0.985716 0.494396 
0.323988 0.970808 0.654443 0.394379 0.816053 
0.424203 0.766815 0.93046 0.799729 0.629202 
0.493545 0.644578 0.585159 0.0701566 0.800415 
0.12928 0.206006 0.0927314 0.88155 0.572707 
0.54595 0.663783 0.643071 0.393207 0.570396 
0.0325113 0.0976896 0.571265 0.202089 0.0923012 
0.930349 0.683906 0.452758 0.520788 0.610551 
0.363924 0.0489422 0.298264 0.895167 0.80908 
0.605857 0.290458 0.0792068 0.156856 0.345007 
0.992466 0.730115 0.768665 0.911424 0.515737 
0.787565 0.836306 0.953049 0.237566 0.81406 
0.350039 0.090437 0.0732866 0.206951 0.896488 
0.187025 0.783528 0.300515 0.260304 0.601249 
0.877187 0.790747 0.325718 0.783517 0.373933 
0.730303 0.674587 0.840175 0.76134 0.626434 
0.0341527 0.948895 0.0408198 0.131292 0.873518 
0.644224 0.406499 0.764189 0.408004 0.168883 
0.861273 0.92582 0.0808287 0.823125 0.894344 
0.0743617 0.513013 0.201593 0.769782 0.893107 
0.291537 0.286803 0.659944 0.595777 0.554352 
0.887829 0.606555 0.547736 0.158858 0.802498 
0.682831 0.206033 0.948686 0.536835 0.311944 
0.808698 0.452495 0.484274 0.910994 0.480375 
0.827332 0.142579 0.221629 0.502229 0.730801 
0.353759 0.82602 0.319703 0.249346 0.559276 
0.433967 0.436267 0.696587 0.408817 0.441433 
0.786833 0.69747 0.146707 0.55087 0.520034 
0.931611 0.912186 0.388856 0.701742 0.986937 
0.317811 0.747864 0.508956 0.826341 0.54738 
0.4998 0.420614 0.0438097 0.842179 0.163427 
0.550021 0.151835 0.192238 0.201325 0.585111 
0.476344 0.0752186 0.880563 0.506346 0.138801 
0.882325 0.239916 0.151296 0.626406 0.341386 
0.745413 0.55305 0.8305 0.313474 0.850738 
0.172712 0.0775701 0.470532 0.48272 0.527589 
0.916661 0.35315 0.342376 0.788316 0.58183 
0.426897 0.298504 0.861116 0.460862 0.876146 
0.673253 0.290753 0.804437 0.119681 0.459055 
0.487884 0.428983 0.78434 0.0285405 0.254849 
0.154916 0.876742 0.569359 0.0663108 0.0450798 
0.201214 0.727678 0.0171698 0.491005 0.228424 
0.230144 0.380749 0.0827722 0.112055 0.167345 
0.551805 0.23258 0.687814 0.486413 0.0321347 
0.113587 0.623931 0.00617127 0.198555 0.140439 
0.267465 0.122337 0.656049 0.762938 0.498982 
0.868639 0.564898 0.602603 0.490439 0.654142 
0.554119 0.0849664 0.551241 0.908932 0.804172 
0.251108 0.526783 0.461778 0.174188 0.648093 
0.670164 0.865937 0.83633 0.736324 0.544922 
0.976315 0.836203 0.978181 0.800782 0.592625 
0.498589 0.33801 0.70518 0.60749 0.586177 
0.346344 0.282916 0.996599 0.07202 0.265689 
0.0414058 0.54081 0.860238 0.885967 0.741305 
0.73779 0.627058 0.369109 0.106221 0.509734 
0.736913 0.117944 0.527051 0.426457 0.116669 
0.125737 0.487423 0.0482812 0.445687 0.125321 
0.86757 0.165758 0.0626406 0.256244 0.150113 
0.663932 0.90669 0.949857 0.705128 0.711276 
0.963288 0.951301 0.698045 0.106094 0.694991 
0.0489742 0.461737 0.360809 0.7398 0.0543097 
0.641457 0.076427 0.552596 0.980741 0.751267 
0.302429 0.556335 0.0585807 0.123177 0.184988 
0.152422 0.06814 0.955299 0.0188996 0.792084 
0.565993 0.123265 0.813521 0.704057 0.244602 
0.771493 0.712048 0.854901 0.0814642 0.585436 
0.689368 0.165293 0.939065 0.66894 0.520301 
0.415469 0.760819 0.550676 0.640169 0.581986 
0.0634986 0.191836 0.393052 0.564225 0.595293 
0.259919 0.0325556 0.954227 0.159517 0.126053 
0.0454495 0.386154 0.586976 0.000891776 0.951523 
0.607817 0.907329 0.857106 0.628259 0.233879 
0.426953 0.621635 0.774316 0.511096 0.116247 
0.561744 0.356029 0.234229 0.517422 0.252396 
0.876287 0.482845 0.459041 0.745151 0.672682 
0.55011 0.210972 0.309668 0.719885 0.0452251 
0.212595 0.790945 0.522269 0.842367 0.829951 
0.671339 0.0165643 0.344297 0.460241 0.612038 
0.0606583 0.831129 0.00791701 0.141266 0.905057 
0.121795 0.177914 0.133197 0.531375 0.59205 
0.843523 0.382168 0.0922765 0.323313 0.509916 
0.216262 0.125532 0.713868 0.507475 0.870334 
0.196808 0.651178 0.912327 0.642596 0.78641 
0.56374 0.447146 0.0677974 0.720772 0.0945077 
0.0851753 0.295024 0.31607 0.536133 0.603186 
0.695291 0.923663 0.391087 0.743528 0.38434 
0.99588 0.84478 0.00625963 0.263726 0.701473 
0.40872 0.962714 0.578291 0.573519 0.607531 
0.800513 0.121345 0.496356 0.949517 0.995137 
0.00320987 0.47464 0.928851 0.000414663 0.289183 
0.678149 0.75186 0.882998 0.372466 0.186777 
0.40833 0.0274846 0.679018 0.954663 0.460669 
0.359052 0.286123 0.926328 0.237121 0.98292 
0.309291 0.452525 0.690119 0.338498 0.833795 
0.382744 0.277263 0.382508 0.958071 0.957215 
0.175917 0.515441 0.186289 0.821103 0.110005 
0.309332 0.126121 0.0190533 0.084191 0.521726 
0.367068 0.626932 0.373258 0.639011 0.581102 
0.870429 0.552755 0.148079 0.556703 0.159166 
0.104538 0.6248 0.490405 0.939808 0.548108 
0.50333 0.287497 0.357444 0.50545 0.417622 
0.276165 0.080073 0.291493 0.894903 0.359883 
0.663193 0.710323 0.834504 0.711901 0.453504 
0.498866 0.87014 0.250687 0.743168 0.694089 
0.785182 0.564387 0.832332 0.476625 0.0395406 
0.52014 0.18656 0.244372 0.351589 0.866957 
0.596802 0.0252161 0.185017 0.697887 0.723356 
0.511417 0.91954 0.800386 0.660312 0.538814 
0.652208 0.120437 0.598756 0.793189 0.793085 
0.874648 0.513051 0.519269 0.825461 0.202113 
0.568208 0.927445 0.919969 0.53383 0.351328 
0.548814 0.377763 0.120309 0.965162 0.95937 
0.10048 0.205215 0.531875 0.99136 0.487532 
0.732615 0.237637 0.885227 0.340603 0.216244 
0.433644 0.617792 0.597756 0.0659085 0.469576 
0.570435 0.418982 0.746643 0.479681 0.41079 
0.114912 0.324004 0.392626 0.888911 0.50276 
0.676631 0.34803 0.444568 0.624869 0.164737 
0.275673 0.778998 0.766162 0.236967 0.0572363 
0.736905 0.711566 0.908114 0.384228 0.826305 
0.502747 0.205177 0.812925 0.785117 0.368912 
0.469761 0.827007 0.0918652 0.12557 0.478432 
0.583347 0.255647 0.786867 0.388425 0.116623 
0.398729 0.229452 0.249756 0.80087 0.0666283 
0.392843 0.985643 0.346781 0.284736 0.387798 
0.016121 0.390737 0.788481 0.267396 0.798823 
0.601741 0.224727 0.323617 0.637101 0.435895 
0.771764 0.963298 0.588348 0.385419 0.291387 
0.563985 0.666826 0.472677 0.649414 0.474419 
0.313277 0.406471 0.81691 0.64682 0.302334 
0.366179 0.0669145 0.359991 0.630949 0.171895 
0.505505 0.861945 0.518206 0.263382 0.663529 
0.265608 0.752704 0.23342 0.0222484 0.0454045 
0.0302053 0.629922 0.696569 0.308078 0.760271 
0.0158997 0.498983 0.723716 0.692964 0.477489 
0.54493 0.692873 0.591448 0.580895 0.841468 
0.758735 0.224726 0.211221 0.0855545 0.722518 
0.819018 0.508555 0.0782625 0.417545 0.906351 
0.971576 0.889632 0.697701 0.118152 0.301122 
0.305456 0.539764 0.137532 0.286579 0.0420227 
0.632025 0.581144 0.113526 0.0852821 0.584259 
0.459292 0.28846 0.152055 0.271752 0.687245 
0.540502 0.576545 0.435109 0.458387 0.794237 
0.894794 0.842019 0.75277 0.136622 0.21241 
0.768774 0.818932 0.0807105 0.117577 0.500464 
0.438521 0.86616 0.200653 0.791221 0.12128 
0.743049 0.736627 0.637651 0.45274 0.356493 
0.913515 0.499732 0.880186 0.288753 0.317143 
0.249853 0.283076 0.881706 0.85468 0.291044 
0.214037 0.482681 0.603292 0.728253 0.758076 
0.746802 0.592132 0.796216 0.639211 0.109816 
0.228869 0.66067 0.00120822 0.833974 0.661647 
0.874108 0.373708 0.508352 0.597552 0.210134 
0.471157 0.0900472 0.0575117 0.102042 0.987656 
0.777123 0.49819 0.196236 0.355405 0.171603 
0.493665 0.930882 0.151092 0.121779 0.963119 
0.722608 0.528715 0.769256 0.378544 0.488466 
0.183426 0.0371563 0.548545 0.752229 0.220173 
0.447986 0.583132 0.49857 0.0466201 0.714116 
0.138671 0.274721 0.616853 0.71061 0.443765 
0.930636 0.831378 0.128948 0.989732 0.0292483 
0.807782 0.881241 0.330456 0.109344 0.292352 
