1800 5
0.788024 0.348127 0.574486 0.844444 0.846066 
0.18664 0.105794 0.762842 0.827562 0.279618 
0.428973 0.697314 0.672319 0.684179 0.0276076 
0.8589 0.952474 0.120992 0.482547 0.887125 
0.313997 0.996253 0.50816 0.575191 0.982419 
0.945912 0.65092 0.586458 0.633179 0.569342 
0.434908 0.0825302 0.554674 0.281391 0.990954 
0.744433 0.683258 0.171785 0.30273 0.972918 
0.111128 0.491316 0.577198 0.546296 0.197418 
0.872227 0.461927 0.707101 0.125432 0.135952 
0.725887 0.0764677 0.288876 0.135051 0.325426 
0.99858 0.984736 0.459704 0.314271 0.80074 
0.410771 0.437533 0.561452 0.703098 0.54906 
0.231493 0.212918 0.841254 0.69305 0.243999 
0.612613 0.0730317 0.780225 0.794511 0.660355 
0.896263 0.798309 0.423257 0.427811 0.914514 
0.346968 0.919725 0.64145 0.77837 0.090591 
0.00327633 0.706719 0.613545 0.924875 0.315903 
0.597936 0.737108 0.986148 0.129835 0.245066 
0.828703 0.269136 0.741048 0.995212 0.125161 
0.933269 0.50781 0.496346 0.96462 0.553725 
0.01675 0.0854445 0.060327 0.481094 0.0375179 
0.359126 0.962502 0.298583 0.0689611 0.364682 
0.312018 0.928759 0.0199059 0.79411 0.482176 
0.608738 0.344106 0.581223 0.93309 0.839714 
0.866619 0.386583 0.693148 0.420717 0.260112 
0.501837 0.364969 0.27475 0.467119 0.316211 
0.478515 0.45376 0.44711 0.162039 0.563118 
0.472956 0.5611 0.289612 0.962255 0.118718 
0.184919 0.452525 0.571497 0.0907275 0.0534946 
0.072588 0.519588 0.147408 0.220716 0.34474 
0.421686 0.923742 0.236104 0.0530372 0.647252 
0.473268 0.00418186 0.372007 0.372664 0.0267126 
0.293911 0.48893 0.57283 0.515691 0.293187 
0.547403 0.330859 0.17206 0.0985724 0.0197761 
0.951693 0.940133 0.344765 0.00236329 0.885458 
0.477587 0.77759 0.302256 0.17626 0.805102 
0.880674 0.283573 0.400443 0.380131 0.649992 
0.501211 0.395534 0.53061 0.92869 0.322471 
0.989229 0.440076 0.552302 0.585781 0.777765 
0.336778 0.697832 0.740375 0.955684 0.695305 
0.728535 0.57573 0.448348 0.835212 0.780684 
0.928459 0.77559 0.947953 0.481889 0.312674 
0.0626211 0.554517 0.231265 0.501464 0.643791 
0.713763 0.83658 0.943575 0.19519 0.550451 
0.676682 0.905532 0.780148 0.637828 0.546941 
0.754456 0.784409 0.593077 0.657506 0.288056 
0.290802 0.770821 0.634938 0.420791 0.78581 
0.116049 0.74747 0.744386 0.778995 0.438566 
0.619126 0.328779 0.0914093 0.548648 0.190734 
0.716761 0.771273 0.620827 0.410731 0.611835 
0.00436245 0.990455 0.601988 0.0523904 0.131808 
0.886202 0.856209 0.625794 0.480382 0.310933 
0.704752 0.465625 0.472361 0.415573 0.49294 
0.0500519 0.813615 0.28939 0.412196 0.704692 
0.201692 0.022294 0.572128 0.959829 0.876084 
0.294272 0.414916 0.0856824 0.0242028 0.846505 
0.753029 0.35783 0.151441 0.650199 0.840953 
0.109957 0.142507 0.669386 0.0262064 0.754413 
0.138432 0.771039 0.102079 0.642115 0.539417 
0.694424 0.264767 0.63331 0.635355 0.0890247 
0.11076 0.138114 0.638811 0.834423 0.274143 
0.706339 0.617033 0.569339 0.655422 0.142802 
0.938028 0.158633 0.415692 0.806297 0.590238 
0.15275 0.945064 0.797031 0.589029 0.553024 
0.180787 0.13126 0.470417 0.754852 0.707515 
0.35181 0.459471 0.013048 0.394664 0.853535 
0.277894 0.668551 0.148039 0.372565 0.456401 
0.0153072 0.931333 0.15231 0.616477 0.489809 
0.74913 0.59538 0.696715 0.353706 0.579607 
0.771604 0.712442 0.965425 0.939284 0.956977 
0.618792 0.704835 0.347277 0.940505 0.609588 
0.644759 0.165624 0.370527 0.161701 0.394665 
0.549318 0.309343 0.741804 0.356999 0.0275383 
0.743371 0.65166 0.112282 0.625622 0.210085 
0.684159 0.371913 0.257188 0.900718 0.0293519 
0.677615 0.6811 0.329834 0.227745 0.559381 
0.231109 0.914961 0.615735 0.763317 0.552145 
0.893746 0.529956 0.698923 0.200862 0.125305 
0.960042 0.927128 0.583395 0.464696 0.57853 
0.0498528 0.466019 0.338589 0.928819 0.995766 
0.174433 0.79743 0.587402 0.571019 0.643391 
0.706394 0.864994 0.0333752 0.564458 0.00144463 
0.384431 0.321385 0.125434 0.0727908 0.439791 
0.426848 0.140939 0.170509 0.465036 0.819271 
0.443023 0.344478 0.33167 0.139597 0.240926 
0.518765 0.0792702 0.834893 0.119892 0.506866 
0.528312 0.505133 0.608962 0.328241 0.121667 
0.128647 0.090546 0.174687 0.319907 0.752627 
0.716977 0.248701 0.1404 0.810285 0.74842 
0.541999 0.784287 0.171809 0.420486 0.868356 
0.332305 0.380866 0.233373 0.88786 0.781181 
0.203369 0.900059 0.674773 0.0147378 0.117452 
0.00745874 0.658877 0.799781 0.346807 0.61105 
0.110902 0.98695 0.506507 0.271381 0.180793 
0.433034 0.677778 0.773129 0.161777 0.228864 
0.391562 0.290211 0.603757 0.642692 0.743736 
0.0989626 0.513662 0.681303 0.822746 0.043765 
0.700442 0.619423 0.994623 0.693176 0.561299 
0.561586 0.776951 0.517806 0.72712 0.244363 
0.536815 0.379484 0.628892 0.0880409 0.315515 
0.960221 0.958477 0.462768 0.331031 0.101722 
0.383109 0.465987 0.0357153 0.428904 0.813771 
0.240172 0.543553 0.205319 0.102148 0.59874 
0.705856 0.676604 0.843451 0.477672 0.320654 
0.444604 0.856135 0.48151 0.825561 0.199847 
0.409383 0.147245 0.689283 0.640576 0.139691 
0.395622 0.508321 0.455299 0.361115 0.152358 
0.573348 0.0822239 0.656005 0.526057 0.162437 
0.991796 0.668064 0.335527 0.763178 0.526644 
0.623894 0.153413 0.232462 0.936396 0.864516 
0.390739 0.336776 0.186246 0.988894 0.323112 
0.949386 0.759813 0.926126 0.341225 0.444554 
0.346955 0.860988 0.855162 0.948519 0.997129 
0.685758 0.805224 0.532832 0.694767 0.290993 
0.543578 0.899682 0.24165 0.0317616 0.0222665 
0.271532 0.905287 0.558313 0.304718 0.735889 
0.055201 0.823949 0.532608 0.0260586 0.104463 
0.0997943 0.0491699 0.336948 0.68962 0.218616 
0.435613 0.246737 0.625978 0.102163 0.481397 
0.800973 0.719874 0.812145 0.226876 0.392818 
0.682386 0.477673 0.647806 0.590953 0.491171 
0.766935 0.637581 0.827635 0.364097 0.544125 
0.100419 0.530195 0.701947 0.232448 0.164249 
0.164548 0.10604 0.926891 0.85335 0.822131 
0.384589 0.773888 0.687957 0.520989 0.91746 
0.277136 0.444599 0.994142 0.839926 0.00189075 
0.173931 0.312548 0.456914 0.0478183 0.503047 
0.0698684 0.685368 0.0382946 0.344624 0.288955 
0.0699698 0.853587 0.823927 0.209622 0.0894748 
0.550715 0.955079 0.041919 0.53098 0.53212 
0.607561 0.431737 0.807369 0.538806 0.962525 
0.402765 0.575361 0.559444 0.508194 0.721449 
0.0036553 0.726219 0.25374 0.961536 0.257293 
0.375783 0.87071 0.91033 0.408548 0.409743 
0.68117 0.655721 0.518893 0.347046 0.0622196 
0.979974 0.924032 0.945561 0.732587 0.202058 
0.177196 0.912957 0.213542 0.236819 0.953882 
0.0201193 0.117275 0.499057 0.46808 0.530821 
0.650232 0.323978 0.500224 0.883889 0.574231 
0.995936 0.242458 0.919069 0.910369 0.132602 
0.0645634 0.486734 0.240845 0.095278 0.612574 
0.0304087 0.800734 0.254057 0.753667 0.867997 
0.643771 0.102209 0.232414 0.79439 0.893226 
0.886348 0.296027 0.60786 0.738415 0.651064 
0.957198 0.0609792 0.786191 0.796689 0.670626 
0.834118 0.693173 0.755778 0.904631 0.476842 
0.61584 0.201021 0.115361 0.846001 0.0925021 
0.102124 0.397428 0.532787 0.670914 0.098092 
0.845435 0.240705 0.354015 0.258899 0.690833 
0.735689 0.262884 0.805707 0.131768 0.589225 
0.158203 0.900697 0.869369 0.604898 0.424275 
0.262787 0.164244 0.591864 0.120672 0.380519 
0.951197 0.418079 0.897101 0.402694 0.804327 
0.566473 0.239167 0.838663 0.616911 0.66488 
0.00734043 0.815057 0.967288 0.851643 0.427118 
0.725677 0.0210483 0.88015 0.870065 0.823717 
0.8196 0.190401 0.290416 0.927518 0.0731856 
0.827441 0.0410089 0.477296 0.603566 0.5311 
0.132969 0.25226 0.236022 0.765262 0.0845718 
0.384143 0.757974 0.2502 0.608644 0.657097 
0.401282 0.385392 0.870053 0.598869 0.405172 
0.437466 0.733187 0.833602 0.0521985 0.632156 
0.200215 0.738297 0.164666 0.72271 0.909194 
0.639722 0.846874 0.123676 0.382583 0.124034 
0.0929697 0.249087 0.803567 0.912856 0.644042 
0.599809 0.805455 0.849532 0.485148 0.283255 
0.543601 0.030742 0.185699 0.769981 0.243202 
0.366427 0.395866 0.577439 0.413929 0.435649 
0.874403 0.00891904 0.224061 0.417257 0.432096 
0.576883 0.44585 0.18624 0.704408 0.901756 
0.214651 0.723777 0.445272 0.762091 0.910332 
0.80178 0.136304 0.372109 0.710008 0.79132 
0.174039 0.461553 0.240845 0.338072 0.146928 
0.371063 0.0138843 0.816705 0.894253 0.737212 
0.321854 0.392849 0.501624 0.1461 0.858559 
0.909014 0.0399727 0.574814 0.192498 0.989963 
0.557955 0.819773 0.462868 0.153199 0.85514 
0.927561 0.940387 0.957327 0.516975 0.819644 
0.88872 0.193562 0.919405 0.567442 0.646301 
0.631001 0.701272 0.911125 0.571244 0.848126 
0.681052 0.93125 0.625148 0.821106 0.306882 
0.330708 0.63296 0.652022 0.569863 0.283427 
0.596614 0.973162 0.0400165 0.0143723 0.864382 
0.727147 0.561689 0.381789 0.77896 0.439673 
0.695227 0.816264 0.307495 0.615046 0.983815 
0.44505 0.447663 0.320979 0.018512 0.352626 
0.642903 0.466305 0.767552 0.466759 0.257648 
0.946429 0.808942 0.676065 0.641214 0.853731 
0.978302 0.857409 0.915896 0.984647 0.810653 
0.35337 0.238103 0.0208803 0.196831 0.199871 
0.665429 0.297232 0.67706 0.107443 0.239125 
0.416294 0.576682 0.374865 0.669046 0.499011 
0.646884 0.194411 0.243485 0.187285 0.509656 
0.978301 0.00636707 0.0750938 0.667772 0.131952 
0.0736945 0.550779 0.190731 0.386738 0.12141 
0.851791 0.872441 0.578123 0.190972 0.811023 
0.296155 0.653148 0.824464 0.00423571 0.861671 
0.916435 0.994928 0.662595 0.661891 0.369786 
0.215112 0.895618 0.269503 0.418008 0.108505 
0.169037 0.564755 0.45383 0.627354 0.791128 
0.361074 0.53618 0.169632 0.432813 0.771492 
0.441636 0.0962025 0.844873 0.672794 0.739091 
0.258722 0.941575 0.604392 0.193711 0.00374759 
0.55293 0.331654 0.78509 0.765576 0.649637 
0.385467 0.481074 0.354759 0.728538 0.538561 
0.772611 0.654025 0.711056 0.114923 0.0273514 
0.779162 0.0062858 0.404933 0.506709 0.866111 
0.985555 0.608954 0.588188 0.167314 0.63886 
0.913546 0.53407 0.634769 0.841366 0.184247 
0.964711 0.197343 0.975665 0.456338 0.60928 
0.122874 0.147401 0.727579 0.696923 0.268793 
0.396676 0.749255 0.432253 0.656582 0.132738 
0.232766 0.639993 0.501942 0.11655 0.675654 
0.821648 0.249714 0.482618 0.660155 0.114572 
0.261086 0.103678 0.259378 0.366128 0.676667 
0.183036 0.126056 0.629872 0.743078 0.0820444 
0.740583 0.204934 0.430195 0.0143843 0.473394 
0.286947 0.661117 0.611497 0.938007 0.813614 
0.544382 0.0953913 0.218951 0.978169 0.224397 
0.789436 0.617911 0.690773 0.703251 0.925674 
0.498782 0.241657 0.298571 0.0747546 0.543351 
0.1557 0.135708 0.463395 0.765706 0.423453 
0.099868 0.572844 0.720603 0.060681 0.321722 
0.571184 0.19144 0.743364 0.113559 0.473291 
0.669974 0.860589 0.302667 0.83395 0.253733 
0.972029 0.279028 0.588984 0.390866 0.198551 
0.420073 0.133376 0.79037 0.370311 0.779895 
0.409864 0.210387 0.65995 0.506546 0.0493886 
0.17966 0.812439 0.256716 0.0374841 0.619682 
0.535674 0.403966 0.731395 0.560011 0.526326 
0.648271 0.923892 0.774804 0.650573 0.846979 
0.0659588 0.466717 0.376962 0.527129 0.349782 
0.0168055 0.388544 0.138993 0.389098 0.327632 
0.234133 0.684143 0.537463 0.0806853 0.289708 
0.0741966 0.148578 0.682964 0.355669 0.000808741 
0.48442 0.690391 0.0412998 0.131112 0.107787 
0.821476 0.336546 0.950189 0.540436 0.982249 
0.880137 0.620153 0.941064 0.0276872 0.155831 
0.438516 0.091831 0.699387 0.0344946 0.549749 
0.501777 0.960622 0.294601 0.620508 0.588076 
0.730862 0.741006 0.616504 0.771618 0.228042 
0.364049 0.773943 0.678496 0.481119 0.31768 
0.815737 0.697191 0.602211 0.95886 0.577908 
0.0634352 0.0160686 0.862675 0.868649 0.638899 
0.757225 0.158548 0.600435 0.672786 0.725609 
0.223038 0.636127 0.880523 0.753703 0.190602 
0.693345 0.837416 0.633806 0.251296 0.591147 
0.352744 0.763603 0.691527 0.823023 0.140302 
0.0932959 0.992289 0.871256 0.502312 0.705636 
0.872916 0.307531 0.161237 0.66327 0.617774 
0.718311 0.504897 0.361676 0.123268 0.0880116 
0.672678 0.728388 0.603246 0.121622 0.330837 
0.917172 0.506912 0.671623 0.87272 0.0310889 
0.574825 0.790179 0.756572 0.058359 0.800884 
0.86369 0.780757 0.858541 0.939967 0.728866 
0.243252 0.0684344 0.455881 0.153937 0.278289 
0.49653 0.504423 0.653806 0.917649 0.446501 
0.455268 0.8676 0.391197 0.778536 0.0102351 
0.651173 0.970452 0.613684 0.946346 0.0153727 
0.192876 0.220086 0.377864 0.638899 0.949992 
0.648281 0.815841 0.448703 0.943732 0.803528 
0.0829435 0.51496 0.930819 0.672527 0.0189159 
0.898237 0.34313 0.661529 0.101149 0.0446774 
0.0239858 0.368252 0.913371 0.421652 0.614542 
0.0649899 0.403217 0.746234 0.0973827 0.315622 
0.577458 0.414463 0.226549 0.481424 0.312173 
0.446495 0.582597 0.986951 0.967406 0.916865 
0.73208 0.560198 0.191814 0.472242 0.994136 
0.999627 0.29576 0.490221 0.457818 0.435268 
0.63631 0.412312 0.468489 0.178834 0.288143 
0.796562 0.180112 0.964346 0.384992 0.0111478 
0.363751 0.258588 0.654202 0.577297 0.00585107 
0.315354 0.239874 0.310585 0.851673 0.636097 
0.472622 0.449154 0.0276746 0.289561 0.367893 
0.88331 0.387923 0.858154 0.885657 0.872126 
0.0971626 0.169523 0.137275 0.888922 0.397672 
0.0753298 0.529435 0.722175 0.839469 0.561118 
0.356316 0.478788 0.378068 0.674323 0.133371 
0.222894 0.358437 0.030701 0.543057 0.16259 
0.515891 0.935245 0.870576 0.00331577 0.53789 
0.560841 0.939374 0.812963 0.795105 0.850715 
0.339824 0.544944 0.798175 0.313974 0.466248 
0.00614617 0.80934 0.165163 0.555586 0.993618 
0.0512045 0.573843 0.375135 0.455955 0.311917 
0.314563 0.191421 0.893561 0.17929 0.193511 
0.719523 0.0294243 0.463851 0.135144 0.688433 
0.193931 0.606619 0.696735 0.830917 0.0543263 
0.435393 0.503588 0.602399 0.754623 0.661655 
0.856953 0.540512 0.235065 0.817269 0.725228 
0.400056 0.727639 0.31136 0.621498 0.720468 
0.839402 0.65453 0.429447 0.861975 0.237621 
0.335963 0.66043 0.368903 0.359646 0.69216 
0.534387 0.613239 0.327363 0.960878 0.718285 
0.506946 0.490762 0.869198 0.560762 0.185412 
0.860144 0.0406976 0.217747 0.204076 0.220575 
0.733885 0.0558095 0.156267 0.802997 0.359069 
0.667052 0.603643 0.351921 0.240409 0.82192 
0.501144 0.681366 0.270618 0.480758 0.308273 
0.818209 0.0802973 0.53247 0.997607 0.896791 
0.644046 0.00900535 0.488039 0.410932 0.1386 
0.966949 0.957986 0.892678 0.900976 0.892536 
0.43316 0.414412 0.763801 0.875933 0.816895 
0.710581 0.9852 0.435878 0.139941 0.948617 
0.717607 0.14577 0.666399 0.243957 0.453535 
0.412614 0.878949 0.909437 0.412675 0.226486 
0.714615 0.794655 0.12968 0.919979 0.494897 
0.282 0.225841 0.494212 0.913309 0.552017 
0.762 0.85461 0.577931 0.753952 0.866997 
0.411104 0.824024 0.787175 0.464013 0.881574 
0.260867 0.0624528 0.729623 0.16488 0.838572 
0.3152 0.0673876 0.793171 0.917701 0.911195 
0.832136 0.967506 0.261344 0.142069 0.642455 
0.492331 0.873223 0.120186 0.658126 0.387111 
0.104318 0.198592 0.949092 0.289549 0.88022 
0.4343 0.255498 0.995358 0.528383 0.282562 
0.618535 0.481074 0.940936 0.814219 0.18622 
0.27944 0.993909 0.095349 0.409982 0.403447 
0.64435 0.599589 0.622125 0.179985 0.276801 
0.351763 0.666349 0.709777 0.559729 0.618217 
0.352452 0.513245 0.859203 0.207185 0.585925 
0.18785 0.819875 0.668245 0.178756 0.170967 
0.0538373 0.219626 0.523032 0.0352267 0.0737862 
0.203491 0.210524 0.0335171 0.726298 0.278748 
0.959472 0.191172 0.167663 0.121446 0.245127 
0.771656 0.113342 0.927837 0.282826 0.138297 
0.463954 0.666081 0.625566 0.0583899 0.301774 
0.0922154 0.344988 0.345062 0.0434682 0.0798882 
0.374762 0.684554 0.562822 0.353412 0.763598 
0.181924 0.738749 0.749709 0.978105 0.858515 
0.423364 0.0247856 0.500085 0.284616 0.904613 
0.0336154 0.098463 0.596667 0.687743 0.33423 
0.882328 0.779256 0.660917 0.211172 0.433325 
0.0968195 0.127541 0.0759503 0.807712 0.400026 
0.329915 0.46728 0.597152 0.690684 0.627626 
0.0771927 0.927577 0.498862 0.624133 0.252774 
0.259555 0.0953458 0.767303 0.133114 0.641371 
0.209085 0.505138 0.253351 0.502386 0.175995 
0.351986 0.179707 0.734364 0.321291 0.502414 
0.751192 0.334349 0.383376 0.676965 0.457882 
0.401654 0.655806 0.757239 0.836605 0.288915 
0.172699 0.650874 0.246514 0.806093 0.162038 
0.363838 0.743655 0.986202 0.939309 0.893546 
0.289177 0.69716 0.650569 0.0538627 0.693428 
0.343108 0.14701 0.722933 0.493959 0.637579 
0.31462 0.265662 0.442664 0.185221 0.979541 
0.0981187 0.480607 0.187345 0.535522 0.345361 
0.50179 0.669985 0.168756 0.265256 0.923188 
0.723068 0.959521 0.408568 0.168215 0.201106 
0.658041 0.556726 0.781692 0.140329 0.0210859 
0.0423012 0.0552536 0.598351 0.751377 0.797784 
0.461426 0.778738 0.409599 0.10782 0.621874 
0.428828 0.251197 0.612631 0.977175 0.578682 
0.286926 0.863209 0.716649 0.124455 0.910868 
0.995601 0.409639 0.611255 0.993379 0.726868 
0.653299 0.664866 0.736691 0.38015 0.784093 
0.886799 0.400829 0.717582 0.460482 0.73578 
0.384024 0.421617 0.509876 0.442612 0.475283 
0.96457 0.0452117 0.598711 0.451831 0.901089 
0.321375 0.784713 0.710055 0.679439 0.993998 
0.345799 0.222716 0.96727 0.981678 0.883989 
0.413848 0.93528 0.900115 0.675046 0.491646 
0.324427 0.184283 0.796417 0.524886 0.0657694 
0.0213274 0.64422 0.630399 0.133189 0.267089 
0.719319 0.736033 0.941242 0.0670309 0.585628 
0.41915 0.624024 0.506591 0.483927 0.762674 
0.465971 0.395931 0.337945 0.0913906 0.451194 
0.909053 0.661978 0.932765 0.41304 0.751918 
0.549969 0.330411 0.972323 0.702828 0.110697 
0.281373 0.388956 0.161982 0.360989 0.527941 
0.825308 0.455666 0.652116 0.816895 0.301744 
0.368548 0.358186 0.0857112 0.661596 0.28206 
0.075515 0.261035 0.841682 0.191534 0.520162 
0.632984 0.503708 0.8788 0.890818 0.7769 
0.702669 0.290098 0.280678 0.161404 0.265515 
0.434835 0.890191 0.34725 0.221125 0.47292 
0.234808 0.0383241 0.142177 0.325514 0.00576672 
0.432123 0.0333006 0.924751 0.131513 0.615608 
0.816398 0.434304 0.115442 0.387236 0.781034 
0.2989 0.443928 0.718575 0.185762 0.124377 
0.935759 0.471425 0.0371377 0.717134 0.454294 
0.596489 0.846503 0.170114 0.684422 0.392593 
0.930157 0.801731 0.268882 0.826826 0.981462 
0.0806484 0.611338 0.317104 0.88061 0.277201 
0.426723 0.661888 0.92852 0.237561 0.928377 
0.00749227 0.64022 0.814679 0.847699 0.489833 
0.201649 0.306641 0.422786 0.404105 0.797335 
0.78323 0.977693 0.242381 0.177074 0.262311 
0.250516 0.671558 0.00561979 0.216172 0.352859 
0.722492 0.0524758 0.159387 0.868989 0.722826 
0.879183 0.136018 0.262938 0.820522 0.830743 
0.470122 0.464988 0.190596 0.648521 0.661998 
0.249549 0.494589 0.903515 0.60149 0.699855 
0.936628 0.936122 0.542055 0.775303 0.365213 
0.351755 0.405439 0.556873 0.0995736 0.140988 
0.356195 0.563836 0.702199 0.624067 0.482221 
0.846168 0.810611 0.884715 0.623566 0.463574 
0.810688 0.971654 0.561074 0.51584 0.206992 
0.936548 0.999843 0.844308 0.08233 0.489251 
0.650024 0.16071 0.233648 0.837399 0.575055 
0.0475465 0.71428 0.665122 0.522957 0.178715 
0.681017 0.170115 0.202009 0.0896576 0.732042 
0.263556 0.0259155 0.479411 0.642075 0.620327 
0.282369 0.0447204 0.389142 0.0212822 0.047027 
0.922616 0.380059 0.798968 0.595835 0.493844 
0.990466 0.3127 0.336354 0.82398 0.122466 
0.897274 0.737124 0.915512 0.529719 0.153818 
0.434169 0.683405 0.703996 0.933661 0.937805 
0.994887 0.178867 0.12302 0.60425 0.909498 
0.504494 0.780851 0.822729 0.666682 0.812321 
0.790642 0.823517 0.142819 0.642718 0.411077 
0.321844 0.800067 0.670069 0.560449 0.622397 
0.45048 0.856228 0.439026 0.337163 0.781829 
0.09702 0.973215 0.308429 0.893847 0.461368 
0.914746 0.00358154 0.915803 0.734804 0.673872 
0.0578275 0.440065 0.727182 0.625498 0.13874 
0.633138 0.763705 0.150831 0.85431 0.271039 
0.0196948 0.818081 0.986227 0.418064 0.911322 
0.122922 0.548078 0.729523 0.263617 0.294371 
0.331695 0.463982 0.819228 0.150818 0.434104 
0.962299 0.231735 0.288615 0.020269 0.230997 
0.843726 0.00010421 0.697994 0.551186 0.4868 
0.317798 0.834203 0.297321 0.345228 0.533245 
0.771721 0.706421 0.752718 0.0916038 0.896753 
0.698466 0.304018 0.248047 0.954449 0.374202 
0.0399029 0.521831 0.787585 0.927155 0.538443 
0.608172 0.96762 0.706951 0.501332 0.339038 
0.572476 0.993745 0.114222 0.227615 0.234767 
0.121813 0.95224 0.22223 0.179491 0.418032 
0.805324 0.285577 0.467221 0.827547 0.565198 
0.431171 0.672844 0.838707 0.764484 0.3433 
0.497995 0.743441 0.342786 0.511656 0.0470895 
0.603343 0.216143 0.0896201 0.19087 0.270303 
0.205573 0.114521 0.651525 0.723046 0.407938 
0.74906 0.487477 0.937107 0.123662 0.165613 
0.12175 0.765824 0.519463 0.308299 0.219656 
0.0355863 0.388083 0.0542134 0.30121 0.34175 
0.620463 0.836858 0.801157 0.104202 0.383921 
0.433449 0.888001 0.762336 0.923027 0.242956 
0.450407 0.24752 0.399417 0.0730293 0.849135 
0.641601 0.761542 0.00710789 0.0741905 0.660296 
0.888888 0.519731 0.653797 0.781756 0.677034 
0.576503 0.184605 0.77104 0.250911 0.702545 
0.421739 0.645108 0.0233727 0.544685 0.124459 
0.109264 0.217454 0.462626 0.207998 0.610136 
0.0921717 0.34946 0.401754 0.926234 0.309159 
0.476153 0.907659 0.0179335 0.945569 0.0645452 
0.639956 0.963235 0.769825 0.888973 0.2049 
0.739906 0.345021 0.331929 0.966272 0.291434 
0.798269 0.826489 0.221273 0.253026 0.0474768 
0.671293 0.104539 0.779788 0.00339719 0.77061 
0.837102 0.982716 0.872083 0.323854 0.7002 
0.240299 0.890165 0.408899 0.206755 0.074265 
0.411329 0.572143 0.250051 0.87842 0.380236 
0.30096 0.917672 0.280489 0.313283 0.667091 
0.769403 0.516297 0.159455 0.284346 0.987729 
0.710096 0.747121 0.177612 0.975317 0.666575 
0.816328 0.850226 0.0294133 0.943417 0.925824 
0.727278 0.578406 0.173901 0.087867 0.553802 
0.363445 0.244581 0.801258 0.212045 0.057195 
0.441306 0.0973873 0.338282 0.402941 0.165112 
0.396999 0.427888 0.216527 0.638646 0.0916504 
0.830084 0.415388 0.376834 0.222012 0.00189183 
0.791774 0.322051 0.347116 0.608132 0.0922627 
0.567882 0.939214 0.245702 0.931311 0.256861 
0.778082 0.796946 0.53575 0.348252 0.219678 
0.0918496 0.107105 0.596538 0.498969 0.985934 
0.988414 0.0751462 0.857286 0.614175 0.330559 
0.90048 0.983535 0.662242 0.54887 0.652894 
0.8176 0.874509 0.270014 0.447281 0.437618 
0.444392 0.456762 0.623682 0.617309 0.877815 
0.950461 0.0688981 0.403858 0.693245 0.17261 
0.53606 0.125039 0.54059 0.431982 0.906252 
0.737674 0.343967 0.878634 0.04888 0.446704 
0.768076 0.956558 0.453899 0.0294536 0.114278 
0.735065 0.031897 0.275754 0.115828 0.659345 
0.701312 0.0655596 0.311955 0.237925 0.910099 
0.481175 0.685024 0.82527 0.788623 0.585251 
0.0685612 0.891044 0.799987 0.937053 0.431865 
0.746491 0.108311 0.452763 0.956651 0.0555649 
0.0641516 0.115981 0.150339 0.0693197 0.559424 
0.387347 0.75032 0.677255 0.389266 0.0820526 
0.576823 0.776368 0.660294 0.631462 0.662496 
0.898755 0.315421 0.0746272 0.0346773 0.0536073 
0.082607 0.00475801 0.320773 0.703226 0.556293 
0.465476 0.462055 0.776049 0.294718 0.259887 
0.937476 0.133846 0.404598 0.541904 0.942503 
0.723857 0.297303 0.499672 0.129289 0.951007 
0.752112 0.809431 0.609201 0.615269 0.637704 
0.275278 0.621838 0.374284 0.0277414 0.961015 
0.41754 0.756619 0.0657307 0.295903 0.162077 
0.0695682 0.16322 0.438098 0.0290794 0.0637066 
0.512873 0.129175 0.856064 0.0381222 0.306365 
0.0940789 0.483322 0.0683316 0.821307 0.855841 
0.606802 0.381985 0.419196 0.995176 0.615712 
0.298414 0.349188 0.241576 0.350235 0.773555 
0.153782 0.149262 0.0574745 0.474402 0.893056 
0.427169 0.833424 0.40687 0.743341 0.790652 
0.914065 0.189925 0.514127 0.13197 0.061481 
0.917952 0.252549 0.189211 0.646719 0.733927 
0.0272605 0.439055 0.225929 0.758675 0.0521148 
0.584491 0.871989 0.62758 0.775924 0.0885191 
0.573936 0.420799 0.580023 0.0872319 0.763552 
0.803507 0.026566 0.201995 0.229011 0.517318 
0.672198 0.189039 0.916744 0.688233 0.538717 
0.780832 0.543216 0.131899 0.0466102 0.608997 
0.171015 0.469209 0.385636 0.370532 0.883003 
0.528607 0.378269 0.914698 0.687591 0.00958373 
0.419216 0.883921 0.836431 0.758869 0.670517 
0.507462 0.679132 0.0651902 0.734437 0.2366 
0.887568 0.00307548 0.741098 0.407051 0.668059 
0.288406 0.0561905 0.920869 0.0310485 0.0434965 
0.951102 0.246398 0.817323 0.0673087 0.0931126 
0.464863 0.862239 0.338498 0.372907 0.864857 
0.80076 0.711167 0.535854 0.275703 0.832542 
0.0399161 0.361253 0.876169 0.812802 0.622951 
0.246399 0.694563 0.965849 0.974678 0.590174 
0.99059 0.0984939 0.718213 0.687783 0.726847 
0.28514 0.284366 0.190009 0.195085 0.4588 
0.19068 0.99382 0.228666 0.0424529 0.147881 
0.646282 0.5048 0.716874 0.613897 0.385018 
0.772503 0.319762 0.647454 0.143087 0.659743 
0.727111 0.348458 0.529353 0.233535 0.880288 
0.0632357 0.74727 0.93885 0.262445 0.977958 
0.693079 0.765513 0.621044 0.362291 0.259103 
0.978742 0.623937 0.376259 0.226736 0.834089 
0.241598 0.922642 0.0469202 0.146771 0.165119 
0.989974 0.196066 0.522492 0.785536 0.278597 
0.972838 0.34812 0.582931 0.417317 0.883469 
0.791617 0.122418 0.673563 0.325819 0.967214 
0.33454 0.687988 0.220685 0.0421933 0.213776 
0.279109 0.928118 0.782808 0.397874 0.467493 
0.151644 0.530238 0.110613 0.232089 0.766665 
0.0411114 0.951503 0.292681 0.401607 0.0636868 
0.314444 0.337786 0.759752 0.112595 0.734695 
0.326754 0.570745 0.619911 0.51788 0.0848413 
0.648552 0.854285 0.358367 0.224872 0.865519 
0.449926 0.336637 0.230349 0.605024 0.396997 
0.273747 0.364684 0.802799 0.690364 0.902823 
0.857466 0.511152 0.592638 0.797818 0.36087 
0.0549856 0.1153 0.945456 0.623854 0.672161 
0.220004 0.170683 0.91477 0.806351 0.888229 
0.380831 0.13055 0.389571 0.923488 0.23248 
0.706296 0.148248 0.595936 0.0691811 0.418298 
0.993516 0.883268 0.48393 0.48362 0.505538 
0.645052 0.131802 0.423149 0.247959 0.412865 
0.834705 0.823398 0.800366 0.661422 0.285552 
0.706721 0.245458 0.972489 0.357306 0.572383 
0.938464 0.371319 0.0621626 0.912648 0.0538364 
0.563533 0.461825 0.673303 0.672217 0.741255 
0.626328 0.849855 0.0752439 0.612635 0.870736 
0.493958 0.928307 0.331806 0.578141 0.778399 
0.909426 0.0842817 0.528849 0.163117 0.110794 
0.313386 0.157102 0.53724 0.00592678 0.560806 
0.87832 0.595215 0.418729 0.916612 0.155441 
0.479024 0.223061 0.326988 0.720417 0.135033 
0.774571 0.970342 0.68499 0.975152 0.712796 
0.544467 0.608326 0.948148 0.394314 0.235858 
0.54242 0.346062 0.296617 0.922069 0.136132 
0.211842 0.592078 0.424375 0.326862 0.134713 
0.0343745 0.520197 0.892453 0.590025 0.373746 
0.920523 0.82669 0.924212 0.579278 0.804192 
0.974167 0.287137 0.813296 0.0552743 0.390209 
0.781942 0.802323 0.797501 0.457723 0.563722 
0.268136 0.807161 0.497694 0.038981 0.259225 
0.801536 0.422555 0.103017 0.471072 0.966511 
0.448291 0.977087 0.0381053 0.80926 0.362766 
0.407165 0.210319 0.27563 0.765434 0.172027 
0.560114 0.406265 0.390878 0.069584 0.249928 
0.572134 0.127885 0.652073 0.0577084 0.0949798 
0.0144998 0.473609 0.286693 0.295986 0.869093 
0.0958618 0.878185 0.405424 0.709858 0.365216 
0.796112 0.263417 0.78466 0.554657 0.192905 
0.402403 0.932109 0.407781 0.336053 0.80087 
0.966186 0.812604 0.689765 0.794042 0.91474 
0.630595 0.339815 0.896095 0.710239 0.733536 
0.620777 0.201466 0.19387 0.458326 0.0541933 
0.513371 0.954956 0.90467 0.136917 0.289453 
0.0237115 0.434687 0.164861 0.837816 0.698333 
0.316474 0.319371 0.0999175 0.453594 0.91868 
0.952895 0.421252 0.132752 0.74404 0.935682 
0.621516 0.995514 0.385626 0.255461 0.207628 
0.840549 0.268844 0.0160789 0.503193 0.215922 
0.190469 0.241997 0.80824 0.391159 0.0693778 
0.86539 0.394243 0.707301 0.567499 0.273879 
0.00831288 0.322021 0.27077 0.315108 0.928314 
0.174495 0.354163 0.267822 0.665988 0.438028 
0.794809 0.720234 0.735069 0.542423 0.0256998 
0.352649 0.0164666 0.636947 0.286823 0.767605 
0.475071 0.46364 0.440091 0.761708 0.155551 
0.906029 0.807945 0.353136 0.0903285 0.0417812 
0.0555849 0.0522899 0.705393 0.160727 0.615364 
0.922698 0.442883 0.734829 0.00779335 0.86776 
0.0202789 0.000106088 0.185964 0.103719 0.912314 
0.16798 0.24848 0.887097 0.196808 0.835443 
0.167365 0.812237 0.272685 0.501734 0.665814 
0.784334 0.949452 0.541636 0.176455 0.400098 
0.670365 0.625922 0.491432 0.143691 0.183553 
0.553097 0.974922 0.672755 0.0029481 0.144604 
0.65219 0.288869 0.346812 0.159079 0.00202642 
0.725615 0.0970911 0.876111 0.162645 0.984068 
0.0939217 0.801078 0.889534 0.731374 0.724273 
0.424843 0.468719 0.130275 0.644715 0.231703 
0.864886 0.364549 0.218774 0.998653 0.5372 
0.504401 0.437386 0.323173 0.816863 0.458492 
0.275194 0.0372261 0.514152 0.936605 0.105188 
0.526152 0.259368 0.0944564 0.988129 0.412527 
0.0198525 0.630161 0.572274 0.448459 0.997084 
0.920596 0.897085 0.308329 0.480196 0.493714 
0.783195 0.0698255 0.378614 0.420679 0.886382 
0.283985 0.0628239 0.075812 0.140629 0.576534 
0.116921 0.331233 0.340153 0.163546 0.734996 
0.347453 0.792016 0.0421288 0.722898 0.613074 
0.321232 0.886564 0.33662 0.795623 0.0677024 
0.534424 0.491604 0.711163 0.868466 0.858859 
0.513958 0.238076 0.0487016 0.919198 0.485624 
0.984845 0.725081 0.787678 0.360511 0.31169 
0.686601 0.872035 0.306357 0.549627 0.939702 
0.0613126 0.851014 0.941979 0.473988 0.260387 
0.684718 0.940444 0.58721 0.640796 0.799938 
0.0820428 0.84976 0.974976 0.460034 0.65086 
0.0828851 0.778059 0.163533 0.0669465 0.447799 
0.0870312 0.595928 0.174712 0.744968 0.883917 
0.0664114 0.691755 0.52614 0.573816 0.0418907 
0.955698 0.410755 0.606464 0.500569 0.817809 
0.728413 0.474296 0.782237 0.932038 0.436728 
0.240739 0.48021 0.412405 0.890217 0.220513 
0.763718 0.502666 0.0385145 0.166199 0.223685 
0.765757 0.967095 0.369037 0.643875 0.521076 
0.221729 0.573652 0.52278 0.598937 0.764929 
0.241412 0.846771 0.435002 0.0632749 0.473987 
0.546907 0.525355 0.398093 0.434612 0.0893167 
0.0136517 0.7438 0.84037 0.116044 0.553209 
0.907203 0.588736 0.0816946 0.888963 0.0931842 
0.44815 0.409713 0.753763 0.458636 0.653031 
0.580092 0.419725 0.530517 0.54284 0.311269 
0.762213 0.641139 0.832109 0.398541 0.189655 
0.932679 0.83242 0.630434 0.703014 0.173252 
0.0936471 0.294574 0.781104 0.789997 0.5755 
0.777215 0.977626 0.0705875 0.830673 0.867733 
0.783433 0.98252 0.795874 0.627642 0.894293 
0.221006 0.184253 0.647457 0.127692 0.600819 
0.986579 0.0681753 0.60945 0.88181 0.629207 
0.237361 0.465192 0.718178 0.96823 0.0267823 
0.522856 0.249357 0.601049 0.827103 0.685152 
0.0988386 0.0114219 0.193077 0.206163 0.642767 
0.0321573 0.294289 0.1373 0.80769 0.412225 
0.0443475 0.922837 0.324824 0.51645 0.550255 
0.996583 0.74168 0.587565 0.316795 0.375258 
0.138598 0.929431 0.695832 0.750841 0.135097 
0.317594 0.37712 0.276217 0.585534 0.76877 
0.20844 0.910131 0.595975 0.59825 0.882525 
0.416503 0.800267 0.347784 0.250561 0.240165 
0.0341537 0.824908 0.00202612 0.776066 0.544135 
0.890774 0.322653 0.327134 0.15154 0.919954 
0.529289 0.0133867 0.19953 0.81396 0.956003 
0.0453197 0.0536675 0.910622 0.532948 0.299949 
0.590532 0.693373 0.585171 0.627705 0.16387 
0.538129 0.973203 0.110921 0.473841 0.761842 
0.641005 0.886553 0.53394 0.217934 0.973401 
0.559485 0.202331 0.360437 0.696656 0.841038 
0.595047 0.664145 0.214554 0.747306 0.830553 
0.84155 0.412249 0.784084 0.989208 0.424344 
0.739709 0.758894 0.899342 0.849586 0.459599 
0.833655 0.955295 0.689897 0.677728 0.430184 
0.605545 0.14434 0.891565 0.595598 0.771971 
0.295426 0.0485574 0.358784 0.261614 0.722378 
0.424428 0.345884 0.917155 0.706123 0.347204 
0.205678 0.360108 0.609052 0.496864 0.400403 
0.579008 0.0935201 0.592418 0.972128 0.603829 
0.274803 0.311826 0.421502 0.0454365 0.109457 
0.298245 0.888213 0.854176 0.242442 0.15178 
0.0877101 0.827667 0.6295 0.615908 0.456118 
0.680799 0.0975564 0.581179 0.503845 0.829361 
0.661496 0.129769 0.0177888 0.962945 0.347867 
0.0373628 0.21759 0.417192 0.96241 0.491851 
0.288586 0.625054 0.855096 0.399083 0.636738 
0.638985 0.112266 0.0484196 0.117765 0.162262 
0.507535 0.7894 0.572346 0.603966 0.861782 
0.421799 0.407078 0.660501 0.0181077 0.347551 
0.260936 0.352137 0.909388 0.965874 0.350732 
0.653151 0.793782 0.381335 0.849113 0.849943 
0.808644 0.0156213 0.682419 0.516467 0.655942 
0.917694 0.27225 0.0399352 0.700799 0.728247 
0.850098 0.554363 0.0511669 0.277659 0.929898 
0.848242 0.522818 0.398339 0.357187 0.375065 
0.0799079 0.90429 0.0171954 0.747964 0.579352 
0.958791 0.461684 0.484405 0.979608 0.995209 
0.155607 0.267809 0.0997144 0.666561 0.559156 
0.354437 0.938864 0.589288 0.820921 0.887553 
0.0227698 0.531527 0.141784 0.872142 0.930235 
0.596973 0.537934 0.523003 0.0178372 0.954531 
0.865795 0.967136 0.644429 0.425713 0.401245 
0.971049 0.915501 0.345472 0.05019 0.334279 
0.376632 0.934108 0.786301 0.255682 0.83389 
0.254854 0.793968 0.633462 0.071982 0.650043 
0.348386 0.560103 0.799505 0.497811 0.493644 
0.367768 0.392614 0.62785 0.779224 0.882931 
0.0401953 0.909148 0.0505966 0.594777 0.376483 
0.283814 0.278581 0.450584 0.370099 0.508163 
0.0295917 0.303973 0.987077 0.719236 0.621026 
0.0253919 0.321938 0.614244 0.780298 0.100195 
0.43856 0.505539 0.222626 0.586529 0.754828 
0.631013 0.409016 0.836151 0.666195 0.0412268 
0.948049 0.00724096 0.21197 0.528831 0.654293 
0.813471 0.102252 0.84591 0.104772 0.17809 
0.00548101 0.104852 0.782381 0.918982 0.1845 
0.207331 0.576167 0.321584 0.714407 0.505338 
0.597624 0.88452 0.190538 0.253145 0.475047 
0.800856 0.0778348 0.519255 0.255122 0.0101593 
0.589451 0.357043 0.696325 0.47495 0.247653 
0.893273 0.897079 0.515831 0.786646 0.662659 
0.534549 0.730073 0.212171 0.0342078 0.985409 
0.281924 0.475785 0.804943 0.0246673 0.362078 
0.0701149 0.495523 0.722506 0.450799 0.0511183 
0.706115 0.884295 0.836878 0.224505 0.752908 
0.928976 0.514792 0.36847 0.450653 0.431005 
0.121164 0.266573 0.800359 0.734188 0.786035 
0.380478 0.988526 0.176207 0.506682 0.343068 
0.298706 0.807591 0.527046 0.771136 0.86903 
0.247494 0.249136 0.0441089 0.637952 0.744421 
0.614164 0.525612 0.525041 0.89098 0.998421 
0.679247 0.181736 0.457247 0.307393 0.834657 
0.740559 0.0986559 0.504359 0.507735 0.607319 
0.988552 0.0151198 0.286449 0.683638 0.616598 
0.407292 0.711796 0.38464 0.117282 0.505256 
0.0902999 0.95623 0.923623 0.366845 0.738128 
0.900807 0.553269 0.342794 0.941894 0.537014 
0.265209 0.84476 0.6489 0.320697 0.0827945 
0.433474 0.897897 0.39502 0.156334 0.437598 
0.0474762 0.110713 0.567351 0.100611 0.131671 
0.393795 0.663221 0.846159 0.821683 0.816713 
0.697771 0.0875368 0.315072 0.165439 0.626554 
0.331917 0.461159 0.0806153 0.741954 0.0935699 
0.0999041 0.157963 0.202951 0.238778 0.91369 
0.799693 0.839529 0.546615 0.484179 0.32776 
0.697173 0.52057 0.808834 0.219193 0.123936 
0.934277 0.704606 0.00384527 0.537223 0.256094 
0.0752791 0.10255 0.225097 0.924681 0.568842 
0.0795212 0.496292 0.52839 0.769331 0.0614873 
0.0700756 0.00705015 0.907574 0.889668 0.55184 
0.937639 0.751471 0.0488886 0.0856175 0.662215 
0.274136 0.885819 0.23805 0.144048 0.582277 
0.0669046 0.868237 0.378258 0.0455657 0.289777 
0.449119 0.362057 0.515041 0.176387 0.350625 
0.387543 0.0025435 0.942109 0.801111 0.97346 
0.707858 0.420898 0.140396 0.446955 0.274605 
0.517017 0.214882 0.897782 0.870936 0.170096 
0.773656 0.343817 0.821947 0.139956 0.617401 
0.922582 0.736502 0.584319 0.941917 0.968564 
0.0486526 0.861288 0.660083 0.836609 0.328788 
0.0248086 0.73495 0.955958 0.960185 0.16264 
0.213842 0.56384 0.985299 0.781838 0.659512 
0.0451964 0.752529 0.644277 0.654223 0.571367 
0.676721 0.56129 0.264133 0.17296 0.311826 
0.837354 0.170969 0.476752 0.14538 0.341459 
0.256203 0.497471 0.590948 0.14225 0.26497 
0.227608 0.677427 0.54293 0.418879 0.147299 
0.352077 0.27253 0.844832 0.612634 0.734953 
0.529779 0.130207 0.525417 0.108356 0.301301 
0.0295051 0.653555 0.684017 0.910929 0.255425 
0.410078 0.339089 0.690803 0.845236 0.903847 
0.928964 0.348319 0.584694 0.655732 0.877714 
0.77993 0.61033 0.63294 0.690971 0.179379 
0.464631 0.227203 0.324799 0.788014 0.448502 
0.537588 0.787122 0.00671833 0.0845342 0.761801 
0.331742 0.0292717 0.763238 0.719273 0.605307 
0.599327 0.526704 0.420781 0.987618 0.265076 
0.479071 0.687015 0.976446 0.637556 0.583688 
0.526747 0.402355 0.787746 0.201998 0.915332 
0.076661 0.65473 0.354958 0.208776 0.883081 
0.18769 0.328468 0.463388 0.428182 0.0745232 
0.504281 0.561343 0.24614 0.807051 0.343669 
0.55031 0.732843 0.424909 0.089486 0.395109 
0.705636 0.0266348 0.264906 0.577464 0.623162 
0.734943 0.897028 0.0493657 0.403255 0.628635 
0.130731 0.158921 0.156473 0.664489 0.98431 
0.570713 0.105633 0.325113 0.728991 0.117642 
0.39948 0.302016 0.698118 0.866437 0.106826 
0.823947 0.426196 0.506594 0.480401 0.342598 
0.433918 0.234522 0.404601 0.687479 0.798018 
0.196233 0.626116 0.494733 0.836991 0.376058 
0.874443 0.155537 0.686331 0.100064 0.342505 
0.868865 0.905084 0.100943 0.493994 0.693127 
0.238549 0.162406 0.778995 0.428943 0.860594 
0.0105945 0.29801 0.363452 0.837921 0.813909 
0.460785 0.476537 0.325789 0.910619 0.504433 
0.902482 0.0836473 0.44905 0.142923 0.255584 
0.53279 0.0198656 0.878278 0.272915 0.48617 
0.168243 0.767293 0.153821 0.697639 0.453647 
0.719516 0.12312 0.17493 0.652941 0.229838 
0.450349 0.0178125 0.947774 0.149269 0.190354 
0.222825 0.886169 0.927288 0.854728 0.00628183 
0.897184 0.324749 0.120324 0.392906 0.829803 
0.945575 0.51675 0.00618398 0.66669 0.988285 
0.0391991 0.73445 0.298598 0.0254868 0.0107112 
0.0137739 0.334429 0.367455 0.101282 0.192218 
0.949063 0.714748 0.318994 0.482373 0.522539 
0.301371 0.642741 0.260955 0.874196 0.00130187 
0.345458 0.108403 0.304159 0.213959 0.587417 
0.885911 0.924056 0.572758 0.114369 0.062391 
0.526275 0.119188 0.64313 0.597379 0.26488 
0.602818 0.75222 0.189557 0.017463 0.338559 
0.923779 0.634095 0.632751 0.882143 0.746367 
0.174947 0.737825 0.894883 0.330884 0.0054051 
0.155656 0.0724185 0.786075 0.0527703 0.320359 
0.908732 0.753574 0.676142 0.244603 0.672929 
0.25636 0.283994 0.281457 0.274563 0.570032 
0.0420104 0.807048 0.9826 0.334697 0.62189 
0.717825 0.716161 0.552632 0.447673 0.723006 
0.373669 0.146243 0.61542 0.792 0.191429 
0.983738 0.135206 0.0959835 0.947814 0.424408 
0.84516 0.793687 0.219229 0.845473 0.489735 
0.116662 0.128544 0.23216 0.265947 0.193294 
0.382143 0.0293514 0.588125 0.913872 0.819289 
0.298711 0.681595 0.256701 0.800994 0.649924 
0.9618 0.811209 0.896261 0.957984 0.382673 
0.0760429 0.29921 0.243628 0.102069 0.631484 
0.892702 0.108992 0.886564 0.102726 0.241973 
0.0549996 0.418262 0.467407 0.999111 0.159181 
0.51174 0.00331112 0.559447 0.85687 0.135033 
0.628754 0.223811 0.183924 0.979204 0.42611 
0.408442 0.678187 0.800636 0.609507 0.672716 
0.272667 0.0128419 0.537665 0.925115 0.0445762 
0.315655 0.948896 0.856714 0.0991046 0.0538042 
0.984386 0.49555 0.232684 0.864963 0.896422 
0.57192 0.870267 0.041616 0.33979 0.101306 
0.597764 0.873906 0.646043 0.871462 0.22435 
0.258047 0.420026 0.626245 0.076358 0.0304951 
0.204013 0.856457 0.240387 0.639751 0.261735 
0.240759 0.976282 0.295224 0.503246 0.155251 
0.92804 0.148441 0.478808 0.785714 0.26333 
0.673097 0.553804 0.175615 0.870036 0.279348 
0.97391 0.939141 0.564461 0.256818 0.163747 
0.572657 0.678673 0.351384 0.289324 0.654334 
0.00592932 0.449108 0.544573 0.38 0.207567 
0.0934718 0.331288 0.442175 0.781604 0.554882 
0.145734 0.683132 0.0860783 0.567778 0.136262 
0.814911 0.728651 0.860195 0.0388286 0.723985 
0.222138 0.952061 0.463803 0.575445 0.483723 
0.828084 0.99737 0.471325 0.271578 0.691583 
0.241566 0.33959 0.204863 0.214693 0.81201 
0.911643 0.0379272 0.861443 0.578785 0.722845 
0.138972 0.935012 0.535307 0.689523 0.503484 
0.645417 0.0852781 0.486985 0.194907 0.635563 
0.887938 0.0937757 0.375953 0.410774 0.3263 
0.839244 0.954863 0.0336859 0.971587 0.278608 
0.963094 0.388278 0.996923 0.259418 0.745924 
0.561225 0.923149 0.133354 0.0778019 0.0907429 
0.43428 0.472361 0.253323 0.30743 0.142792 
0.364112 0.493594 0.861078 0.5327 0.463158 
0.650132 0.00892214 0.8307 0.916091 0.458729 
0.972903 0.221643 0.674256 0.949459 0.274381 
0.523238 0.103482 0.544069 0.640491 0.391826 
0.0968305 0.781389 0.278151 0.344451 0.208131 
0.981033 0.806042 0.141842 0.441091 0.0787543 
0.450084 0.984629 0.0349412 0.425728 0.44601 
0.880583 0.849917 0.513542 0.232938 0.0241937 
0.980247 0.159789 0.748351 0.896176 0.0752998 
0.953739 0.546358 0.922651 0.88284 0.867604 
0.0293659 0.732817 0.307897 0.835853 0.326525 
0.91124 0.39782 0.378315 0.0860937 0.61221 
0.276216 0.172413 0.365236 0.0574652 0.39076 
0.110169 0.311069 0.122871 0.762155 0.429566 
0.945603 0.449876 0.140275 0.704687 0.071335 
0.286503 0.690581 0.474975 0.416319 0.45466 
0.883055 0.0710806 0.796183 0.289731 0.67924 
0.0394966 0.702135 0.849168 0.685441 0.233863 
0.818986 0.852426 0.808414 0.72613 0.949171 
0.0200621 0.370551 0.53409 0.39792 0.0757566 
0.13961 0.250857 0.453143 0.649194 0.796893 
0.138244 0.868551 0.738649 0.335403 0.503969 
0.769126 0.225263 0.33842 0.291954 0.349457 
0.813585 0.614058 0.583678 0.149472 0.803143 
0.988693 0.0318604 0.69385 0.331413 0.804216 
0.916643 0.867175 0.480709 0.947244 0.0712651 
0.86557 0.084227 0.73941 0.593984 0.295316 
0.943507 0.503122 0.918143 0.859043 0.648117 
0.73888 0.937805 0.229482 0.363294 0.377629 
0.175839 0.199322 0.837167 0.029458 0.500315 
0.904165 0.0262816 0.440928 0.946109 0.248937 
0.196925 0.518813 0.0778779 0.378673 0.4242 
0.844698 0.224508 0.161191 0.155579 0.175581 
0.535795 0.722604 0.299267 0.618673 0.367373 
0.136464 0.135295 0.774081 0.192772 0.76625 
0.0791834 0.254664 0.75814 0.0615771 0.859571 
0.0302433 0.272658 0.812854 0.929402 0.693281 
0.618252 0.509105 0.320887 0.760345 0.854725 
0.384601 0.119591 0.577186 0.84257 0.474542 
0.950425 0.274951 0.807435 0.0907339 0.37675 
0.936376 0.218723 0.52703 0.222175 0.749208 
0.511031 0.550984 0.80541 0.5572 0.769143 
0.302949 0.318938 0.389331 0.443351 0.207991 
0.387011 0.983958 0.803362 0.353899 0.0170715 
0.664964 0.529043 0.12714 0.404757 0.246424 
0.611685 0.456821 0.200464 0.665041 0.167565 
0.395348 0.0859994 0.222013 0.835177 0.14463 
0.806143 0.977902 0.516778 0.458673 0.0795142 
0.104565 0.360381 0.537545 0.441894 0.77085 
0.448722 0.16599 0.631686 0.504452 0.306076 
0.259224 0.622277 0.320477 0.149884 0.969749 
0.233089 0.614001 0.915028 0.131382 0.0158591 
0.479293 0.819715 0.678703 0.0184382 0.647377 
0.486229 0.376464 0.758316 0.972181 0.227609 
0.596025 0.620278 0.775572 0.282323 0.948027 
0.375936 0.964129 0.684544 0.617424 0.190747 
0.959062 0.598832 0.861779 0.137045 0.781579 
0.94669 0.672609 0.698569 0.0936087 0.607813 
0.361741 0.353715 0.963265 0.653983 0.199958 
0.170413 0.0991677 0.0622153 0.852019 0.563034 
0.0363798 0.396065 0.819405 0.146362 0.780521 
0.0414928 0.30766 0.923295 0.356923 0.235327 
0.11178 0.794899 0.806944 0.062091 0.415247 
0.55282 0.0128986 0.053724 0.793048 0.0985001 
0.19982 0.143255 0.497078 0.595842 0.258902 
0.51684 0.908836 0.853008 0.258503 0.715962 
0.339039 0.358373 0.857167 0.679863 0.791613 
0.784954 0.412963 0.515714 0.775567 0.109169 
0.993022 0.873751 0.560841 0.682822 0.655308 
0.412503 0.771931 0.82648 0.686223 0.643549 
0.642387 0.347804 0.286376 0.603348 0.215634 
0.307751 0.646309 0.246751 0.252722 0.157073 
0.486372 0.0426589 0.276383 0.94743 0.802125 
0.491817 0.282176 0.19512 0.798566 0.115192 
0.281922 0.412264 0.107445 0.653178 0.584037 
0.141717 0.184692 0.938927 0.324578 0.346022 
0.387422 0.489546 0.312732 0.352601 0.00391003 
0.742579 0.640151 0.852835 0.089309 0.288926 
0.234352 0.273328 0.89469 0.808176 0.88214 
0.212452 0.962257 0.30839 0.866906 0.329733 
0.528666 0.0786975 0.229917 0.658066 0.709896 
0.702302 0.779019 0.0137255 0.426617 0.416102 
0.370348 0.315399 0.776149 0.457815 0.931541 
0.81928 0.364334 0.465792 0.581054 0.541672 
0.830501 0.288154 0.679283 0.888701 0.691781 
0.705382 0.296982 0.184138 0.861117 0.347175 
0.86332 0.140721 0.463995 0.761063 0.396925 
0.501566 0.907618 0.106278 0.346624 0.965184 
0.550204 0.242838 0.19922 0.508925 0.225651 
0.298283 0.193477 0.336568 0.638806 0.852171 
0.415205 0.45763 0.934664 0.211114 0.332315 
0.931504 0.250088 0.862584 0.951721 0.609347 
0.067662 0.62348 0.945068 0.428344 0.280842 
0.556379 0.471284 0.409541 0.46757 0.0834311 
0.708986 0.00309993 0.52702 0.469647 0.117189 
0.18057 0.121083 0.930153 0.416991 0.290606 
0.560938 0.658187 0.507389 0.839864 0.330981 
0.592963 0.201834 0.802841 0.00611753 0.680947 
0.174935 0.589499 0.33073 0.816299 0.143804 
0.525658 0.0024322 0.914803 0.441591 0.848785 
0.839465 0.540198 0.65012 0.850627 0.414956 
0.00183968 0.182811 0.300566 0.108142 0.318534 
0.0624906 0.973572 0.388283 0.528387 0.0458784 
0.318943 0.997846 0.804677 0.401962 0.713221 
0.879263 0.237156 0.966721 0.565589 0.13146 
0.339878 0.561348 0.690196 0.910247 0.872228 
0.440642 0.681804 0.48611 0.58547 0.146651 
0.177286 0.724906 0.442504 0.645826 0.699579 
0.484028 0.262183 0.721572 0.0167914 0.73813 
0.851574 0.0389994 0.595457 0.292448 0.380924 
0.671463 0.730594 0.510166 0.870297 0.467999 
0.765038 0.785108 0.175648 0.670101 0.800052 
0.855524 0.919972 0.658892 0.707571 0.492825 
0.240198 0.068035 0.519973 0.196939 0.230705 
0.270652 0.320876 0.302469 0.0736119 0.417777 
0.471948 0.0937525 0.772501 0.80262 0.644776 
0.193239 0.460159 0.605584 0.392137 0.14593 
0.455548 0.801538 0.785041 0.587913 0.000269689 
0.302139 0.852283 0.247745 0.715576 0.211734 
0.828214 0.709826 0.511261 0.963503 0.184647 
0.736121 0.360588 0.00937792 0.198643 0.529382 
0.63525 0.726734 0.842012 0.538263 0.0367496 
0.416478 0.490172 0.856137 0.598632 0.447746 
0.693025 0.208678 0.751093 0.0551399 0.214156 
0.936728 0.462711 0.760036 0.544941 0.21317 
0.172899 0.902961 0.0329689 0.0983252 0.849553 
0.0825532 0.252627 0.652696 0.78133 0.123184 
0.479235 0.0251395 0.28337 0.271826 0.183714 
0.496243 0.718661 0.325318 0.576097 0.383601 
0.284275 0.565197 0.221146 0.596614 0.544609 
0.138481 0.582117 0.108533 0.029484 0.0250863 
0.760841 0.303551 0.953811 0.139998 0.771151 
0.597723 0.0485898 0.462446 0.254872 0.337683 
0.280558 0.0244648 0.709984 0.966359 0.312486 
0.929692 0.383799 0.438108 0.278414 0.687841 
0.485279 0.805727 0.592213 0.76833 0.527074 
0.237307 0.114751 0.776492 0.119988 0.444232 
0.780451 0.875616 0.685868 0.223585 0.516907 
0.258696 0.192428 0.32493 0.551036 0.504697 
0.975488 0.321783 0.404903 0.0573872 0.174065 
0.662827 0.82817 0.552274 0.25732 0.458158 
0.359293 0.836355 0.0207751 0.0172862 0.851626 
0.431009 0.729435 0.23834 0.533181 0.461755 
0.229007 0.380281 0.0354564 0.709607 0.891274 
0.402673 0.598972 0.536188 0.511852 0.570546 
0.932802 0.132406 0.842936 0.0234901 0.173614 
0.789447 0.367675 0.366368 0.876713 0.764617 
0.34876 0.608213 0.434914 0.226954 0.30562 
0.919385 0.957496 0.21741 0.207861 0.0970109 
0.0867504 0.19277 0.74238 0.605082 0.475276 
0.943845 0.427865 0.0359415 0.724047 0.157756 
0.0278854 0.353655 0.225969 0.696497 0.782543 
0.619223 0.501606 0.47405 0.708828 0.881118 
0.536508 0.135129 0.0894976 0.00606623 0.95989 
0.932127 0.9421 0.0832897 0.906344 0.911134 
0.593152 0.00860827 0.916277 0.422636 0.190387 
0.117424 0.0581428 0.31597 0.250217 0.135567 
0.313172 0.403107 0.0182229 0.771441 0.446475 
0.973089 0.0357747 0.974006 0.372565 0.115192 
0.973124 0.666919 0.896106 0.147609 0.473289 
0.846413 0.454342 0.560448 0.590585 0.569842 
0.644185 0.408541 0.601884 0.661539 0.784274 
0.898072 0.316384 0.122731 0.213251 0.449344 
0.599559 0.124189 0.870128 0.9449 0.829359 
0.454085 0.416111 0.0780993 0.83309 0.0906543 
0.26582 0.513831 0.179769 0.949539 0.0176779 
0.897864 0.982821 0.343095 0.949968 0.326414 
0.89359 0.76817 0.0431397 0.0111119 0.281647 
0.269758 0.701507 0.324934 0.813313 0.181451 
0.11297 0.670797 0.746369 0.840753 0.132447 
0.901098 0.279382 0.600573 0.414553 0.0290134 
0.686315 0.413924 0.866333 0.0781614 0.274961 
0.52869 0.72597 0.271851 0.669271 0.594798 
0.23116 0.541759 0.818637 0.428189 0.755752 
0.409969 0.0469631 0.983008 0.816681 0.101344 
0.0202022 0.304074 0.0078499 0.662348 0.115277 
0.908309 0.0953264 0.919691 0.957924 0.0385154 
0.037402 0.633991 0.702324 0.904619 0.82859 
0.459336 0.468286 0.540035 0.117124 0.587458 
0.252503 0.933406 0.0510575 0.963831 0.792179 
0.609065 0.27138 0.148682 0.42665 0.391601 
0.735916 0.739301 0.540723 0.164944 0.16771 
0.81568 0.204949 0.0246281 0.644283 0.848996 
0.154088 0.0153578 0.0231121 0.385508 0.773052 
0.0225074 0.928776 0.147492 0.505883 0.19703 
0.570547 0.220175 0.605523 0.212625 0.753685 
0.690515 0.320882 0.761562 0.394881 0.907914 
0.658482 0.81013 0.179818 0.945345 0.550304 
0.871367 0.816776 0.570672 0.858307 0.379237 
0.584929 0.828191 0.978561 0.489676 0.735329 
0.381581 0.555512 0.494995 0.732313 0.167268 
0.197924 0.606502 0.538849 0.177224 0.672337 
0.244343 0.587861 0.00241291 0.314836 0.172193 
