1000 5
0.146421 0.293643 0.760963 0.965916 0.439756 
0.736121 0.0952659 0.0938686 0.902216 0.903797 
0.264549 0.453938 0.920026 0.345403 0.566675 
0.653431 0.976372 0.309067 0.800928 0.211838 
0.871887 0.37659 0.771462 0.606311 0.0540184 
0.527401 0.647986 0.126738 0.617941 0.740115 
0.163245 0.646693 0.36086 0.81809 0.445988 
0.223321 0.74308 0.26308 0.350361 0.514874 
0.518461 0.697058 0.650207 0.0659976 0.689408 
0.537149 0.0907365 0.41735 0.0790424 0.219213 
0.831193 0.991972 0.883394 0.936076 0.609683 
0.475136 0.0113215 0.017471 0.0904794 0.429373 
0.988529 0.59454 0.321993 0.849766 0.169709 
0.820018 0.849212 0.846615 0.88241 0.511993 
0.684531 0.709368 0.217281 0.178724 0.994407 
0.80567 0.630029 0.906689 0.732354 0.299068 
0.183377 0.328863 0.613448 0.292608 0.4449 
0.371869 0.243072 0.0556289 0.39316 0.0920052 
0.330507 0.950964 0.396621 0.401731 0.687686 
0.803168 0.390984 0.484156 0.334951 0.647074 
0.00232451 0.776763 0.39397 0.991498 0.219732 
0.49119 0.390785 0.11525 0.525848 0.881866 
0.458765 0.634074 0.564784 0.462091 0.165977 
0.293798 0.273218 0.533726 0.158448 0.172757 
0.857172 0.178746 0.123702 0.561104 0.680241 
0.186022 0.341896 0.757459 0.233699 0.216123 
0.768808 0.995736 0.639576 0.441088 0.089896 
0.66629 0.524925 0.567484 0.523467 0.0648819 
0.569817 0.192955 0.313191 0.0327049 0.0976744 
0.0384008 0.0883025 0.958482 0.310956 0.688702 
0.0522711 0.234468 0.958799 0.354503 0.332456 
0.55107 0.0647456 0.228979 0.0913425 0.827544 
0.165336 0.51906 0.856585 0.538964 0.726996 
0.463766 0.243514 0.619139 0.358972 0.665905 
0.838908 0.579576 0.137665 0.883354 0.178941 
0.208045 0.0898492 0.803291 0.800029 0.83388 
0.146272 0.295674 0.179339 0.897974 0.0244431 
0.689581 0.592057 0.167381 0.256298 0.117123 
0.69422 0.553811 0.60825 0.699309 0.923681 
0.0340394 0.158147 0.566081 0.733664 0.875874 
0.609453 0.169035 0.509302 0.933134 0.750969 
0.937536 0.811523 0.155491 0.604728 0.72556 
0.594531 0.806124 0.301588 0.196326 0.768104 
0.335309 0.229829 0.841202 0.116823 0.0497137 
0.051088 0.276191 0.200728 0.241416 0.0998627 
0.234852 0.436645 0.911007 0.276944 0.481166 
0.460045 0.171295 0.464167 0.13619 0.869552 
0.539421 0.457752 0.274936 0.185723 0.81295 
0.0624679 0.782039 0.775731 0.539319 0.30704 
0.322537 0.0805311 0.679166 0.225839 0.932018 
0.618286 0.891222 0.661587 0.943195 0.912927 
0.330276 0.891995 0.897653 0.90511 0.10666 
0.420059 0.116882 0.202947 0.275559 0.913025 
0.533791 0.976907 0.0952453 0.907284 0.174729 
0.317009 0.790449 0.582578 0.573088 0.364761 
0.872229 0.374346 0.154734 0.766067 0.393532 
0.148705 0.205052 0.0371009 0.335971 0.254528 
0.548891 0.903578 0.534618 0.160172 0.551237 
0.186846 0.927385 0.486319 0.184585 0.679087 
0.905465 0.72204 0.868781 0.864025 0.0499757 
0.286497 0.704701 0.726337 0.747375 0.678596 
0.921276 0.835829 0.191821 0.443511 0.924207 
0.995793 0.54259 0.679412 0.332683 0.0577265 
0.958191 0.0629889 0.788769 0.412021 0.122895 
0.362953 0.514532 0.767915 0.810077 0.430381 
0.874483 0.962587 0.481141 0.136423 0.319066 
0.220024 0.723067 0.0475808 0.644877 0.0930269 
0.547618 0.384657 0.760922 0.0915845 0.0200687 
0.334284 0.760718 0.801061 0.790383 0.676658 
0.831024 0.728798 0.585488 0.958574 0.142449 
0.951969 0.615295 0.000765958 0.0839863 0.703006 
0.898243 0.119915 0.369628 0.834029 0.793184 
0.538733 0.273638 0.276887 0.484542 0.754022 
0.271444 0.245232 0.183425 0.460025 0.94683 
0.741948 0.339707 0.685298 0.611682 0.181108 
0.154208 0.690876 0.644459 0.636147 0.911009 
0.587318 0.783123 0.16948 0.188955 0.748948 
0.0270037 0.279658 0.373058 0.313523 0.80996 
0.839303 0.113299 0.679614 0.67318 0.185986 
0.00875011 0.828249 0.715278 0.693929 0.0961475 
0.81775 0.869252 0.992038 0.860407 0.712195 
0.916571 0.0765569 0.751056 0.58717 0.718209 
0.517642 0.0815174 0.935966 0.905194 0.857676 
0.983191 0.217462 0.707205 0.317014 0.195466 
0.003728 0.727558 0.0697213 0.519073 0.21025 
0.155076 0.531455 0.346047 0.755893 0.139595 
0.890949 0.336948 0.582099 0.355923 0.301661 
0.456819 0.933423 0.615725 0.48203 0.809641 
0.171995 0.435624 0.0319282 0.644542 0.170664 
0.971017 0.239712 0.431572 0.00849788 0.849396 
0.163499 0.339333 0.436175 0.171189 0.0820655 
0.518904 0.432212 0.617214 0.96977 0.892731 
0.288564 0.340003 0.939153 0.903198 0.891034 
0.0733195 0.88321 0.329602 0.224198 0.339827 
0.470289 0.614117 0.0708063 0.560504 0.238008 
0.254253 0.549328 0.36956 0.648203 0.789855 
0.096258 0.957721 0.50446 0.112926 0.0591078 
0.321055 0.910288 0.051694 0.193008 0.976917 
0.808236 0.402471 0.645684 0.00827126 0.126358 
0.512704 0.530134 0.339326 0.675799 0.532841 
0.00141793 0.362601 0.769094 0.110712 0.962477 
0.674417 0.279107 0.13013 0.590056 0.406447 
0.00778281 0.717479 0.223257 0.692982 0.301928 
0.565998 0.891605 0.839716 0.869404 0.647213 
0.51483 0.0650293 0.136745 0.0535419 0.846052 
0.473892 0.13849 0.0447946 0.729245 0.284507 
0.0960701 0.272969 0.546522 0.404943 0.0678756 
0.359974 0.467721 0.0725057 0.0951493 0.616 
0.448512 0.0780795 0.908825 0.0557151 0.00404622 
0.134691 0.507439 0.657172 0.563545 0.922638 
0.463827 0.310868 0.372293 0.11588 0.930233 
0.910116 0.364889 0.234791 0.710581 0.117562 
0.58738 0.296226 0.73573 0.436008 0.582111 
0.39223 0.149446 0.753302 0.233282 0.482311 
0.599935 0.759439 0.254347 0.480592 0.652817 
0.665462 0.251722 0.484862 0.956749 0.857317 
0.373695 0.946423 0.509643 0.971735 0.078916 
0.741076 0.954942 0.412345 0.233195 0.878124 
0.38193 0.195519 0.211305 0.71732 0.81912 
0.407392 0.834928 0.549093 0.85442 0.429994 
0.047185 0.0424654 0.189015 0.208617 0.641947 
0.617722 0.0169924 0.736323 0.806226 0.0413372 
0.841872 0.037715 0.824723 0.508632 0.630819 
0.501295 0.693134 0.756292 0.606848 0.561499 
0.0354458 0.831092 0.0557164 0.701428 0.540188 
0.117628 0.155157 0.144536 0.927678 0.888312 
0.471916 0.946985 0.655834 0.55589 0.49529 
0.0927974 0.650754 0.622033 0.010866 0.141531 
0.702919 0.104411 0.970245 0.521186 0.196197 
0.59192 0.775447 0.0988559 0.349262 0.890842 
0.935083 0.331904 0.774909 0.0224877 0.95598 
0.961097 0.189347 0.0515759 0.310227 0.884131 
0.465882 0.862275 0.178409 0.659983 0.936378 
0.238044 0.659809 0.271019 0.245619 0.778137 
0.969763 0.250117 0.369311 0.774044 0.530179 
0.757215 0.783308 0.025018 0.711502 0.661288 
0.226948 0.142259 0.851833 0.129065 0.473302 
0.415625 0.296805 0.83765 0.554 0.453366 
0.269469 0.333505 0.618413 0.49108 0.270451 
0.151575 0.668921 0.954599 0.949364 0.824162 
0.402122 0.671236 0.378217 0.38549 0.171379 
0.247749 0.672191 0.0660919 0.0564832 0.198057 
0.0611083 0.555958 0.973793 0.739775 0.858549 
0.0446753 0.22826 0.792889 0.193078 0.878344 
0.720608 0.883249 0.144464 0.524368 0.0775894 
0.820029 0.0270908 0.560513 0.56325 0.304694 
0.0965933 0.418335 0.214021 0.777868 0.352379 
0.932576 0.085663 0.339998 0.859797 0.267562 
0.398681 0.0423887 0.194722 0.83206 0.212548 
0.92038 0.176588 0.63507 0.712821 0.0781959 
0.920725 0.0450989 0.168186 0.483414 0.7601 
0.280306 0.772226 0.136239 0.777291 0.696592 
0.388687 0.365165 0.732022 0.119262 0.89152 
0.58506 0.716963 0.995141 0.711813 0.143469 
0.0200657 0.525608 0.534482 0.4232 0.671961 
0.279656 0.972512 0.625454 0.553121 0.345799 
0.807078 0.588292 0.769601 0.994555 0.402387 
0.455694 0.0845136 0.812356 0.748627 0.394917 
0.0161403 0.287875 0.814875 0.08813 0.662218 
0.387967 0.859932 0.172415 0.450118 0.034235 
0.488458 0.317251 0.542338 0.929087 0.641205 
0.555396 0.759698 0.866355 0.915663 0.265577 
0.508008 0.202968 0.949311 0.159994 0.333767 
0.244937 0.382087 0.420643 0.138778 0.671828 
0.349366 0.00932693 0.251104 0.34027 0.763616 
0.823392 0.00779308 0.182875 0.0454229 0.785149 
0.675478 0.857518 0.687653 0.756217 0.549643 
0.00633707 0.92631 0.946292 0.796569 0.972199 
0.346907 0.713642 0.57164 0.989005 0.66814 
0.486903 0.803417 0.187642 0.949558 0.616603 
0.538347 0.141444 0.955876 0.8515 0.958439 
0.0244118 0.319718 0.346219 0.565029 0.536849 
0.140422 0.799303 0.17364 0.987444 0.107408 
0.718365 0.675383 0.766034 0.883472 0.77229 
0.467189 0.527008 0.00192646 0.760381 0.347119 
0.0200519 0.691837 0.510977 0.0698217 0.792673 
0.531126 0.166347 0.886337 0.507554 0.385806 
0.933386 0.0287028 0.338279 0.897103 0.308366 
0.702874 0.863852 0.259669 0.899894 0.959199 
0.991268 0.187786 0.0791008 0.203837 0.652722 
0.662645 0.0825008 0.876605 0.36502 0.642902 
0.434909 0.435188 0.196855 0.428513 0.492717 
0.599997 0.494927 0.680346 0.796457 0.808489 
0.934157 0.476184 0.869906 0.726075 0.649397 
0.778878 0.513436 0.318591 0.393763 0.169559 
0.586289 0.721141 0.878621 0.781794 0.13505 
0.191833 0.367238 0.379441 0.331887 0.515691 
0.567677 0.889558 0.446698 0.356499 0.0129981 
0.487839 0.208673 0.926983 0.665205 0.839474 
0.334588 0.36432 0.967061 0.418522 0.854774 
0.141292 0.676081 0.0500917 0.892486 0.886111 
0.103688 0.813201 0.309473 0.875018 0.986039 
0.241067 0.822962 0.455629 0.411114 0.807601 
0.162541 0.972346 0.538137 0.312582 0.331076 
0.263914 0.719783 0.801981 0.217136 0.0769902 
0.236978 0.93913 0.0489962 0.501053 0.440827 
0.299406 0.220324 0.429122 0.52388 0.66043 
0.549019 0.98088 0.451889 0.677201 0.803576 
0.160894 0.2115 0.221817 0.40262 0.627823 
0.124891 0.849302 0.877403 0.270981 0.814229 
0.524745 0.701703 0.228344 0.580305 0.059673 
0.272375 0.413408 0.582488 0.945213 0.105748 
0.951799 0.20516 0.279513 0.182458 0.366058 
0.828191 0.602845 0.931881 0.61704 0.873583 
0.0277353 0.464522 0.0677043 0.93316 0.293113 
0.0613126 0.282318 0.205232 0.339414 0.213941 
0.445555 0.0608873 0.751561 0.549927 0.371148 
0.0759036 0.816148 0.654007 0.0655961 0.266946 
0.53325 0.652757 0.0983569 0.808633 0.366157 
0.782681 0.266666 0.934792 0.842736 0.187288 
0.740465 0.250834 0.462213 0.0694457 0.797814 
0.0891955 0.622817 0.949191 0.193366 0.256733 
0.0533304 0.857646 0.700005 0.303683 0.232087 
0.451917 0.535034 0.635333 0.997434 0.407009 
0.0709175 0.868234 0.136206 0.0640798 0.300129 
0.145199 0.047025 0.106442 0.673972 0.685902 
0.838414 0.427071 0.397176 0.931324 0.996214 
0.861428 0.663 0.755046 0.282142 0.634565 
0.124557 0.777305 0.16236 0.481704 0.684218 
0.498322 0.703572 0.657549 0.790327 0.117857 
0.547341 0.68937 0.551259 0.96223 0.470726 
0.910365 0.0524881 0.691875 0.384317 0.437041 
0.597906 0.896431 0.272282 0.726186 0.341055 
0.594378 0.659594 0.572692 0.178945 0.950541 
0.323986 0.908361 0.105082 0.401723 0.319199 
0.199451 0.156743 0.117485 0.737558 0.521513 
0.707845 0.826619 0.407807 0.0770117 0.894379 
0.393433 0.580133 0.631583 0.479799 0.874935 
0.142945 0.0965463 0.571861 0.0509354 0.493418 
0.616076 0.408384 0.418356 0.804086 0.284908 
0.517807 0.874857 0.194223 0.386903 0.95619 
0.752892 0.716814 0.537279 0.983589 0.518419 
0.466251 0.0680671 0.458401 0.616045 0.245293 
0.673639 0.906742 0.258277 0.644473 0.71373 
0.445835 0.999862 0.596311 0.474976 0.406267 
0.293015 0.666469 0.146265 0.675994 0.222966 
0.915825 0.915997 0.287303 0.84601 0.782563 
0.550939 0.630612 0.190976 0.426469 0.301368 
0.627655 0.872649 0.464171 0.0643966 0.222665 
0.420892 0.24029 0.987956 0.102924 0.754651 
0.326849 0.711082 0.00375046 0.193111 0.595533 
0.676644 0.722589 0.905596 0.183864 0.636181 
0.287974 0.740788 0.492116 0.029667 0.60556 
0.70789 0.734054 0.0733871 0.839276 0.185232 
0.913165 0.812185 0.472356 0.386065 0.374683 
0.952833 0.00110638 0.425293 0.620508 0.534438 
0.950667 0.32061 0.188282 0.158668 0.333839 
0.0276151 0.15198 0.026701 0.461627 0.768472 
0.0605067 0.0394583 0.26047 0.239194 0.393965 
0.750661 0.522057 0.36443 0.120965 0.531997 
0.0526723 0.776917 0.704357 0.744116 0.185771 
0.771805 0.621849 0.651667 0.238589 0.00176674 
0.213772 0.470239 0.388518 0.489747 0.184844 
0.208924 0.735568 0.952315 0.288803 0.751941 
0.355179 0.887417 0.93617 0.791174 0.557353 
0.7355 0.733834 0.0898934 0.043705 0.0225762 
0.378158 0.649018 0.859183 0.583357 0.88457 
0.482017 0.497429 0.506424 0.770549 0.268699 
0.232235 0.947465 0.857012 0.00822539 0.809915 
0.575241 0.839531 0.484361 0.361059 0.772788 
0.638204 0.473173 0.986446 0.605433 0.915638 
0.952993 0.823021 0.963762 0.691741 0.594066 
0.409185 0.661703 0.136365 0.278425 0.977884 
0.286105 0.834199 0.341152 0.367946 0.13795 
0.226793 0.978284 0.319379 0.965535 0.919961 
0.83095 0.114623 0.23685 0.294303 0.707954 
0.95438 0.763573 0.796818 0.211193 0.816675 
0.40323 0.969726 0.201824 0.363964 0.7657 
0.177388 0.271275 0.39526 0.123538 0.223941 
0.726956 0.298502 0.936562 0.833254 0.517398 
0.764145 0.795902 0.324401 0.97515 0.0883237 
0.795103 0.32423 0.27036 0.0527218 0.0375981 
0.863456 0.0732326 0.513454 0.537689 0.520177 
0.224778 0.267646 0.213931 0.834818 0.0493213 
0.582045 0.558245 0.837148 0.365663 0.514161 
0.774674 0.546328 0.447764 0.0476888 0.398687 
0.87988 0.356745 0.538935 0.0533298 0.989946 
0.167957 0.248154 0.410595 0.0481786 0.726475 
0.643003 0.164335 0.134657 0.541587 0.232127 
0.0754498 0.305992 0.898432 0.0321752 0.89654 
0.547529 0.155203 0.836851 0.147703 0.696266 
0.608938 0.654693 0.519848 0.281353 0.761646 
0.262407 0.902124 0.562395 0.728442 0.914431 
0.52419 0.732925 0.308757 0.921247 0.354181 
0.422354 0.997387 0.125533 0.339567 0.0588309 
0.00892787 0.0249991 0.691738 0.989536 0.955869 
0.582611 0.056299 0.913336 0.45276 0.541881 
0.786687 0.241645 0.591891 0.678105 0.346311 
0.986316 0.595969 0.288534 0.40213 0.0644706 
0.0864143 0.669068 0.0692253 0.132292 0.301422 
0.920817 0.612313 0.525956 0.620646 0.51428 
0.583847 0.548136 0.71675 0.270497 0.0554626 
0.414257 0.241699 0.188572 0.601951 0.304454 
0.173308 0.303035 0.0179916 0.698202 0.122917 
0.373216 0.99936 0.793383 0.237579 0.244113 
0.788096 0.162448 0.0473845 0.233822 0.166513 
0.614148 0.703113 0.854075 0.519824 0.0469135 
0.210259 0.245859 0.23832 0.351385 0.199246 
0.318279 0.0692549 0.884149 0.55948 0.641634 
0.430365 0.55281 0.954858 0.206138 0.385807 
0.657326 0.109928 0.115751 0.947283 0.369297 
0.409719 0.092938 0.456527 0.329898 0.992138 
0.543647 0.502129 0.891008 0.476292 0.58605 
0.292949 0.912832 0.675364 0.113935 0.52071 
0.829014 0.163255 0.817343 0.645505 0.398982 
0.0976111 0.620607 0.885133 0.130569 0.456622 
0.644507 0.263875 0.0703136 0.862961 0.971629 
0.944442 0.581118 0.265882 0.760951 0.0942657 
0.321531 0.839277 0.223837 0.0308038 0.573531 
0.0182449 0.101946 0.502635 0.666893 0.673909 
0.275314 0.571605 0.242546 0.0790865 0.473788 
0.588136 0.392882 0.168141 0.79466 0.122703 
0.30166 0.698662 0.574105 0.377322 0.449166 
0.726446 0.403796 0.0937031 0.456387 0.911441 
0.32138 0.511045 0.714978 0.0630985 0.0079476 
0.719897 0.093494 0.31316 0.892446 0.517258 
0.21984 0.0700142 0.898136 0.725791 0.277301 
0.953943 0.243418 0.708307 0.626037 0.839945 
0.178848 0.575914 0.696162 0.822348 0.256692 
0.640576 0.647627 0.364022 0.0609029 0.874121 
0.0585116 0.972568 0.720987 0.160007 0.35023 
0.829991 0.0606628 0.251199 0.931142 0.222372 
0.0924731 0.791283 0.299175 0.788981 0.525368 
0.461755 0.570756 0.952153 0.0666494 0.432134 
0.219041 0.743355 0.360411 0.767145 0.624936 
0.0942504 0.764706 0.141594 0.793584 0.355714 
0.830234 0.0084088 0.538626 0.677173 0.97054 
0.047476 0.255121 0.666821 0.00522202 0.755521 
0.35319 0.785078 0.460758 0.936166 0.48874 
0.558008 0.0708807 0.288923 0.918435 0.0742797 
0.142537 0.0628691 0.384116 0.758066 0.991436 
0.0290063 0.922971 0.690607 0.24807 0.987132 
0.263919 0.592867 0.243867 0.0754265 0.211244 
0.415914 0.0926236 0.526572 0.597589 0.0640728 
0.443916 0.734331 0.164443 0.920407 0.217574 
0.761349 0.604722 0.550259 0.0592501 0.945934 
0.862652 0.544522 0.403773 0.435502 0.886041 
0.00347481 0.609771 0.101055 0.66451 0.258395 
0.686718 0.78289 0.59177 0.585651 0.448035 
0.121855 0.964395 0.274731 0.382742 0.660135 
0.142186 0.792123 0.481794 0.170714 0.851032 
0.338357 0.476523 0.209893 0.493357 0.102811 
0.802761 0.476228 0.645196 0.525438 0.128797 
0.139526 0.14485 0.715084 0.643685 0.347427 
0.413612 0.192384 0.825458 0.168587 0.529925 
0.768269 0.563911 0.296333 0.27398 0.42102 
0.375976 0.210633 0.849549 0.728984 0.876569 
0.444706 0.382607 0.74472 0.877018 0.564974 
0.0573076 0.556391 0.434087 0.17299 0.713076 
0.93232 0.135125 0.0366611 0.275568 0.104795 
0.0648782 0.222749 0.339389 0.45428 0.873738 
0.770848 0.822912 0.92511 0.427487 0.282707 
0.810982 0.063302 0.498842 0.855123 0.555351 
0.908148 0.900374 0.83814 0.190826 0.221606 
0.0155192 0.383221 0.849497 0.931977 0.589569 
0.408783 0.345095 0.760306 0.688284 0.426456 
0.242719 0.888195 0.542997 0.603436 0.00474856 
0.490705 0.338798 0.451568 0.306901 0.509419 
0.112842 0.359819 0.0754586 0.179972 0.266222 
0.408822 0.0648701 0.89631 0.674989 0.717712 
0.885176 0.0922507 0.630003 0.0632843 0.2068 
0.756835 0.745364 0.732972 0.318526 0.319096 
0.930639 0.0191636 0.29753 0.689245 0.973719 
0.8728 0.0112578 0.894757 0.216257 0.194911 
0.142054 0.311562 0.458742 0.381917 0.224819 
0.229881 0.160583 0.535978 0.290041 0.201498 
0.0657421 0.0783587 0.996897 0.740475 0.491266 
0.908444 0.741398 0.755451 0.269824 0.35911 
0.88433 0.510142 0.163388 0.7202 0.135405 
0.866924 0.0594449 0.520548 0.567038 0.50186 
0.208382 0.827235 0.442664 0.739752 0.359088 
0.703831 0.340628 0.233769 0.302234 0.0856692 
0.658075 0.656873 0.0854077 0.966348 0.744929 
0.0957596 0.259133 0.335186 0.739067 0.412279 
0.694279 0.746377 0.564983 0.531623 0.117948 
0.524341 0.5775 0.146186 0.95926 0.594821 
0.267232 0.904348 0.659091 0.286488 0.187774 
0.509358 0.122678 0.439545 0.591203 0.736583 
0.339746 0.322559 0.245893 0.895314 0.0583455 
0.908237 0.366571 0.905864 0.277328 0.59922 
0.595204 0.0237602 0.236654 0.870085 0.602666 
0.48544 0.143222 0.923362 0.325695 0.907713 
0.0763572 0.945647 0.143615 0.346228 0.184326 
0.100939 0.133945 0.90312 0.960784 0.541211 
0.79755 0.62061 0.718447 0.511598 0.981867 
0.386837 0.664901 0.622779 0.378947 0.334021 
0.0959302 0.259124 0.110004 0.474135 0.306116 
0.945498 0.42415 0.216061 0.141859 0.838006 
0.403061 0.93462 0.683566 0.173613 0.590604 
0.181622 0.321047 0.749385 0.634871 0.689442 
0.670832 0.578833 0.819745 0.367593 0.579126 
0.31397 0.933894 0.578974 0.870712 0.171456 
0.90687 0.141316 0.796446 0.165501 0.684684 
0.85499 0.516239 0.581563 0.23278 0.188347 
0.344993 0.284471 0.691828 0.0654148 0.157743 
0.0845013 0.136685 0.490468 0.953526 0.512442 
0.319868 0.838768 0.924329 0.460665 0.474416 
0.479094 0.427018 0.649548 0.120965 0.0403251 
0.13739 0.186058 0.0934362 0.941389 0.10895 
0.161265 0.847017 0.902205 0.873112 0.18256 
0.88995 0.85343 0.310436 0.16858 0.843308 
0.202966 0.242279 0.856861 0.563847 0.749453 
0.239969 0.857522 0.13846 0.385267 0.241154 
0.460779 0.447974 0.447362 0.0366161 0.0789362 
0.461225 0.416347 0.186973 0.709363 0.385402 
0.0222365 0.04925 0.353296 0.545468 0.782926 
0.541652 0.432841 0.161862 0.514755 0.736702 
0.375633 0.0354809 0.0937483 0.468302 0.265669 
0.429323 0.714089 0.524665 0.335787 0.211697 
0.813211 0.823462 0.238831 0.529577 0.557147 
0.639592 0.913056 0.707519 0.578736 0.710677 
0.270529 0.99504 0.0217415 0.0351083 0.866859 
0.368336 0.274911 0.359071 0.259951 0.273027 
0.51301 0.286981 0.821826 0.245756 0.305746 
0.0384265 0.438375 0.70925 0.0139541 0.507997 
0.93302 0.631601 0.323714 0.595691 0.945105 
0.00247166 0.209953 0.326195 0.322462 0.503322 
0.245849 0.822862 0.147165 0.960684 0.436197 
0.462054 0.878394 0.0839621 0.349293 0.271905 
0.723097 0.477385 0.00589599 0.0190659 0.0943771 
0.856357 0.87034 0.28837 0.589691 0.600335 
0.0605627 0.0837405 0.715478 0.955454 0.534386 
0.492759 0.405662 0.343102 0.630143 0.299197 
0.313195 0.0402833 0.603931 0.900918 0.365054 
0.961063 0.816061 0.35154 0.954489 0.885448 
0.734023 0.731315 0.927697 0.00100276 0.379013 
0.662117 0.787656 0.853779 0.753473 0.701634 
0.657911 0.355167 0.768651 0.12073 0.82364 
0.354436 0.719845 0.790955 0.937509 0.329631 
0.442204 0.258805 0.722497 0.626336 0.936423 
0.216415 0.434122 0.850148 0.430314 0.941863 
0.840473 0.197821 0.61759 0.847441 0.885144 
0.988357 0.517633 0.338545 0.410909 0.37379 
0.815628 0.945426 0.496082 0.39101 0.478924 
0.135496 0.17724 0.103125 0.445127 0.0879052 
0.272221 0.738001 0.659875 0.443998 0.705627 
0.768946 0.0144041 0.990116 0.638242 0.937318 
0.738909 0.450704 0.191927 0.643031 0.376588 
0.229471 0.0137234 0.0491182 0.599426 0.371033 
0.598796 0.531973 0.299691 0.615867 0.628781 
0.730712 0.744095 0.284035 0.960505 0.615763 
0.148181 0.842596 0.135829 0.627116 0.91161 
0.620772 0.924447 0.0422036 0.346791 0.844574 
0.896329 0.853479 0.146641 0.578185 0.809814 
0.701454 0.093994 0.982492 0.841986 0.976428 
0.455731 0.902728 0.684236 0.442966 0.739675 
0.76608 0.180865 0.284139 0.134242 0.846594 
0.431641 0.194844 0.434795 0.741629 0.254754 
0.34218 0.953762 0.564135 0.533918 0.136188 
0.0492023 0.666076 0.791093 0.894775 0.572481 
0.425199 0.41485 0.650718 0.997056 0.197908 
0.396915 0.469646 0.907637 0.198238 0.211246 
0.477627 0.997913 0.937663 0.149978 0.970309 
0.214184 0.658792 0.37494 0.814575 0.56023 
0.277617 0.491565 0.155477 0.191767 0.946171 
0.474419 0.292698 0.493017 0.819076 0.514321 
0.419541 0.498657 0.972308 0.73077 0.139519 
0.612491 0.959445 0.366007 0.552837 0.188729 
0.0344618 0.684357 0.836812 0.791022 0.523273 
0.894262 0.713566 0.735982 0.327918 0.851748 
0.708006 0.161429 0.559754 0.192857 0.896769 
0.603142 0.420285 0.968619 0.624061 0.153907 
0.158522 0.117078 0.355518 0.10762 0.0549594 
0.191103 0.852639 0.0867948 0.683258 0.294729 
0.673551 0.0841311 0.362383 0.2447 0.460684 
0.152156 0.654016 0.833614 0.797427 0.449955 
0.917841 0.73141 0.206347 0.354518 0.23017 
0.00401797 0.0101888 0.43591 0.69044 0.683903 
0.48568 0.165043 0.324913 0.645469 0.518824 
0.315471 0.429354 0.820491 0.132008 0.555105 
0.191307 0.454192 0.300727 0.136115 0.659275 
0.552033 0.129818 0.509409 0.0762551 0.89685 
0.569801 0.0880914 0.991345 0.736903 0.0275514 
0.929055 0.191619 0.201528 0.514192 0.844927 
0.221535 0.275056 0.85124 0.97558 0.973165 
0.0367689 0.554291 0.140761 0.727276 0.979028 
0.00789642 0.192072 0.640801 0.0889296 0.275447 
0.316891 0.383669 0.4414 0.73058 0.253819 
0.118043 0.605991 0.571192 0.887705 0.101583 
0.741914 0.183335 0.0432514 0.485014 0.997794 
0.620272 0.760624 0.61898 0.407193 0.236657 
0.578167 0.471557 0.497763 0.867424 0.60741 
0.74187 0.194869 0.775662 0.928007 0.717464 
0.309656 0.495162 0.552576 0.902782 0.492554 
0.169531 0.967246 0.375537 0.474476 0.793248 
0.810812 0.401698 0.0609801 0.671639 0.0877762 
0.0602914 0.506825 0.114555 0.0349428 0.251683 
0.295882 0.550307 0.422191 0.0242471 0.769395 
0.697354 0.66913 0.770248 0.313299 0.0544887 
0.442211 0.0457426 0.0884922 0.0360525 0.412914 
0.173625 0.089933 0.33626 0.314268 0.297114 
0.178921 0.665633 0.627467 0.295244 0.987049 
0.216678 0.186015 0.510087 0.756729 0.464162 
0.0986739 0.672821 0.65497 0.0773601 0.130921 
0.958373 0.518445 0.407047 0.768158 0.036161 
0.322587 0.00287755 0.741638 0.0717377 0.721853 
0.452578 0.45369 0.213844 0.535307 0.748632 
0.559652 0.325761 0.360662 0.295234 0.289518 
0.880523 0.804942 0.0275176 0.266776 0.206897 
0.185405 0.915045 0.464203 0.440085 0.840933 
0.0526854 0.576775 0.192983 0.0415607 0.885711 
0.262162 0.755978 0.996434 0.729646 0.813801 
0.7171 0.735094 0.678034 0.816857 0.942487 
0.183528 0.22207 0.928057 0.256823 0.735503 
0.788353 0.117232 0.646985 0.713597 0.291636 
0.612275 0.365385 0.520357 0.98891 0.494024 
0.833617 0.857583 0.723402 0.308961 0.361751 
0.0295056 0.490673 0.228599 0.878967 0.87795 
0.857206 0.669514 0.0895571 0.306881 0.555355 
0.783132 0.618031 0.304644 0.481028 0.127945 
0.628826 0.175803 0.295074 0.790931 0.766213 
0.840794 0.173676 0.911567 0.331369 0.702818 
0.771701 0.632514 0.93588 0.320819 0.309095 
0.547473 0.735965 0.536011 0.58648 0.136435 
0.234171 0.585488 0.821668 0.0989167 0.309355 
0.801223 0.415508 0.428397 0.00655286 0.782775 
0.139515 0.992888 0.0883182 0.420302 0.763949 
0.83353 0.0830997 0.297772 0.10832 0.519513 
0.835914 0.0583155 0.429281 0.487152 0.804817 
0.098741 0.630659 0.753217 0.390376 0.103871 
0.837289 0.686449 0.873585 0.172013 0.987747 
0.785608 0.187575 0.388541 0.0454341 0.317687 
0.258144 0.506922 0.85856 0.0492261 0.0320031 
0.447735 0.723577 0.141664 0.297725 0.314247 
0.9209 0.518524 0.434469 0.115695 0.214375 
0.431278 0.697311 0.481114 0.853873 0.0208311 
0.549228 0.812335 0.697625 0.0343362 0.929792 
0.604826 0.168993 0.564486 0.318143 0.704618 
0.150743 0.437373 0.713668 0.0625475 0.520453 
0.139345 0.80969 0.408166 0.399808 0.35532 
0.563543 0.203763 0.3961 0.693191 0.982029 
0.0838473 0.161342 0.84281 0.754045 0.527474 
0.242163 0.89393 0.711439 0.485634 0.440904 
0.558787 0.364384 0.479238 0.220427 0.169793 
0.420221 0.27119 0.820723 0.948706 0.960432 
0.38036 0.559486 0.494816 0.234646 0.829809 
0.659875 0.247217 0.636973 0.752734 0.619119 
0.0659502 0.787299 0.686146 0.83311 0.307638 
0.279755 0.656644 0.565888 0.3573 0.852758 
0.895881 0.614653 0.802924 0.561391 0.300301 
0.00255983 0.0141532 0.575347 0.47528 0.37729 
0.333776 0.0277465 0.104009 0.208332 0.161689 
0.852532 0.586453 0.0102929 0.648269 0.240372 
0.0278822 0.19255 0.509003 0.755834 0.71178 
0.829129 0.37871 0.975068 0.86928 0.943829 
0.436852 0.677049 0.52548 0.807888 0.0236407 
0.912475 0.155016 0.20497 0.464209 0.943181 
0.416742 0.96735 0.8973 0.580041 0.408641 
0.00227345 0.291712 0.228491 0.135628 0.299199 
0.746268 0.640867 0.718893 0.4377 0.105074 
0.613379 0.558326 0.92296 0.292458 0.522389 
0.909724 0.279489 0.675001 0.627608 0.972026 
0.13237 0.832174 0.354422 0.507416 0.608707 
0.6664 0.925993 0.358838 0.412952 0.0021587 
0.0792477 0.823756 0.669087 0.10357 0.388148 
0.701532 0.172028 0.937427 0.2592 0.271011 
0.663509 0.931102 0.456584 0.69035 0.316447 
0.193217 0.153735 0.185932 0.779847 0.686181 
0.222236 0.591034 0.269737 0.0355935 0.74433 
0.457072 0.306295 0.965953 0.664029 0.124303 
0.867386 0.474219 0.0156194 0.0600295 0.828105 
0.263503 0.142265 0.327195 0.0995757 0.960521 
0.544583 0.0608022 0.515624 0.838231 0.380608 
0.731379 0.316244 0.755638 0.125896 0.0800312 
0.797743 0.397397 0.907631 0.744912 0.329827 
0.22508 0.888002 0.0804576 0.317293 0.284843 
0.226852 0.968861 0.624684 0.707049 0.236749 
0.424052 0.852192 0.969334 0.667007 0.927826 
0.0746473 0.535043 0.952948 0.0818318 0.175287 
0.789253 0.272271 0.797616 0.727495 0.730217 
0.956399 0.640011 0.788533 0.24309 0.852984 
0.451786 0.812655 0.815176 0.154713 0.146033 
0.709546 0.0605269 0.296644 0.874177 0.790074 
0.550411 0.997813 0.245442 0.194352 0.615594 
0.15041 0.516805 0.870497 0.269215 0.771295 
0.941916 0.901682 0.86968 0.674449 0.689267 
0.242538 0.967026 0.037384 0.119385 0.360581 
0.990959 0.761009 0.406914 0.883411 0.212336 
0.080595 0.968118 0.195565 0.856161 0.332689 
0.664812 0.080837 0.581917 0.0111473 0.116761 
0.851939 0.335847 0.692356 0.745315 0.521555 
0.873089 0.855555 0.760822 0.285802 0.417833 
0.909409 0.864722 0.639646 0.380136 0.467887 
0.00881655 0.849787 0.793551 0.659867 0.750496 
0.622099 0.820737 0.777598 0.3493 0.723124 
0.0259004 0.96046 0.205332 0.694116 0.973747 
0.141307 0.885233 0.0575795 0.320913 0.871823 
0.721776 0.875775 0.949874 0.292716 0.133049 
0.0498086 0.336095 0.128473 0.992743 0.511245 
0.145946 0.016318 0.227645 0.654505 0.939896 
0.384082 0.25043 0.928355 0.272802 0.586704 
0.233919 0.941452 0.590664 0.655432 0.458894 
0.079808 0.720145 0.59708 0.733992 0.803676 
0.529774 0.0193547 0.537345 0.300518 0.00732031 
0.68429 0.181359 0.64933 0.0503194 0.888235 
0.400551 0.0456607 0.316121 0.196217 0.00981402 
0.297191 0.272369 0.988095 0.631491 0.780102 
0.962246 0.705865 0.284984 0.311223 0.112957 
0.0509787 0.171215 0.487756 0.648472 0.450768 
0.486741 0.242223 0.0901915 0.0618093 0.36288 
0.39764 0.997943 0.352857 0.986855 0.142508 
0.518152 0.404816 0.107803 0.944025 0.247584 
0.71733 0.0478846 0.772833 0.783833 0.663819 
0.636263 0.506072 0.492217 0.960761 0.331053 
0.0181012 0.282986 0.816198 0.415062 0.0623374 
0.629553 0.98882 0.724414 0.245144 0.433576 
0.361561 0.0071039 0.224796 0.201453 0.561052 
0.181549 0.776326 0.295881 0.953728 0.770551 
0.47965 0.408287 0.611931 0.823832 0.122841 
0.146586 0.723432 0.376123 0.827415 0.128786 
0.427115 0.534184 0.949902 0.414107 0.540645 
0.292067 0.477702 0.979863 0.853672 0.579944 
0.225131 0.650463 0.422938 0.0773253 0.294731 
0.682662 0.217537 0.985098 0.344255 0.189273 
0.332924 0.0119219 0.655503 0.348583 0.751067 
0.80029 0.328908 0.865326 0.543889 0.504782 
0.229628 0.698466 0.801318 0.229028 0.205532 
0.647796 0.0472374 0.838753 0.753917 0.587661 
0.597569 0.95262 0.540297 0.701063 0.31048 
0.698127 0.428083 0.183512 0.966339 0.713101 
0.44754 0.215659 0.817664 0.854853 0.868936 
0.35249 0.822069 0.554348 0.634812 0.43192 
0.928538 0.645316 0.885616 0.563494 0.843147 
0.202382 0.37414 0.181881 0.999851 0.630935 
0.87332 0.516891 0.268223 0.332433 0.50222 
0.471547 0.667211 0.715089 0.292062 0.345293 
0.752128 0.855619 0.784899 0.945371 0.530081 
0.37707 0.00301943 0.882889 0.11822 0.451245 
0.682422 0.907152 0.488319 0.655053 0.277182 
0.560988 0.752851 0.320632 0.565819 0.908402 
0.692759 0.949137 0.0663069 0.289905 0.888565 
0.913893 0.646894 0.0738804 0.793061 0.93886 
0.298094 0.795721 0.241553 0.52328 0.574038 
0.204448 0.242502 0.171104 0.14506 0.0609521 
0.748779 0.587289 0.110775 0.935778 0.678479 
0.207139 0.157339 0.770796 0.611547 0.0646298 
0.643569 0.646401 0.708714 0.959637 0.29225 
0.719249 0.207837 0.0325233 0.912575 0.142526 
0.285832 0.730763 0.186965 0.865138 0.0642112 
0.877331 0.48995 0.116334 0.0573419 0.175682 
0.0172871 0.641664 0.0191403 0.466262 0.671085 
0.195107 0.977729 0.665982 0.492228 0.508939 
0.358844 0.675461 0.589755 0.0427082 0.911396 
0.638827 0.535557 0.140444 0.814697 0.888662 
0.878429 0.296958 0.382928 0.590269 0.864702 
0.433379 0.114181 0.603617 0.412853 0.710252 
0.981861 0.0475281 0.0836405 0.611705 0.0634931 
0.219022 0.832975 0.14708 0.56647 0.873498 
0.0370631 0.624344 0.282519 0.0537459 0.582003 
0.833034 0.0490186 0.68793 0.843163 0.965998 
0.0138603 0.696815 0.944482 0.702008 0.701275 
0.896565 0.128523 0.472976 0.739327 0.718389 
0.275188 0.458268 0.1769 0.419818 0.787229 
0.818707 0.00850868 0.377691 0.963093 0.864328 
0.855188 0.300861 0.117041 0.0812872 0.140433 
0.414935 0.423267 0.486015 0.571541 0.717082 
0.940229 0.287221 0.393452 0.304077 0.74095 
0.835988 0.887364 0.853902 0.359241 0.328524 
0.241311 0.892863 0.997971 0.528912 0.152154 
0.363951 0.0339429 0.595687 0.670912 0.0679077 
0.485068 0.139914 0.977364 0.254466 0.0191251 
0.444253 0.904757 0.30775 0.028328 0.964179 
0.737728 0.0587282 0.679405 0.305517 0.580234 
0.564129 0.649707 0.774476 0.997542 0.293838 
0.926309 0.491511 0.684667 0.226964 0.445532 
0.774578 0.593711 0.483371 0.366812 0.431677 
0.343999 0.805345 0.0178876 0.431743 0.827395 
0.0564698 0.356128 0.0338687 0.243771 0.71403 
0.12442 0.721708 0.716262 0.779169 0.887301 
0.981689 0.551672 0.248703 0.171737 0.28678 
0.424846 0.768479 0.527934 0.844974 0.588468 
0.151537 0.403073 0.421907 0.0758782 0.0424502 
0.384098 0.673982 0.952987 0.759501 0.555162 
0.338579 0.787729 0.287439 0.357468 0.687488 
0.894769 0.000663072 0.507025 0.781228 0.289603 
0.472945 0.754351 0.881109 0.0414418 0.89886 
0.161187 0.838582 0.0809086 0.646066 0.307461 
0.495651 0.840752 0.575454 0.608928 0.769508 
0.33866 0.769064 0.283805 0.0398666 0.871199 
0.773226 0.54131 0.936906 0.616179 0.323497 
0.943397 0.936442 0.322772 0.670404 0.379539 
0.289879 0.21477 0.192543 0.274477 0.357111 
0.676815 0.87152 0.714548 0.707125 0.286073 
0.895728 0.653757 0.0946175 0.847843 0.173214 
0.117861 0.222501 0.894027 0.168965 0.200878 
0.383675 0.254397 0.385838 0.355436 0.0198822 
0.560601 0.458451 0.619436 0.971875 0.165792 
0.364895 0.384883 0.281456 0.825843 0.83005 
0.897381 0.54894 0.496948 0.670394 0.184957 
0.886121 0.430067 0.848482 0.0231031 0.466771 
0.759074 0.589367 0.347563 0.28103 0.352963 
0.421385 0.264866 0.649361 0.792863 0.643734 
0.362973 0.939326 0.66705 0.0561785 0.693974 
0.455812 0.718429 0.876814 0.957618 0.506869 
0.117332 0.777533 0.675882 0.0737851 0.730455 
0.806203 0.901682 0.860661 0.167504 0.847931 
0.0282698 0.157342 0.796946 0.347374 0.822478 
0.543048 0.389387 0.212195 0.449568 0.25299 
0.136005 0.785538 0.342065 0.288585 0.932357 
0.855945 0.939762 0.598281 0.664342 0.710449 
0.545864 0.793779 0.0470783 0.964686 0.0729924 
0.510552 0.0597132 0.581461 0.566101 0.356565 
0.537225 0.0971545 0.895378 0.738227 0.376897 
0.684256 0.164165 0.520786 0.700725 0.971678 
0.669266 0.54104 0.277712 0.169744 0.870444 
0.162975 0.863501 0.0124979 0.94187 0.992019 
0.69647 0.154944 0.607372 0.423689 0.487518 
0.0192893 0.255554 0.157765 0.960721 0.303356 
0.318417 0.890955 0.922639 0.114883 0.831546 
0.946989 0.0812624 0.673763 0.568594 0.675677 
0.886051 0.531324 0.893488 0.527554 0.157957 
0.431166 0.863028 0.149483 0.969983 0.17766 
0.832713 0.495663 0.281961 0.681802 0.237011 
0.334564 0.0322654 0.386361 0.763818 0.505744 
0.438224 0.399696 0.0807369 0.131147 0.652265 
0.62025 0.600694 0.790734 0.278013 0.891109 
0.661034 0.837308 0.94117 0.36062 0.964363 
0.18348 0.279257 0.701095 0.203037 0.123119 
0.752608 0.175241 0.511752 0.595569 0.672001 
0.609724 0.816433 0.944699 0.170041 0.447827 
0.948545 0.442504 0.735597 0.393436 0.244778 
0.467248 0.251961 0.753782 0.284769 0.851901 
0.0712906 0.0734114 0.0602586 0.35845 0.212546 
0.137394 0.0646796 0.73579 0.668674 0.562605 
0.316079 0.0711129 0.269328 0.0504686 0.824968 
0.832147 0.344046 0.294488 0.500096 0.0784812 
0.607406 0.700091 0.504793 0.155454 0.364033 
0.192929 0.901827 0.0835133 0.987037 0.370503 
0.734509 0.0150956 0.300735 0.524716 0.971631 
0.410852 0.118676 0.855169 0.803916 0.431894 
0.57722 0.926412 0.573323 0.409995 0.314993 
0.207334 0.810792 0.18037 0.494892 0.210494 
0.692649 0.856966 0.642876 0.0838239 0.945007 
0.923133 0.658212 0.11818 0.671354 0.729579 
0.241923 0.364107 0.866139 0.0169882 0.402407 
0.885094 0.0792 0.889958 0.431491 0.0450608 
0.623843 0.0477455 0.351847 0.758766 0.287542 
0.505714 0.961566 0.108605 0.160644 0.542967 
0.725424 0.536381 0.12904 0.518153 0.267456 
0.229158 0.484667 0.542583 0.711427 0.894902 
0.881494 0.694448 0.54513 0.645735 0.832516 
0.62469 0.796966 0.753921 0.545693 0.411856 
0.700038 0.351417 0.843109 0.973043 0.102003 
0.895843 0.530039 0.0973515 0.478267 0.55449 
0.447977 0.096929 0.197261 0.0331473 0.0275126 
0.316153 0.702947 0.0915236 0.362086 0.569275 
0.70242 0.0804351 0.648038 0.00948931 0.726437 
0.0957477 0.988326 0.40308 0.98947 0.898419 
0.922425 0.723106 0.00264205 0.653579 0.118686 
0.260812 0.875732 0.333178 0.479336 0.788025 
0.350594 0.513223 0.648525 0.551921 0.516503 
0.879333 0.548848 0.4523 0.624613 0.562742 
0.754792 0.724296 0.385977 0.718125 0.675753 
0.599964 0.535537 0.450216 0.211864 0.0950793 
0.186703 0.437613 0.0262108 0.621316 0.607052 
0.723625 0.339429 0.837073 0.0570153 0.535918 
0.267628 0.366722 0.0236641 0.671433 0.236601 
0.556692 0.806408 0.997455 0.492046 0.131404 
0.366999 0.61858 0.607246 0.471595 0.255595 
0.131844 0.0143027 0.256269 0.514764 0.837369 
0.598833 0.292193 0.798478 0.478958 0.290857 
0.188727 0.522023 0.380087 0.0395023 0.77951 
0.526401 0.745178 0.745779 0.303225 0.834616 
0.517654 0.489402 0.742584 0.148196 0.961264 
0.491609 0.882311 0.78238 0.618952 0.358165 
0.8338 0.146439 0.585511 0.61679 0.34592 
0.791895 0.573484 0.319171 0.0288396 0.865072 
0.824577 0.942467 0.67687 0.206468 0.854717 
0.849471 0.975379 0.816319 0.352767 0.558918 
0.39855 0.527991 0.992465 0.105294 0.189752 
0.0295621 0.67417 0.799928 0.495264 0.994808 
0.447838 0.445113 0.941062 0.544747 0.872745 
0.892486 0.0143965 0.488708 0.595401 0.624382 
0.51786 0.50402 0.324073 0.877851 0.334636 
0.015281 0.563106 0.372867 0.923049 0.324904 
0.913831 0.0844603 0.553442 0.0646664 0.746639 
0.997658 0.461908 0.177209 0.383343 0.844698 
0.0238212 0.834816 0.375743 0.318686 0.762951 
0.316142 0.328374 0.817875 0.35317 0.606151 
0.0413599 0.374266 0.330646 0.475256 0.246226 
0.630927 0.548702 0.27504 0.60411 0.905537 
0.580483 0.859909 0.608976 0.43297 0.615811 
0.25611 0.442968 0.726303 0.429907 0.903492 
0.281013 0.460098 0.822184 0.779898 0.551631 
0.801064 0.477828 0.173894 0.247248 0.203622 
0.485414 0.201559 0.903001 0.00192445 0.146536 
0.117432 0.408803 0.971077 0.778391 0.00601016 
0.536375 0.907825 0.522357 0.304677 0.408595 
0.883989 0.687874 0.302265 0.454158 0.270023 
0.294368 0.398428 0.627356 0.036429 0.671002 
0.36773 0.208557 0.822164 0.402598 0.744406 
0.558355 0.66538 0.169035 0.694685 0.939623 
0.470999 0.994342 0.684531 0.53288 0.694899 
0.946027 0.552485 0.566015 0.708855 0.0153501 
0.844022 0.115221 0.805452 0.380809 0.382061 
0.0856489 0.620916 0.880318 0.48648 0.114795 
0.993125 0.446195 0.0238838 0.769635 0.45697 
0.855344 0.201829 0.30091 0.78134 0.34053 
0.10325 0.844689 0.661271 0.360095 0.5718 
0.465781 0.62856 0.157301 0.131162 0.0937219 
0.26176 0.301481 0.00276223 0.759075 0.520236 
0.248445 0.156787 0.488742 0.900109 0.23321 
0.471333 0.0635848 0.104693 0.0594141 0.0659256 
0.261474 0.650901 0.542759 0.266673 0.064973 
0.291186 0.145527 0.174117 0.629799 0.642328 
0.185886 0.273095 0.189098 0.553767 0.363169 
0.447235 0.745571 0.342565 0.740729 0.664987 
0.296466 0.0942778 0.619575 0.134466 0.625614 
0.178243 0.715824 0.788166 0.0237257 0.675332 
0.415924 0.00308631 0.691281 0.47018 0.827901 
0.328016 0.740092 0.530194 0.101774 0.176837 
0.963374 0.161409 0.260034 0.284081 0.345651 
0.989133 0.275046 0.193666 0.924369 0.569793 
0.826746 0.179977 0.24416 0.467639 0.273592 
0.675878 0.1005 0.0837587 0.167423 0.619431 
0.47753 0.0422003 0.681301 0.153175 0.410865 
0.166501 0.972826 0.886225 0.754791 0.414794 
0.334825 0.166663 0.26954 0.711361 0.0391937 
0.48764 0.261194 0.279667 0.149545 0.698999 
0.230278 0.814483 0.845919 0.291771 0.617846 
0.222811 0.600623 0.725831 0.398221 0.112115 
0.669681 0.98304 0.7591 0.611988 0.160655 
0.418157 0.235512 0.137609 0.433048 0.580387 
0.172486 0.612509 0.482038 0.664249 0.884527 
0.948579 0.750705 0.0124924 0.699024 0.901944 
0.960409 0.243981 0.195826 0.15235 0.27543 
0.328094 0.545608 0.619678 0.275784 0.822248 
0.325658 0.187632 0.842783 0.47326 0.594632 
0.109553 0.321111 0.58947 0.715733 0.483108 
0.836539 0.247604 0.876996 0.0342792 0.180387 
0.945664 0.479021 0.602819 0.0664656 0.340759 
0.41085 0.481167 0.101299 0.539158 0.910595 
0.709401 0.677763 0.132108 0.087806 0.160113 
0.983561 0.714049 0.263834 0.76831 0.820101 
0.392011 0.295703 0.170413 0.735834 0.341292 
0.690403 0.314699 0.181009 0.14381 0.936655 
0.0951042 0.723729 0.629678 0.401578 0.857414 
0.427402 0.330881 0.867311 0.357662 0.863187 
0.0344935 0.759873 0.130878 0.330659 0.616834 
0.0672032 0.898822 0.317823 0.551698 0.0151602 
0.119219 0.771545 0.95389 0.407319 0.627775 
0.0623665 0.843851 0.691378 0.780884 0.885669 
0.690242 0.919423 0.483732 0.751195 0.935821 
0.572748 0.612108 0.265844 0.553573 0.897311 
0.756487 0.403132 0.518138 0.374131 0.792432 
0.735796 0.852037 0.210424 0.22148 0.631608 
0.399719 0.307978 0.543918 0.929238 0.40673 
0.0761893 0.53932 0.595072 0.752779 0.939356 
0.854554 0.131123 0.56691 0.184856 0.717441 
0.772185 0.193404 0.28664 0.33948 0.726044 
0.432837 0.874482 0.101973 0.791966 0.826562 
0.649768 0.612933 0.835243 0.0936926 0.778342 
0.14441 0.872739 0.444174 0.238093 0.10584 
0.0192205 0.411098 0.527841 0.16165 0.15136 
0.00368083 0.604631 0.0930976 0.384978 0.388794 
0.936475 0.768671 0.849356 0.589758 0.293098 
0.689199 0.886467 0.137844 0.787138 0.176503 
0.359886 0.497926 0.391404 0.398295 0.529344 
0.0954288 0.185481 0.255327 0.453981 0.534785 
0.588376 0.417406 0.427615 0.956315 0.44527 
0.874619 0.733052 0.199786 0.764127 0.175526 
0.682162 0.593077 0.995418 0.909909 0.976967 
0.866776 0.021542 0.768484 0.650632 0.783031 
0.810961 0.0267521 0.784142 0.0656523 0.194014 
0.897069 0.16384 0.209242 0.41262 0.520509 
0.62394 0.229942 0.683651 0.272723 0.385308 
0.302821 0.298686 0.794517 0.0176526 0.766984 
0.643828 0.220092 0.828413 0.0845871 0.979188 
0.587411 0.940182 0.207943 0.337013 0.0366217 
0.398451 0.391589 0.022337 0.429177 0.469626 
0.856054 0.288084 0.2896 0.746277 0.885949 
0.0662324 0.17617 0.464478 0.158415 0.780394 
0.138837 0.0458426 0.356741 0.814717 0.445633 
0.782229 0.358037 0.800531 0.285841 0.68842 
0.184771 0.737097 0.40954 0.390612 0.549278 
0.132396 0.180774 0.564716 0.649529 0.633322 
0.136707 0.936107 0.783348 0.949553 0.787465 
0.995078 0.237917 0.764275 0.363388 0.378772 
0.57103 0.630763 0.23005 0.0572084 0.0528891 
0.846136 0.547433 0.369659 0.382627 0.586887 
0.754075 0.772814 0.801915 0.374104 0.349548 
0.561694 0.214923 0.985957 0.0982118 0.401261 
0.445706 0.849739 0.142797 0.956525 0.555902 
0.826539 0.71719 0.017761 0.313855 0.968488 
0.811818 0.0673464 0.0856983 0.772864 0.15125 
0.103794 0.679385 0.0420033 0.549983 0.779729 
0.989714 0.690213 0.0388242 0.381711 0.0487011 
0.665112 0.71328 0.328523 0.900406 0.205991 
0.580988 0.490816 0.211427 0.394476 0.202885 
0.855288 0.238776 0.110721 0.496243 0.985506 
0.0449415 0.0457171 0.0747608 0.275128 0.537137 
0.980946 0.736844 0.526793 0.333178 0.00520305 
0.411986 0.0692404 0.488091 0.0230006 0.99319 
0.246601 0.893521 0.709316 0.503554 0.914425 
0.598771 0.487133 0.445723 0.124786 0.0522221 
0.777955 0.703601 0.86914 0.669083 0.0494553 
0.324122 0.136133 0.405252 0.164515 0.132779 
0.772467 0.631541 0.704356 0.176459 0.930227 
0.914003 0.441776 0.0904558 0.126601 0.0622869 
0.797375 0.11177 0.150269 0.571528 0.398235 
0.88731 0.314592 0.963739 0.0700978 0.287909 
0.0575907 0.648658 0.231869 0.273082 0.369402 
0.940626 0.270359 0.416634 0.267252 0.00333024 
0.459456 0.424095 0.795614 0.668234 0.453003 
0.305325 0.130108 0.177228 0.754179 0.669295 
0.744634 0.499043 0.293396 0.759067 0.371581 
0.133675 0.230896 0.0815339 0.602253 0.623087 
0.562584 0.500297 0.989697 0.692421 0.454331 
0.0874563 0.158132 0.0970408 0.737494 0.866721 
0.67253 0.73452 0.572044 0.947164 0.440183 
0.478992 0.974495 0.596712 0.755608 0.838911 
0.120941 0.171764 0.330495 0.6486 0.749919 
0.530892 0.915594 0.907075 0.72336 0.433893 
0.497333 0.54774 0.122332 0.092346 0.573348 
0.783924 0.84127 0.794593 0.458318 0.0491214 
0.707762 0.319229 0.0167567 0.691543 0.424301 
0.00560496 0.10756 0.267271 0.646356 0.0730455 
0.0841437 0.0961009 0.353241 0.13756 0.0900058 
0.466711 0.411996 0.344843 0.77662 0.51365 
0.770893 0.799246 0.827877 0.851874 0.225465 
0.455247 0.48107 0.740171 0.853936 0.923146 
0.614591 0.710108 0.0463865 0.980026 0.899596 
0.724253 0.474985 0.302623 0.00584125 0.870395 
0.321367 0.218832 0.374312 0.463616 0.952179 
0.348069 0.0191006 0.321845 0.262155 0.485971 
0.784701 0.0144764 0.502022 0.205755 0.765733 
0.651912 0.0948828 0.0010561 0.498198 0.192216 
0.257709 0.410194 0.378737 0.604083 0.550876 
0.628792 0.0322926 0.257149 0.411857 0.593568 
0.150909 0.411365 0.324098 0.535922 0.564248 
0.0919715 0.981576 0.950328 0.442113 0.38403 
0.992412 0.668839 0.710935 0.502363 0.901011 
0.550329 0.0266446 0.143234 0.179449 0.424173 
0.151905 0.237529 0.706139 0.131352 0.962508 
0.309922 0.460474 0.191109 0.91074 0.261705 
0.765564 0.666208 0.845111 0.13843 0.733988 
0.766781 0.071106 0.440923 0.3219 0.309811 
0.0921515 0.720022 0.849452 0.724146 0.0436349 
0.323038 0.65538 0.696772 0.754887 0.879366 
0.635269 0.880249 0.821091 0.294616 0.722759 
0.357102 0.94133 0.91118 0.791986 0.86343 
0.77051 0.62972 0.198273 0.623726 0.0383956 
0.67868 0.047744 0.388866 0.832852 0.691675 
0.223346 0.424249 0.832796 0.328614 0.926175 
0.895635 0.967523 0.95213 0.684133 0.188435 
0.716128 0.721091 0.0418223 0.405066 0.490967 
0.124587 0.108176 0.898366 0.0479755 0.324162 
0.286255 0.195271 0.323883 0.382557 0.468957 
0.628859 0.754017 0.0821111 0.718849 0.329868 
0.67528 0.911508 0.134361 0.0973482 0.772885 
0.0614232 0.527599 0.862429 0.755212 0.265366 
0.46803 0.00795002 0.600136 0.608329 0.988673 
0.96227 0.729753 0.01176 0.0435704 0.908081 
0.225384 0.193646 0.899716 0.821334 0.495261 
0.443568 0.960885 0.743024 0.438113 0.49061 
0.563314 0.55256 0.792384 0.156328 0.764242 
0.559047 0.228275 0.587801 0.270308 0.542237 
0.232646 0.0816274 0.194755 0.273659 0.309242 
0.494207 0.998971 0.464022 0.0677898 0.398929 
0.215224 0.383059 0.314239 0.467305 0.141595 
0.0965067 0.442749 0.206019 0.835794 0.392429 
0.433626 0.424481 0.427105 0.436448 0.0437992 
0.792127 0.669675 0.533092 0.550595 0.374156 
0.932381 0.461602 0.849257 0.128563 0.825758 
0.278623 0.11973 0.635021 0.228025 0.385496 
0.250946 0.177416 0.500288 0.828038 0.527899 
0.78438 0.532606 0.566797 0.599248 0.358012 
0.428188 0.96096 0.980249 0.63723 0.808491 
0.57355 0.635254 0.971412 0.350295 0.414174 
0.664929 0.590968 0.164961 0.701056 0.238052 
0.0536541 0.462623 0.910102 0.397182 0.803988 
0.0835623 0.0706872 0.491261 0.842233 0.107727 
0.528197 0.175492 0.621364 0.22623 0.527504 
0.822134 0.108826 0.49409 0.827992 0.960127 
0.92251 0.12783 0.736042 0.0642039 0.412606 
0.149528 0.666665 0.882435 0.643643 0.582053 
0.570037 0.945959 0.231535 0.745656 0.608584 
0.18598 0.545098 0.676966 0.329583 0.211205 
0.699792 0.664769 0.0600835 0.115351 0.0893652 
0.945903 0.373736 0.962339 0.458852 0.643751 
0.931373 0.486474 0.907815 0.589526 0.0528555 
0.737289 0.197696 0.6735 0.666057 0.741378 
0.500362 0.121864 0.231478 0.292255 0.0982202 
0.31126 0.573834 0.636503 0.718384 0.780834 
0.239908 0.304156 0.49576 0.381668 0.742025 
0.0127432 0.114414 0.673225 0.548169 0.135167 
0.631308 0.566111 0.73752 0.42552 0.524594 
0.3177 0.00488152 0.907208 0.929971 0.837953 
0.577925 0.315392 0.430623 0.415665 0.370091 
0.553739 0.279746 0.456661 0.451341 0.626473 
0.264379 0.747261 0.0560818 0.321891 0.0490895 
0.0281119 0.577871 0.192684 0.290193 0.39565 
0.827489 0.191286 0.132957 0.940243 0.835879 
0.792643 0.72725 0.21822 0.98877 0.210864 
0.274403 0.349588 0.521337 0.272567 0.612736 
0.17746 0.866032 0.276216 0.164126 0.0589681 
0.742474 0.833391 0.0847649 0.937093 0.740327 
0.92036 0.453234 0.53313 0.0822552 0.882334 
0.896468 0.292886 0.922504 0.245374 0.00203899 
0.201937 0.595547 0.311919 0.852012 0.797055 
