2700 5
0.324966 0.241672 0.161367 0.235126 0.0988277 
0.342052 0.390565 0.850068 0.0791208 0.040533 
0.686296 0.717484 0.798014 0.305008 0.686804 
0.37335 0.311348 0.735007 0.549356 0.167148 
0.449003 0.4875 0.739012 0.782235 0.777143 
0.620242 0.365543 0.427868 0.861909 0.566033 
0.284124 0.596095 0.781926 0.00159114 0.105181 
0.705812 0.452148 0.293741 0.425425 0.869238 
0.825006 0.587653 0.302408 0.414548 0.919338 
0.418865 0.884904 0.229381 0.0454404 0.638353 
0.393204 0.562177 0.989722 0.339995 0.370998 
0.0295566 0.0604426 0.958494 0.824548 0.137257 
0.697665 0.0437011 0.848887 0.417971 0.431015 
0.569787 0.239858 0.390674 0.00370526 0.315513 
0.956712 0.00526374 0.995666 0.660177 0.36549 
0.847068 0.112432 0.631975 0.982177 0.540013 
0.823194 0.965879 0.898434 0.547868 0.660159 
0.516553 0.634718 0.318958 0.574019 0.537444 
0.860782 0.817304 0.552816 0.828751 0.178061 
0.0359197 0.634122 0.995768 0.768402 0.508986 
0.414671 0.37107 0.735547 0.705899 0.883892 
0.87056 0.443704 0.508116 0.37749 0.85524 
0.402003 0.794937 0.253624 0.104918 0.502975 
0.489219 0.915016 0.900597 0.346262 0.524085 
0.83437 0.342257 0.761333 0.0840668 0.908961 
0.82924 0.957916 0.72082 0.933697 0.782308 
0.625266 0.816703 0.888129 0.199742 0.54976 
0.0178925 0.353962 0.563497 0.427478 0.925493 
0.943646 0.299576 0.690681 0.37062 0.149798 
0.405619 0.41758 0.575154 0.595089 0.798138 
0.680764 0.43128 0.481898 0.967648 0.908439 
0.0645731 0.179424 0.483243 0.235006 0.596051 
0.6359 0.764637 0.929815 0.320837 0.1962 
0.157991 0.407283 0.0910533 0.346498 0.4797 
0.522933 0.927116 0.75543 0.472424 0.329338 
0.222876 0.96119 0.402246 0.291842 0.834976 
0.204322 0.0189686 0.435788 0.0679629 0.456115 
0.991917 0.585376 0.564251 0.890686 0.883415 
0.49093 0.823827 0.366577 0.433745 0.436776 
0.904177 0.500676 0.733368 0.860243 0.351515 
0.0315169 0.0630788 0.26995 0.754629 0.519187 
0.926932 0.561106 0.210308 0.141877 0.981621 
0.783572 0.133768 0.916035 0.826161 0.73982 
0.137648 0.763757 0.0982007 0.474336 0.169572 
0.0313699 0.856177 0.915236 0.144246 0.767275 
0.326989 0.429301 0.258739 0.907514 0.378604 
0.956898 0.152811 0.530596 0.153922 0.907145 
0.666431 0.969684 0.4927 0.933727 0.946158 
0.0640749 0.813119 0.965982 0.484912 0.643536 
0.797328 0.282281 0.955071 0.654128 0.800722 
0.0741331 0.347208 0.336192 0.754195 0.25368 
0.875084 0.0655466 0.284185 0.680565 0.848119 
0.729953 0.163744 0.174817 0.0255022 0.827564 
0.150032 0.0328007 0.530149 0.276768 0.999502 
0.493735 0.419486 0.225222 0.867387 0.915567 
0.17071 0.197848 0.0517731 0.578826 0.948722 
0.254374 0.983962 0.752867 0.443343 0.248162 
0.508404 0.302648 0.256402 0.130218 0.639013 
0.671376 0.659042 0.0555057 0.427772 0.594546 
0.0240023 0.365152 0.0933738 0.674046 0.996578 
0.709571 0.570734 0.540714 0.464527 0.037036 
0.487378 0.101785 0.534357 0.496843 0.788673 
0.494802 0.09882 0.223618 0.93891 0.612121 
0.941519 0.836415 0.62492 0.339117 0.837553 
0.0213535 0.555999 0.830187 0.289365 0.148502 
0.0784412 0.00648236 0.173343 0.535776 0.622295 
0.292903 0.481117 0.633331 0.489023 0.512632 
0.581455 0.198623 0.711636 0.661921 0.423984 
0.735721 0.816106 0.539411 0.47976 0.301212 
0.423046 0.130111 0.0972982 0.655585 0.77698 
0.627452 0.324517 0.578211 0.58803 0.112142 
0.0258606 0.445323 0.869167 0.890662 0.197597 
0.488195 0.979897 0.506537 0.896247 0.346145 
0.221304 0.243074 0.629526 0.731674 0.586066 
0.687504 0.537306 0.240026 0.0586238 0.226255 
0.978131 0.479432 0.308567 0.975232 0.722493 
0.712413 0.626134 0.130604 0.179926 0.541738 
0.691423 0.334775 0.392052 0.171809 0.76009 
0.613857 0.214227 0.514344 0.220478 0.484648 
0.183484 0.193478 0.593116 0.667542 0.857462 
0.315402 0.505796 0.0926578 0.220037 0.351751 
0.336354 0.485258 0.134186 0.750494 0.59852 
0.985069 0.342987 0.393091 0.722945 0.255709 
0.482853 0.217802 0.755271 0.140048 0.779916 
0.561564 0.54312 0.8356 0.988364 0.600039 
0.144505 0.415597 0.73767 0.0546022 0.533166 
0.659045 0.013744 0.985376 0.249282 0.299241 
0.344936 0.889325 0.680715 0.0558594 0.552795 
0.809868 0.191279 0.46267 0.505881 0.969687 
0.140977 0.564774 0.710761 0.0217277 0.960327 
0.322809 0.483129 0.458806 0.961158 0.713326 
0.372481 0.884457 0.102018 0.242524 0.873744 
0.877467 0.346673 0.487188 0.570317 0.77279 
0.890723 0.993743 0.375903 0.901478 0.96646 
0.154926 0.430976 0.119234 0.888507 0.923978 
0.163215 0.147508 0.594605 0.555153 0.132023 
0.0588875 0.959206 0.19234 0.821776 0.523021 
0.352035 0.0904695 0.273047 0.998532 0.820488 
0.791863 0.138307 0.417038 0.519665 0.174494 
0.890609 0.481856 0.598011 0.696477 0.384283 
0.08152 0.419761 0.22187 0.926435 0.784261 
0.760657 0.743341 0.153763 0.44631 0.329017 
0.79551 0.0952456 0.853523 0.310467 0.735598 
0.0573567 0.302255 0.193252 0.310036 0.826035 
0.335895 0.310476 0.344688 0.594609 0.118169 
0.684803 0.0990935 0.36624 0.907075 0.947071 
0.877766 0.750159 0.212169 0.387651 0.840293 
0.0100868 0.228612 0.957965 0.72869 0.246685 
0.847835 0.905026 0.589943 0.370781 0.81358 
0.956765 0.283832 0.223898 0.128091 0.338525 
0.0783389 0.854799 0.456206 0.307291 0.504527 
0.249597 0.187343 0.245655 0.731992 0.123374 
0.956429 0.387508 0.535581 0.978413 0.203347 
0.238245 0.433969 0.482923 0.0589863 0.464591 
0.373639 0.847805 0.287101 0.833828 0.454547 
0.740972 0.624406 0.335078 0.199654 0.0329152 
0.371639 0.479757 0.294307 0.953434 0.517486 
0.903196 0.852659 0.0680551 0.597197 0.212718 
0.0352609 0.460569 0.214499 0.0195904 0.852259 
0.996511 0.731055 0.21725 0.162521 0.0503599 
0.64294 0.433821 0.350938 0.422282 0.647299 
0.733691 0.630432 0.637353 0.599976 0.215677 
0.786232 0.975906 0.674705 0.823905 0.0872187 
0.699543 0.576341 0.348494 0.44785 0.513903 
0.252155 0.371745 0.449084 0.103479 0.365209 
0.500504 0.336931 0.993838 0.664718 0.565076 
0.867538 0.688366 0.27435 0.0915893 0.409596 
0.4665 0.146621 0.584203 0.928501 0.604262 
0.734485 0.0766223 0.360033 0.197104 0.962586 
0.722117 0.899653 0.456797 0.316735 0.319831 
0.0623802 0.401093 0.245784 0.408918 0.339409 
0.515244 0.927731 0.201832 0.284338 0.0356203 
0.815066 0.507767 0.791077 0.128911 0.862339 
0.69711 0.407131 0.17777 0.491689 0.436449 
0.186759 0.447493 0.949317 0.516706 0.805272 
0.139927 0.452906 0.110237 0.799407 0.329842 
0.378379 0.648437 0.796102 0.592644 0.751198 
0.0806762 0.563144 0.281339 0.62512 0.0358332 
0.207988 0.697035 0.20414 0.17848 0.159344 
0.459725 0.381234 0.0380568 0.149543 0.459903 
0.308588 0.181589 0.42831 0.11858 0.659793 
0.754676 0.459033 0.823542 0.927093 0.388212 
0.633677 0.846552 0.356866 0.737719 0.998432 
0.948324 0.717517 0.513624 0.799571 0.604831 
0.151816 0.583281 0.0931087 0.0468909 0.419724 
0.223867 0.923933 0.949744 0.523008 0.0801668 
0.178764 0.0719435 0.0332143 0.31849 0.206882 
0.613183 0.718848 0.723815 0.893135 0.248305 
0.154097 0.181536 0.877279 0.830527 0.0169972 
0.121921 0.767401 0.272526 0.222054 0.524276 
0.0658581 0.913449 0.554876 0.73703 0.868333 
0.863392 0.114609 0.135675 0.499872 0.801019 
0.462198 0.204332 0.210992 0.471541 0.0687872 
0.176209 0.481127 0.461618 0.806823 0.889154 
0.607424 0.242166 0.827185 0.967429 0.528766 
0.944737 0.252871 0.447617 0.0719493 0.44431 
0.430626 0.281068 0.618233 0.26052 0.853032 
0.305171 0.0132094 0.690492 0.892241 0.314854 
0.66826 0.367966 0.637503 0.87241 0.56903 
0.79819 0.15839 0.943236 0.106324 0.0915694 
0.213015 0.933625 0.756962 0.334266 0.227333 
0.730227 0.674428 0.197507 0.0612761 0.914053 
0.227719 0.593297 0.632888 0.598504 0.0344892 
0.731551 0.273931 0.403903 0.830859 0.69059 
0.316885 0.633753 0.2761 0.669612 0.437122 
0.436017 0.490241 0.311532 0.862682 0.344555 
0.431363 0.909007 0.733497 0.0807698 0.982502 
0.488967 0.510248 0.76242 0.473861 0.107265 
0.820489 0.0284574 0.663529 0.895117 0.239105 
0.456969 0.450447 0.337009 0.039285 0.520675 
0.585018 0.560284 0.383784 0.160775 0.709478 
0.733966 0.913801 0.512463 0.650033 0.270531 
0.0156837 0.377299 0.380201 0.391696 0.276556 
0.163748 0.156949 0.815918 0.978155 0.249691 
0.812439 0.978125 0.0309462 0.669685 0.694149 
0.546422 0.444013 0.709221 0.265942 0.164098 
0.30623 0.923969 0.398654 0.708307 0.800899 
0.14184 0.68773 0.171175 0.408502 0.238004 
0.162481 0.619656 0.731245 0.226237 0.686382 
0.942633 0.283014 0.123326 0.401636 0.172085 
0.841375 0.758686 0.249466 0.773836 0.538784 
0.4299 0.53214 0.70174 0.743856 0.368815 
0.884139 0.825491 0.793545 0.512684 0.802095 
0.99898 0.556093 0.582018 0.0886434 0.976502 
0.661998 0.292798 0.597982 0.0477047 0.864191 
0.535608 0.356379 0.313147 0.578874 0.885101 
0.0196004 0.0280736 0.47413 0.113902 0.658336 
0.801867 0.128842 0.0366817 0.169501 0.562458 
0.709509 0.796757 0.0168124 0.941448 0.222231 
0.627978 0.456614 0.266734 0.882661 0.0702477 
0.323464 0.431895 0.764452 0.2674 0.662273 
0.729152 0.0329584 0.290653 0.690049 0.583052 
0.661683 0.0950396 0.455054 0.1397 0.632686 
0.735322 0.218721 0.415575 0.458745 0.435056 
0.485462 0.237144 0.34611 0.44003 0.78758 
0.671144 0.986393 0.698107 0.769648 0.522002 
0.22471 0.241081 0.92422 0.740768 0.55467 
0.662969 0.879484 0.102749 0.469784 0.467603 
0.912695 0.061897 0.567036 0.00948344 0.130462 
0.24445 0.791702 0.158946 0.884728 0.93836 
0.699862 0.350466 0.545885 0.457555 0.73333 
0.282868 0.349864 0.905767 0.428646 0.693735 
0.679059 0.0309728 0.655332 0.367082 0.168679 
0.941936 0.679072 0.0273058 0.708788 0.0866197 
0.739171 0.507579 0.529485 0.353036 0.986879 
0.412377 0.962133 0.174746 0.519963 0.36396 
0.426158 0.169703 0.667246 0.874935 0.90341 
0.196445 0.932251 0.806304 0.292601 0.480209 
0.885346 0.0952459 0.879873 0.286097 0.365574 
0.331916 0.202461 0.939801 0.70427 0.859968 
0.0393294 0.435083 0.289332 0.528874 0.248687 
0.587692 0.945144 0.412351 0.621504 0.542356 
0.888076 0.102682 0.958335 0.706819 0.15505 
0.375576 0.653555 0.955522 0.386664 0.276462 
0.268006 0.555435 0.960676 0.489764 0.171404 
0.714041 0.653269 0.963157 0.590282 0.533969 
0.310099 0.774286 0.234072 0.867992 0.203919 
0.779215 0.901542 0.104854 0.778343 0.252665 
0.422488 0.865958 0.960554 0.136822 0.252865 
0.235389 0.874444 0.886078 0.655474 0.671503 
0.460626 0.0382253 0.943413 0.97407 0.112515 
0.354265 0.5019 0.21287 0.220736 0.63287 
0.340721 0.609623 0.479257 0.988108 0.492737 
0.610528 0.323219 0.692317 0.00393806 0.744757 
0.185585 0.818607 0.466981 0.239518 0.248639 
0.937656 0.413025 0.598444 0.147404 0.2636 
0.271513 0.367486 0.390898 0.697459 0.339402 
0.0499775 0.376753 0.891745 0.0656924 0.302812 
0.860734 0.206551 0.824302 0.736656 0.850328 
0.874251 0.965349 0.828185 0.587874 0.646634 
0.452869 0.0761215 0.61588 0.018458 0.476815 
0.234341 0.660586 0.372522 0.0201807 0.474939 
0.30661 0.284108 0.155501 0.343924 0.759998 
0.695099 0.285934 0.597102 0.214332 0.363037 
0.489271 0.895662 0.871922 0.336043 0.875112 
0.444829 0.244372 0.449264 0.637526 0.0196085 
0.116029 0.337137 0.764576 0.420887 0.540927 
0.93595 0.992277 0.650065 0.429259 0.212434 
0.772882 0.837319 0.456354 0.457965 0.776271 
0.18374 0.52939 0.870378 0.251822 0.863557 
0.457187 0.682334 0.777928 0.325023 0.529335 
0.819348 0.0611193 0.60804 0.0621651 0.614228 
0.148893 0.116083 0.873735 0.716553 0.171846 
0.662524 0.0676946 0.994767 0.918549 0.292709 
0.645772 0.692178 0.484684 0.105342 0.8659 
0.886494 0.286891 0.611522 0.196727 0.69712 
0.403236 0.469091 0.371894 0.713428 0.700999 
0.00436106 0.343197 0.208225 0.515028 0.627953 
0.115081 0.437318 0.611297 0.72198 0.264503 
0.688146 0.217915 0.0694189 0.725161 0.34182 
0.0235526 0.430105 0.647087 0.799775 0.25662 
0.4732 0.551452 0.718839 0.360924 0.742718 
0.683569 0.901315 0.516749 0.589958 0.471328 
0.234519 0.421862 0.518502 0.775559 0.203222 
0.426801 0.581582 0.224783 0.626924 0.811947 
0.973644 0.361608 0.35977 0.339617 0.6818 
0.413107 0.689904 0.933822 0.478738 0.435113 
0.605774 0.83836 0.450441 0.999767 0.14167 
0.969094 0.25978 0.110878 0.359961 0.677138 
0.511769 0.565067 0.713305 0.638171 0.106154 
0.920639 0.185735 0.117943 0.0205238 0.326298 
0.770842 0.619444 0.173417 0.486438 0.354727 
0.670655 0.516733 0.973816 0.62595 0.593619 
0.230501 0.921572 0.928008 0.967465 0.386141 
0.542399 0.59649 0.2751 0.30642 0.80315 
0.18973 0.0823759 0.720328 0.467169 0.9297 
0.709088 0.230438 0.871594 0.110165 0.359036 
0.0208326 0.86691 0.29435 0.772794 0.400369 
0.244425 0.99236 0.810273 0.162922 0.786809 
0.42364 0.636219 0.729276 0.597045 0.480575 
0.761039 0.324664 0.00244838 0.909675 0.132848 
0.467612 0.332793 0.044979 0.889668 0.844701 
0.535645 0.379869 0.47694 0.865557 0.342576 
0.317458 0.960807 0.223425 0.856392 0.315439 
0.239579 0.0058646 0.546388 0.818868 0.274185 
0.366712 0.787191 0.554047 0.644354 0.14683 
0.558914 0.796609 0.846063 0.123207 0.498066 
0.336322 0.703885 0.784162 0.533869 0.0170347 
0.0545477 0.732228 0.172768 0.0364756 0.665612 
0.494647 0.645282 0.446767 0.635545 0.555077 
0.0551784 0.926179 0.790602 0.842515 0.538015 
0.18658 0.711956 0.458528 0.697914 0.392547 
0.121674 0.0135252 0.0844895 0.127576 0.400079 
0.545271 0.100907 0.762122 0.540067 0.258457 
0.173689 0.777803 0.395977 0.547544 0.717084 
0.67051 0.221979 0.440806 0.0679832 0.914148 
0.496427 0.625042 0.911688 0.69603 0.721894 
0.12717 0.600078 0.546985 0.810225 0.716136 
0.11485 0.364027 0.0939509 0.38082 0.129988 
0.287134 0.559416 0.260367 0.190458 0.106615 
0.537425 0.0417097 0.0376751 0.0834854 0.655004 
0.783455 0.00866337 0.0910131 0.0962583 0.881987 
0.0225325 0.745449 0.375278 0.787319 0.72167 
0.764202 0.761076 0.0920924 0.801882 0.987035 
0.680464 0.58103 0.887241 0.431045 0.308591 
0.839596 0.574217 0.147725 0.288671 0.999599 
0.535636 0.74986 0.0456339 0.968625 0.538845 
0.376536 0.803518 0.901119 0.149513 0.278171 
0.379575 0.467917 0.711918 0.467919 0.15589 
0.492095 0.716186 0.762402 0.0831448 0.641669 
0.735607 0.161936 0.739566 0.448301 0.535309 
0.259309 0.888319 0.153265 0.830668 0.0335857 
0.493016 0.425239 0.55149 0.766278 0.433734 
0.772222 0.5927 0.573104 0.560772 0.564728 
0.677385 0.554292 0.855136 0.783461 0.318746 
0.288338 0.396743 0.528578 0.0137171 0.585572 
0.107923 0.489486 0.126834 0.831839 0.129377 
0.761188 0.721749 0.85133 0.662137 0.0292503 
0.504281 0.559226 0.841422 0.416828 0.25101 
0.967905 0.0105128 0.226851 0.305158 0.30499 
0.550219 0.909965 0.137314 0.917069 0.131233 
0.541475 0.902118 0.220257 0.467501 0.823912 
0.349941 0.816104 0.85609 0.631497 0.0132551 
0.565871 0.702286 0.702012 0.223597 0.0773323 
0.339483 0.69994 0.829768 0.222827 0.396482 
0.169709 0.184237 0.0133999 0.594149 0.267122 
0.801849 0.516989 0.222795 0.581757 0.217598 
0.927838 0.492877 0.789928 0.28154 0.331344 
0.756188 0.664401 0.856143 0.335659 0.89048 
0.387366 0.538126 0.679132 0.212778 0.620602 
0.309287 0.833453 0.799451 0.519763 0.481197 
0.796657 0.198876 0.101337 0.530385 0.287603 
0.209402 0.678196 0.946972 0.214092 0.868974 
0.251397 0.0705883 0.595849 0.41125 0.885429 
0.0581793 0.23768 0.870489 0.848067 0.906139 
0.952946 0.723837 0.0573827 0.830275 0.458782 
0.970376 0.576166 0.97251 0.74125 0.961008 
0.512525 0.41075 0.337897 0.727824 0.0602823 
0.153465 0.184807 0.0263985 0.180894 0.52662 
0.558647 0.864077 0.739799 0.114111 0.657217 
0.823374 0.607122 0.0101858 0.250378 0.866008 
0.950094 0.366304 0.548447 0.0731568 0.392716 
0.126953 0.666198 0.948561 0.82987 0.620204 
0.401378 0.701551 0.988994 0.446824 0.735291 
0.376569 0.93703 0.0681606 0.488639 0.116242 
0.0985442 0.479176 0.23503 0.663799 0.974499 
0.671167 0.0626996 0.966936 0.340884 0.376556 
0.53032 0.59639 0.23062 0.855037 0.165354 
0.985807 0.86638 0.721062 0.300909 0.418067 
0.719985 0.516343 0.944217 0.855258 0.861428 
0.911802 0.651097 0.914979 0.432831 0.997148 
0.471048 0.986473 0.414674 0.770136 0.743993 
0.311608 0.0772534 0.584673 0.920153 0.496836 
0.543154 0.456749 0.170374 0.540719 0.231932 
0.553813 0.772706 0.91915 0.185309 0.0128817 
0.717582 0.0930516 0.674599 0.933879 0.399512 
0.40132 0.890867 0.0572508 0.163382 0.418034 
0.161791 0.582356 0.0202655 0.568064 0.0972637 
0.102056 0.968201 0.838895 0.590048 0.453465 
0.920809 0.733261 0.963019 0.117972 0.21585 
0.623017 0.248001 0.307891 0.276197 0.224292 
0.0469904 0.833777 0.491769 0.520368 0.987604 
0.379605 0.21216 0.285771 0.516088 0.0529025 
0.0668554 0.149009 0.226275 0.454368 0.365289 
0.411469 0.555613 0.45646 0.176693 0.110142 
0.306031 0.864598 0.0663206 0.72921 0.74681 
0.359098 0.225607 0.940911 0.391529 0.37471 
0.963729 0.988562 0.720081 0.517882 0.738995 
0.941446 0.831474 0.0086038 0.597269 0.0856764 
0.920331 0.190993 0.570739 0.066684 0.123246 
0.808075 0.0302807 0.412038 0.700532 0.293862 
0.742625 0.710829 0.456983 0.808462 0.886755 
0.465287 0.567514 0.404053 0.325525 0.403457 
0.820561 0.184959 0.400208 0.579002 0.699054 
0.700889 0.0790827 0.444941 0.936283 0.0687239 
0.118837 0.709059 0.414576 0.614453 0.740431 
0.216357 0.782742 0.493962 0.56585 0.780386 
0.134795 0.240676 0.242054 0.593576 0.3085 
0.8159 0.283832 0.307255 0.327726 0.931563 
0.807987 0.933036 0.330882 0.497719 0.0200892 
0.516691 0.405354 0.298758 0.684373 0.122733 
0.0925254 0.911557 0.124776 0.243403 0.213988 
0.127455 0.310441 0.0593808 0.763019 0.520284 
0.257525 0.762348 0.186836 0.858871 0.323495 
0.683798 0.287051 0.178932 0.845696 0.208542 
0.845946 0.754123 0.758017 0.443501 0.686047 
0.863188 0.877447 0.951334 0.831775 0.0428815 
0.118177 0.68695 0.367241 0.0849955 0.558475 
0.186618 0.343255 0.847325 0.911045 0.196113 
0.0717331 0.00683207 0.977858 0.626049 0.690313 
0.90956 0.111516 0.539739 0.0846178 0.883345 
0.463496 0.139921 0.44906 0.162034 0.386401 
0.732107 0.891571 0.592679 0.143623 0.837807 
0.684095 0.262324 0.751792 0.910389 0.52548 
0.971536 0.72146 0.47203 0.515931 0.508433 
0.581279 0.630354 0.0513259 0.849445 0.492113 
0.105304 0.645063 0.9975 0.400996 0.528771 
0.516082 0.697126 0.476613 0.0809326 0.60171 
0.346997 0.458744 0.755881 0.826302 0.158635 
0.869253 0.551601 0.69475 0.578279 0.76561 
0.619299 0.100284 0.871346 0.456747 0.730132 
0.276859 0.168347 0.112466 0.357703 0.556186 
0.231758 0.36037 0.14502 0.931144 0.600848 
0.57587 0.901388 0.25924 0.189686 0.427291 
0.849728 0.285189 0.871814 0.93435 0.141263 
0.983839 0.265586 0.510572 0.391949 0.409504 
0.338145 0.810364 0.801897 0.0867211 0.273598 
0.791786 0.49695 0.274488 0.930692 0.971469 
0.725938 0.692737 0.414194 0.973344 0.936181 
0.0721885 0.0241823 0.140186 0.0217039 0.224225 
0.191054 0.201542 0.0774723 0.495111 0.617301 
0.0189754 0.907268 0.675281 0.126859 0.46552 
0.104615 0.829868 0.079049 0.540983 0.131808 
0.0497537 0.546452 0.637495 0.0593792 0.78984 
0.660979 0.0848386 0.970214 0.305076 0.520621 
0.426481 0.13572 0.636295 0.00669914 0.309615 
0.188667 0.988956 0.124144 0.786331 0.52231 
0.278343 0.819213 0.796304 0.515806 0.363201 
0.700621 0.585079 0.739842 0.796558 0.672954 
0.90761 0.823712 0.955358 0.387286 0.0504881 
0.923881 0.233089 0.884813 0.404102 0.666958 
0.345123 0.750209 0.369861 0.639729 0.925557 
0.62877 0.804467 0.938853 0.0556536 0.880058 
0.0415764 0.732161 0.478836 0.177484 0.183307 
0.851856 0.0121987 0.653039 0.247557 0.505136 
0.270291 0.50753 0.423919 0.467493 0.34992 
0.975932 0.880768 0.137045 0.498402 0.941204 
0.0970603 0.376512 0.168463 0.526863 0.301737 
0.65229 0.0968884 0.148265 0.781156 0.132067 
0.628799 0.623325 0.184116 0.306936 0.468888 
0.930699 0.16161 0.833699 0.493089 0.648297 
0.0659934 0.284508 0.552081 0.0981612 0.826404 
0.205897 0.427827 0.909809 0.432654 0.408937 
0.304338 0.998048 0.62431 0.142288 0.372026 
0.496089 0.362801 0.895659 0.848491 0.976801 
0.223793 0.744395 0.777557 0.149396 0.442895 
0.909778 0.407623 0.615216 0.898611 0.385407 
0.776054 0.608875 0.00951255 0.369279 0.108569 
0.0478105 0.0134925 0.499206 0.999531 0.243864 
0.907735 0.423813 0.688584 0.0742477 0.901194 
0.0140664 0.76965 0.886726 0.603248 0.530284 
0.903766 0.685522 0.236036 0.774431 0.0662268 
0.0614625 0.195894 0.717228 0.61528 0.585318 
0.0508909 0.130429 0.688669 0.284585 0.27561 
0.711239 0.0205834 0.409259 0.795719 0.654853 
0.164101 0.592289 0.720174 0.816292 0.666642 
0.137538 0.146008 0.0812497 0.894216 0.81475 
0.755905 0.377936 0.658129 0.139443 0.492895 
0.455921 0.114868 0.240521 0.482362 0.695033 
0.557045 0.63691 0.274018 0.52514 0.0453993 
0.0244252 0.65858 0.579698 0.948088 0.525156 
0.833018 0.0185901 0.623004 0.515114 0.233785 
0.680345 0.44503 0.0472933 0.612611 0.891975 
0.901823 0.314575 0.799493 0.590391 0.857553 
0.176187 0.416383 0.450135 0.99584 0.434939 
0.706611 0.761667 0.13366 0.272792 0.342022 
0.0754325 0.485895 0.520499 0.9364 0.759098 
0.408107 0.80481 0.464298 0.546562 0.807234 
0.489514 0.91732 0.664695 0.347868 0.181913 
0.234294 0.881356 0.240936 0.53981 0.50769 
0.91825 0.639161 0.569428 0.317431 0.870457 
0.646659 0.679538 0.95632 0.863878 0.330197 
0.387986 0.484774 0.0370557 0.398068 0.372204 
0.804568 0.517862 0.543638 0.464995 0.150318 
0.378656 0.233594 0.625853 0.828517 0.39587 
0.343358 0.396816 0.311225 0.283561 0.0331486 
0.811192 0.583163 0.708814 0.728068 0.919375 
0.878833 0.724931 0.286725 0.444653 0.812516 
0.0381036 0.388957 0.158465 0.700268 0.278214 
0.229728 0.101538 0.0757114 0.671953 0.741337 
0.164178 0.462959 0.83936 0.495685 0.905586 
0.737449 0.574923 0.841618 0.504167 0.777136 
0.0217551 0.554861 0.07269 0.82168 0.689272 
0.209319 0.308872 0.99705 0.134943 0.269298 
0.385413 0.288455 0.711248 0.758074 0.221019 
0.920077 0.987161 0.290866 0.198214 0.940361 
0.172876 0.283288 0.469409 0.977369 0.526106 
0.936037 0.565692 0.0805985 0.600628 0.661591 
0.276589 0.259382 0.332675 0.962355 0.33227 
0.974813 0.572585 0.611803 0.0516516 0.683508 
0.494728 0.308902 0.222942 0.133659 0.86823 
0.72271 0.897228 0.0176945 0.765122 0.0275104 
0.315182 0.192974 0.901462 0.351487 0.996728 
0.797377 0.42052 0.558165 0.198772 0.574884 
0.410049 0.359062 0.449898 0.421167 0.299987 
0.54636 0.928449 0.0531664 0.834128 0.770694 
0.838995 0.847596 0.769745 0.897843 0.203825 
0.984761 0.741419 0.273976 0.795294 0.885796 
0.190103 0.803119 0.781166 0.965599 0.440009 
0.392447 0.0081423 0.845243 0.214008 0.908708 
0.403981 0.223647 0.216367 0.236586 0.815377 
0.693949 0.958016 0.200194 0.748612 0.772243 
0.252318 0.00528531 0.218611 0.594425 0.207659 
0.397231 0.758692 0.501728 0.846961 0.264637 
0.431437 0.807495 0.341478 0.179666 0.686999 
0.36293 0.820593 0.276979 0.254756 0.959376 
0.526394 0.510544 0.534702 0.514517 0.920702 
0.485828 0.604894 0.716884 0.242082 0.920425 
0.747696 0.615464 0.0979979 0.132107 0.480527 
0.0602366 0.690461 0.166751 0.899165 0.216949 
0.835953 0.850935 0.188385 0.343007 0.501222 
0.41354 0.434362 0.594561 0.494948 0.17324 
0.829025 0.311709 0.145657 0.486986 0.679344 
0.42543 0.903126 0.0991628 0.0675024 0.457726 
0.669438 0.0774863 0.690178 0.675619 0.720132 
0.361168 0.951815 0.677085 0.0133676 0.572086 
0.659032 0.0868724 0.260204 0.19327 0.512664 
0.789249 0.136469 0.433618 0.239719 0.935819 
0.220308 0.46089 0.238234 0.00205947 0.886131 
0.0339225 0.154145 0.492891 0.299034 0.205952 
0.986556 0.737196 0.150829 0.54554 0.111644 
0.918463 0.783159 0.399265 0.886868 0.6407 
0.203023 0.986689 0.48451 0.899178 0.749054 
0.930212 0.667988 0.212935 0.631252 0.103818 
0.0677547 0.423758 0.234816 0.781871 0.950798 
0.023334 0.996124 0.938974 0.323505 0.496315 
0.976508 0.738064 0.111722 0.483125 0.698867 
0.209839 0.805158 0.110548 0.129886 0.118742 
0.361563 0.824406 0.613296 0.3369 0.690201 
0.610579 0.924375 0.55712 0.47899 0.734267 
0.486074 0.419329 0.719996 0.747403 0.521258 
0.470637 0.0540001 0.32555 0.482921 0.469204 
0.195589 0.643077 0.408237 0.593259 0.777725 
0.996691 0.834082 0.209802 0.607181 0.906646 
0.256575 0.303127 0.526222 0.527115 0.896669 
0.952295 0.934711 0.597594 0.972944 0.659713 
0.940417 0.631173 0.845223 0.339024 0.025979 
0.0590583 0.0135366 0.210993 0.88936 0.333399 
0.279906 0.993974 0.56842 0.0101371 0.196248 
0.881406 0.286698 0.818161 0.32641 0.165834 
0.0201876 0.357759 0.335396 0.98397 0.126054 
0.534633 0.131547 0.529994 0.696035 0.769926 
0.354234 0.969828 0.104712 0.865113 0.859038 
0.167011 0.397768 0.0891832 0.919339 0.406967 
0.0225963 0.818601 0.38744 0.521172 0.213979 
0.933416 0.924216 0.332146 0.283932 0.865331 
0.0159392 0.024072 0.890037 0.153957 0.0853912 
0.921466 0.518412 0.69679 0.327405 0.142447 
0.657059 0.555498 0.46317 0.3966 0.942679 
0.0715751 0.290598 0.670407 0.42692 0.246766 
0.583311 0.684459 0.47077 0.0107508 0.281743 
0.0454272 0.814924 0.818857 0.190805 0.424884 
0.44073 0.862662 0.733702 0.157316 0.445881 
0.883243 0.716732 0.908023 0.425277 0.874 
0.524098 0.271061 0.227075 0.383163 0.822543 
0.14353 0.870133 0.504298 0.00997381 0.22134 
0.965957 0.778997 0.0328619 0.910375 0.644257 
0.314783 0.48471 0.891226 0.405079 0.367426 
0.372452 0.0879396 0.045712 0.596853 0.169166 
0.578531 0.9713 0.339727 0.687887 0.49213 
0.956324 0.281949 0.491618 0.357528 0.770507 
0.624194 0.295811 0.081471 0.517922 0.487669 
0.468303 0.270918 0.0591424 0.505705 0.815796 
0.336355 0.770098 0.645099 0.678127 0.849909 
0.138969 0.543137 0.471099 0.87756 0.015736 
0.00140679 0.383962 0.0748057 0.89603 0.883586 
0.240942 0.912947 0.224194 0.474267 0.973034 
0.813351 0.306867 0.873396 0.875716 0.250634 
0.280531 0.947993 0.137689 0.187542 0.474111 
0.382897 0.817505 0.666852 0.197512 0.261593 
0.14625 0.459774 0.148156 0.801677 0.374655 
0.274731 0.00985456 0.156061 0.366202 0.660094 
0.47776 0.457707 0.672958 0.932488 0.871731 
0.251881 0.945546 0.630587 0.982025 0.459574 
0.156656 0.621666 0.91745 0.0701755 0.220581 
0.533714 0.467491 0.000794929 0.697069 0.524886 
0.395779 0.426884 0.089034 0.480884 0.768659 
0.803639 0.324312 0.94853 0.637751 0.114533 
0.963985 0.675412 0.157917 0.546472 0.405524 
0.308809 0.775951 0.357103 0.675985 0.345371 
0.243451 0.483868 0.588312 0.925744 0.16474 
0.629587 0.306988 0.604113 0.636127 0.651013 
0.843131 0.719238 0.580061 0.788819 0.305052 
0.554882 0.0463335 0.17894 0.785095 0.358924 
0.712782 0.854208 0.897127 0.242847 0.0340147 
0.256519 0.97217 0.821377 0.407047 0.942218 
0.371292 0.330652 0.379177 0.312833 0.676374 
0.126685 0.114885 0.810534 0.0196621 0.274754 
0.0627342 0.453071 0.185074 0.0285082 0.646211 
0.836309 0.422264 0.145768 0.00233271 0.546754 
0.794108 0.00390947 0.936946 0.249919 0.445709 
0.852553 0.00499114 0.434606 0.245761 0.109063 
0.223765 0.466135 0.369861 0.416485 0.427344 
0.0650649 0.889933 0.228727 0.131761 0.928163 
0.233963 0.178372 0.585253 0.812459 0.776154 
0.813783 0.442852 0.100267 0.168076 0.933993 
0.869353 0.681156 0.71175 0.657071 0.936638 
0.228144 0.110727 0.510252 0.393255 0.428534 
0.252373 0.668025 0.376187 0.138861 0.478266 
0.0276696 0.384791 0.412838 0.973621 0.948304 
0.268932 0.384714 0.780132 0.54015 0.388611 
0.540183 0.285464 0.371331 0.563954 0.332056 
0.24582 0.443193 0.293615 0.452667 0.103543 
0.535055 0.245011 0.228784 0.458797 0.186361 
0.217266 0.459697 0.368064 0.209484 0.664498 
0.440778 0.126752 0.620071 0.559943 0.126559 
0.265902 0.801402 0.223698 0.0635147 0.771765 
0.286833 0.174725 0.0160559 0.908197 0.448 
0.567937 0.986689 0.209938 0.205404 0.762424 
0.613349 0.16162 0.785131 0.310011 0.580944 
0.851398 0.0823764 0.213977 0.0105468 0.245397 
0.0130176 0.407032 0.54516 0.0746687 0.95552 
0.165593 0.132481 0.843491 0.471827 0.593431 
0.16237 0.263538 0.426486 0.943313 0.837228 
0.634924 0.99547 0.691238 0.782419 0.817953 
0.870581 0.0807846 0.992757 0.105435 0.0592026 
0.51676 0.667105 0.804315 0.267132 0.674611 
0.475687 0.21114 0.534928 0.169708 0.7629 
0.877997 0.586922 0.897867 0.164755 0.0349805 
0.61911 0.276196 0.829632 0.692173 0.0435662 
0.0746575 0.468399 0.497126 0.885851 0.261021 
0.780546 0.455686 0.648004 0.987719 0.309609 
0.897508 0.624458 0.383084 0.886058 0.78534 
0.498506 0.076574 0.557269 0.141352 0.101196 
0.873164 0.0904232 0.252549 0.908351 0.872468 
0.471464 0.374291 0.799759 0.404616 0.813635 
0.419114 0.58415 0.640195 0.850415 0.884563 
0.481895 0.376025 0.229343 0.790289 0.440427 
0.933015 0.00359538 0.260659 0.886224 0.0333349 
0.324422 0.381463 0.663981 0.986018 0.454292 
0.800461 0.919269 0.0324211 0.487386 0.439552 
0.587956 0.963648 0.601848 0.527283 0.406064 
0.891705 0.630532 0.726095 0.606896 0.229399 
0.397157 0.901383 0.0597902 0.8493 0.317913 
0.592772 0.483426 0.136339 0.756845 0.763093 
0.9285 0.766708 0.0643098 0.92433 0.434755 
0.0294209 0.569534 0.293824 0.510282 0.707419 
0.702681 0.446842 0.421679 0.141288 0.513845 
0.919896 0.0509203 0.83033 0.428217 0.326443 
0.0752757 0.11241 0.742607 0.515944 0.664836 
0.196051 0.515965 0.916058 0.0576104 0.0547194 
0.728093 0.831397 0.46894 0.155668 0.0467313 
0.509135 0.852983 0.541005 0.918555 0.540467 
0.0633733 0.449884 0.0224813 0.416647 0.217175 
0.375444 0.729707 0.924674 0.553824 0.0239938 
0.803266 0.439643 0.0789846 0.671858 0.804363 
0.537884 0.370105 0.538357 0.462832 0.42039 
0.816097 0.632166 0.504939 0.466866 0.60882 
0.166035 0.142212 0.105884 0.53316 0.958769 
0.169282 0.396159 0.202695 0.646061 0.52537 
0.70791 0.0935002 0.955796 0.171857 0.0426515 
0.863278 0.514978 0.646598 0.292764 0.961354 
0.597087 0.936344 0.638916 0.780414 0.0285753 
0.917729 0.317653 0.47077 0.13937 0.294763 
0.648905 0.550314 0.283584 0.580331 0.103666 
0.633243 0.440531 0.546337 0.282013 0.357278 
0.311569 0.586769 0.429957 0.456367 0.885765 
0.978895 0.775387 0.55576 0.713187 0.0715284 
0.0979173 0.373527 0.453494 0.0971986 0.101655 
0.941694 0.573723 0.836364 0.689755 0.607756 
0.899878 0.758204 0.554906 0.351262 0.801234 
0.198961 0.241714 0.641711 0.588248 0.634247 
0.805263 0.424868 0.0519804 0.757851 0.801824 
0.891829 0.4702 0.0638968 0.603735 0.959447 
0.939362 0.124268 0.985045 0.964336 0.732358 
0.988436 0.419398 0.712009 0.862631 0.950794 
0.0364258 0.85929 0.754759 0.410418 0.796093 
0.867003 0.562229 0.425218 0.896252 0.0660517 
0.413101 0.123372 0.999527 0.385707 0.00291638 
0.77036 0.783243 0.738575 0.842115 0.0682154 
0.155055 0.896075 0.0850726 0.858254 0.932509 
0.665818 0.633665 0.619288 0.488982 0.845042 
0.733424 0.212306 0.0592868 0.960358 0.750197 
0.0759976 0.179073 0.566328 0.445527 0.0479347 
0.560519 0.757559 0.405652 0.211036 0.797554 
0.0623093 0.0608529 0.799997 0.437735 0.981171 
0.000281703 0.413137 0.369258 0.974019 0.34406 
0.0502012 0.590069 0.675909 0.191256 0.259469 
0.715809 0.979093 0.736319 0.964948 0.113521 
0.741116 0.00713176 0.36535 0.0375724 0.932953 
0.671715 0.030209 0.800465 0.8682 0.471214 
0.339148 0.00938588 0.513997 0.790337 0.204096 
0.197071 0.452794 0.94595 0.430528 0.426532 
0.712615 0.936426 0.286647 0.678277 0.728879 
0.814669 0.921702 0.0697367 0.360284 0.445827 
0.373423 0.471544 0.234418 0.285805 0.572712 
0.25554 0.976194 0.70949 0.642311 0.387489 
0.386154 0.248001 0.198685 0.870966 0.581135 
0.325369 0.539752 0.63225 0.11147 0.96306 
0.663362 0.480848 0.940357 0.156753 0.698038 
0.678393 0.0396375 0.334488 0.785676 0.848015 
0.226249 0.798124 0.315293 0.0604605 0.787596 
0.866844 0.872749 0.922735 0.502366 0.986486 
0.0905897 0.664171 0.55078 0.411324 0.762338 
0.208335 0.795856 0.287506 0.221871 0.560193 
0.811618 0.927408 0.136484 0.21634 0.384403 
0.0170517 0.156875 0.681776 0.731228 0.0154081 
0.257197 0.754134 0.476072 0.448395 0.227329 
0.039246 0.278438 0.14013 0.541408 0.111381 
0.276242 0.216321 0.849904 0.867899 0.141392 
0.606496 0.137333 0.69042 0.595362 0.440878 
0.816463 0.474793 0.909338 0.0696931 0.0492082 
0.291974 0.966776 0.146602 0.972464 0.798652 
0.259911 0.716952 0.523391 0.194861 0.116712 
0.783888 0.60767 0.516042 0.395083 0.564508 
0.120759 0.991773 0.366098 0.660638 0.987419 
0.275147 0.349343 0.103711 0.350753 0.226576 
0.892071 0.584378 0.45642 0.298535 0.460834 
0.152153 0.337202 0.675262 0.0948326 0.740291 
0.240169 0.686838 0.0663019 0.689998 0.605926 
0.00191327 0.15016 0.0393941 0.99494 0.489684 
0.607576 0.667783 0.240304 0.870658 0.624033 
0.307587 0.209907 0.0344862 0.626831 0.0556872 
0.305155 0.399114 0.602452 0.40201 0.358695 
0.175551 0.970885 0.153712 0.832864 0.516266 
0.131867 0.513783 0.623935 0.0506426 0.377125 
0.190254 0.895381 0.750495 0.471056 0.996454 
0.652193 0.75758 0.203759 0.256271 0.673815 
0.625084 0.338823 0.750023 0.47715 0.970703 
0.38738 0.172923 0.839458 0.503914 0.671736 
0.0781858 0.527558 0.252203 0.880394 0.68442 
0.556812 0.288362 0.788859 0.920251 0.875861 
0.520748 0.43326 0.583374 0.1422 0.735656 
0.705791 0.816745 0.795286 0.517576 0.145334 
0.519962 0.0429 0.774758 0.40466 0.953157 
0.800122 0.655276 0.445229 0.101152 0.370258 
0.582967 0.843173 0.122185 0.765543 0.245376 
0.0345497 0.292242 0.840319 0.330599 0.585336 
0.736367 0.875404 0.946257 0.777797 0.850021 
0.444212 0.350774 0.313839 0.408909 0.69056 
0.0147839 0.919793 0.244339 0.556027 0.597787 
0.115562 0.808671 0.571532 0.559124 0.851723 
0.207683 0.588005 0.946462 0.711529 0.133327 
0.587675 0.54448 0.551616 0.432206 0.95472 
0.416573 0.721441 0.359213 0.776456 0.477061 
0.680993 0.940275 0.858691 0.513153 0.468678 
0.569687 0.278021 0.882476 0.436751 0.504054 
0.222473 0.574112 0.216248 0.201237 0.507882 
0.751534 0.568976 0.152757 0.838594 0.936739 
0.561314 0.599939 0.546525 0.0895055 0.774084 
0.966552 0.672454 0.126372 0.555897 0.657967 
0.325305 0.641252 0.527455 0.641276 0.570982 
0.841438 0.1286 0.264593 0.43084 0.573965 
0.214663 0.545529 0.843796 0.946457 0.62623 
0.531618 0.983392 0.71427 0.649942 0.647708 
0.655488 0.346132 0.707483 0.127071 0.0275358 
0.802525 0.737227 0.500192 0.910918 0.202945 
0.105261 0.887507 0.0864541 0.632378 0.313217 
0.658985 0.0944358 0.436335 0.788006 0.184237 
0.1865 0.953806 0.687888 0.416571 0.879317 
0.800119 0.73255 0.641075 0.643731 0.0329698 
0.382776 0.184649 0.139786 0.931593 0.0786786 
0.015158 0.982044 0.521014 0.0361174 0.986408 
0.412673 0.769701 0.791186 0.324471 0.254789 
0.212125 0.959188 0.288142 0.518101 0.305556 
0.990484 0.348152 0.669199 0.922497 0.603266 
0.248994 0.626028 0.236723 0.975604 0.779038 
0.129476 0.901658 0.445656 0.695345 0.909797 
0.505233 0.504845 0.277471 0.963491 0.518958 
0.912681 0.490612 0.613091 0.63299 0.00131449 
0.200658 0.0461303 0.356516 0.371852 0.628445 
0.345961 0.854741 0.595952 0.204619 0.249025 
0.27144 0.280631 0.924374 0.817907 0.95076 
0.833954 0.476698 0.871838 0.329042 0.826769 
0.0959628 0.492953 0.435271 0.572866 0.0354931 
0.817224 0.0842262 0.478938 0.588772 0.637576 
0.474277 0.0100264 0.275722 0.58902 0.753444 
0.749878 0.444485 0.947768 0.665542 0.503943 
0.180083 0.156934 0.636625 0.431528 0.0135621 
0.763204 0.718545 0.180699 0.405934 0.889287 
0.0368083 0.78517 0.593421 0.332698 0.938812 
0.202426 0.661534 0.132466 0.867367 0.517683 
0.157267 0.537818 0.514854 0.919128 0.720158 
0.226472 0.0253016 0.726417 0.633369 0.561341 
0.27151 0.985442 0.695185 0.117576 0.150793 
0.826825 0.265546 0.493113 0.0303016 0.503845 
0.392043 0.550452 0.0237155 0.0988321 0.46531 
0.352461 0.131606 0.60884 0.151649 0.245064 
0.478567 0.7718 0.4893 0.495909 0.608665 
0.145365 0.00697774 0.274326 0.616777 0.200023 
0.625004 0.194311 0.770222 0.52197 0.921656 
0.16306 0.441526 0.920833 0.116793 0.387396 
0.747274 0.564453 0.144725 0.105026 0.201 
0.231091 0.643246 0.494003 0.678395 0.0878031 
0.715072 0.608773 0.412584 0.622714 0.285393 
0.0351078 0.673238 0.849038 0.261876 0.926612 
0.942514 0.043841 0.134628 0.963974 0.992689 
0.0708527 0.533197 0.0535181 0.138036 0.0190964 
0.612852 0.198771 0.213043 0.97205 0.906162 
0.30825 0.566925 0.248566 0.890462 0.210166 
0.720352 0.312131 0.0292927 0.746909 0.201159 
0.798759 0.817752 0.751087 0.331679 0.088076 
0.435143 0.240662 0.725526 0.272566 0.46798 
0.0411643 0.674953 0.951271 0.110537 0.450723 
0.705999 0.177465 0.248338 0.911304 0.295338 
0.480696 0.452522 0.130643 0.239163 0.265238 
0.374291 0.000305339 0.315249 0.662894 0.889511 
0.132417 0.192144 0.00745559 0.834839 0.44913 
0.0632178 0.835693 0.0214651 0.515257 0.18984 
0.71587 0.947758 0.621411 0.907226 0.603269 
0.598082 0.511201 0.389034 0.749103 0.867268 
0.898879 0.895195 0.431992 0.876683 0.770249 
0.379919 0.234462 0.354845 0.275981 0.437735 
0.324485 0.566048 0.0711361 0.300287 0.284627 
0.390298 0.2203 0.754426 0.896266 0.011326 
0.80661 0.548062 0.396559 0.937925 0.325649 
0.353401 0.88246 0.723755 0.594369 0.395473 
0.911178 0.851023 0.266823 0.482382 0.480226 
0.963066 0.325648 0.912404 0.799337 0.841689 
0.998595 0.44251 0.949011 0.813057 0.013423 
0.561198 0.67367 0.538706 0.311424 0.801444 
0.936932 0.343382 0.573303 0.205614 0.837596 
0.30036 0.102417 0.888245 0.644278 0.447342 
0.978515 0.609279 0.467143 0.637374 0.383943 
0.290746 0.663025 0.69726 0.995465 0.381271 
0.193025 0.113537 0.212882 0.625011 0.791895 
0.267161 0.835743 0.199499 0.0753468 0.437269 
0.89605 0.840023 0.352344 0.991815 0.832438 
0.310736 0.917128 0.0280438 0.831738 0.358735 
0.691971 0.558204 0.467379 0.535707 0.669206 
0.00875185 0.375631 0.643315 0.323128 0.00919861 
0.273878 0.266681 0.545622 0.475635 0.183156 
0.422198 0.480924 0.300305 0.28825 0.0156933 
0.590083 0.477325 0.799935 0.0537358 0.071803 
0.494992 0.859753 0.270584 0.160454 0.445938 
0.411586 0.283776 0.279168 0.106116 0.683204 
0.410541 0.149023 0.956232 0.79331 0.13565 
0.0303876 0.2597 0.784752 0.341773 0.285804 
0.887953 0.210171 0.6523 0.686325 0.266708 
0.407279 0.809456 0.431567 0.395053 0.107512 
0.226614 0.180491 0.421396 0.568928 0.371884 
0.294314 0.23722 0.831306 0.0509346 0.114395 
0.260019 0.867739 0.733453 0.367221 0.813615 
0.865079 0.801653 0.485123 0.911723 0.0952357 
0.477851 0.00215826 0.276682 0.0641604 0.370071 
0.879233 0.975758 0.432066 0.143911 0.773048 
0.315276 0.88028 0.73721 0.0174578 0.764102 
0.126053 0.550799 0.143363 0.733163 0.827546 
0.881455 0.733532 0.875806 0.938035 0.107971 
0.637442 0.740994 0.108507 0.300275 0.676048 
0.148218 0.222976 0.854454 0.952385 0.754988 
0.3248 0.843762 0.893465 0.393621 0.347885 
0.0921472 0.877828 0.948035 0.76586 0.415479 
0.376266 0.733733 0.016365 0.356565 0.152893 
0.0665539 0.925331 0.472203 0.458501 0.202234 
0.654414 0.470967 0.682808 0.0222277 0.052294 
0.574093 0.380105 0.880099 0.115629 0.992308 
0.547738 0.150722 0.982443 0.386347 0.899168 
0.806454 0.00645353 0.372887 0.0354982 0.47711 
0.453348 0.730206 0.105596 0.924427 0.241416 
0.815034 0.962008 0.734321 0.964192 0.938634 
0.401837 0.649171 0.336281 0.644751 0.532756 
0.741322 0.0135909 0.277229 0.577108 0.580887 
0.818737 0.167895 0.00641211 0.538917 0.0162988 
0.662716 0.00398338 0.597997 0.363758 0.687464 
0.879772 0.847098 0.154075 0.609218 0.419963 
0.0918678 0.872559 0.826903 0.48151 0.0491934 
0.466711 0.872678 0.867575 0.114614 0.323479 
0.602784 0.505289 0.625395 0.870198 0.984728 
0.345479 0.569512 0.581686 0.621104 0.119097 
0.601452 0.260078 0.758259 0.313154 0.585789 
0.529718 0.847735 0.739566 0.309483 0.891376 
0.63807 0.368836 0.284921 0.555587 0.260284 
0.895162 0.208807 0.248828 0.432156 0.172768 
0.75658 0.787496 0.172289 0.742176 0.0140836 
0.709131 0.000697947 0.865229 0.648001 0.569016 
0.0301824 0.198268 0.0554178 0.425079 0.178657 
0.531213 0.534176 0.2019 0.802402 0.615953 
0.608978 0.593768 0.821648 0.265781 0.550056 
0.0995976 0.516959 0.914138 0.506796 0.950856 
0.972863 0.855076 0.724052 0.132195 0.533566 
0.653296 0.261741 0.593984 0.45523 0.834418 
0.873523 0.581183 0.0646526 0.311495 0.71225 
0.524116 0.571547 0.548301 0.648429 0.61323 
0.865401 0.0814738 0.622 0.923738 0.586801 
0.629724 0.702812 0.0847862 0.926444 0.834579 
0.396737 0.948991 0.285891 0.732374 0.787429 
0.977627 0.984609 0.832102 0.0270535 0.539105 
0.766404 0.867587 0.667361 0.178286 0.271317 
0.28625 0.338705 0.857691 0.468231 0.240276 
0.950151 0.51562 0.295989 0.4822 0.915088 
0.267275 0.200968 0.0966899 0.461948 0.834874 
0.0565815 0.0574806 0.0401725 0.0106465 0.468049 
0.943506 0.59102 0.30257 0.313539 0.57767 
0.416345 0.328233 0.491666 0.190829 0.815421 
0.165897 0.459716 0.741063 0.13887 0.0239666 
0.120402 0.834251 0.344464 0.0561675 0.988973 
0.277614 0.510244 0.580703 0.705467 0.980954 
0.661607 0.71159 0.918538 0.668922 0.702317 
0.122813 0.780421 0.684552 0.602158 0.988328 
0.707345 0.776557 0.369744 0.378702 0.74327 
0.0357863 0.498173 0.549513 0.897845 0.716558 
0.223229 0.466803 0.82387 0.185032 0.783591 
0.121703 0.600212 0.18684 0.921341 0.811101 
0.799326 0.513829 0.0615718 0.831017 0.49774 
0.674806 0.630264 0.59964 0.863314 0.427353 
0.5915 0.0303237 0.35463 0.1708 0.561107 
0.265286 0.974022 0.00980258 0.807924 0.549993 
0.208648 0.209683 0.717694 0.0275622 0.317182 
0.881817 0.980921 0.82328 0.661516 0.557444 
0.450502 0.0235883 0.826519 0.736866 0.557626 
0.489063 0.615327 0.49764 0.342584 0.634602 
0.726767 0.127368 0.442593 0.326279 0.954747 
0.805349 0.892028 0.355887 0.680539 0.781438 
0.655694 0.469623 0.0150247 0.989754 0.554235 
0.827423 0.0748272 0.883613 0.149422 0.324336 
0.790241 0.25518 0.752622 0.856772 0.67862 
0.188255 0.320284 0.490098 0.271128 0.576112 
0.481139 0.885648 0.289893 0.554573 0.217835 
0.300659 0.0326404 0.60038 0.0734269 0.869836 
0.0536705 0.00766182 0.334296 0.104996 0.0428571 
0.0867607 0.960384 0.608705 0.365196 0.745302 
0.327284 0.324023 0.0902927 0.296235 0.776274 
0.260458 0.918393 0.400518 0.281152 0.685248 
0.120349 0.306734 0.572579 0.0796895 0.453955 
0.75183 0.270443 0.392592 0.913203 0.427603 
0.811531 0.0934078 0.397725 0.549919 0.283056 
0.893824 0.332865 0.431682 0.278831 0.732626 
0.808652 0.0267494 0.446055 0.0636229 0.361009 
0.997038 0.324578 0.778628 0.737167 0.393471 
0.274171 0.0636607 0.241403 0.954626 0.617751 
0.822264 0.12629 0.633828 0.804189 0.0130075 
0.785075 0.122815 0.509882 0.194621 0.258809 
0.188078 0.742224 0.190555 0.538813 0.299848 
0.531138 0.54289 0.24952 0.557833 0.75698 
0.958087 0.780897 0.446104 0.771065 0.55885 
0.973839 0.774559 0.669881 0.142132 0.222126 
0.849966 0.287111 0.958404 0.330595 0.650778 
0.477746 0.575562 0.722109 0.0657664 0.459931 
0.118456 0.62224 0.431488 0.0354652 0.35345 
0.59703 0.429572 0.958205 0.924101 0.47825 
0.74568 0.021721 0.104054 0.477459 0.580507 
0.369161 0.413822 0.92378 0.431115 0.608261 
0.142698 0.543279 0.993469 0.833966 0.762356 
0.836761 0.308912 0.149449 0.404959 0.132668 
0.961249 0.623554 0.166113 0.46855 0.299822 
0.233421 0.950713 0.665151 0.578556 0.400309 
0.75798 0.593446 0.0570529 0.715168 0.0268794 
0.906282 0.228686 0.79199 0.739982 0.200099 
0.450059 0.664512 0.519153 0.249529 0.707426 
0.0983957 0.339517 0.344419 0.230589 0.320192 
0.92263 0.158328 0.852248 0.484129 0.161633 
0.14747 0.508435 0.558389 0.70997 0.212178 
0.841333 0.512454 0.188228 0.790562 0.36283 
0.580371 0.0891245 0.818929 0.886939 0.463204 
0.761114 0.164314 0.160217 0.915862 0.794654 
0.481995 0.344192 0.41755 0.450412 0.522092 
0.100155 0.329934 0.997277 0.316197 0.114497 
0.419308 0.840834 0.129696 0.992932 0.804079 
0.904033 0.942604 0.021165 0.851718 0.0925426 
0.484421 0.787836 0.794258 0.286687 0.497026 
0.729216 0.645185 0.758368 0.295948 0.830294 
0.244436 0.865667 0.59319 0.387379 0.672002 
0.573049 0.446327 0.774302 0.232837 0.168375 
0.0367268 0.35859 0.108192 0.960826 0.870225 
0.64401 0.883245 0.767273 0.634053 0.450869 
0.62025 0.402502 0.75614 0.504662 0.228918 
0.0983547 0.404609 0.817494 0.595268 0.439238 
0.108917 0.329222 0.363605 0.414775 0.311853 
0.441699 0.40645 0.935668 0.676631 0.207191 
0.382704 0.236259 0.779204 0.896948 0.0372451 
0.487174 0.703621 0.939406 0.623536 0.98405 
0.280858 0.258156 0.737985 0.113048 0.0559705 
0.504286 0.864084 0.201131 0.69092 0.14618 
0.260298 0.96853 0.860918 0.238154 0.519169 
0.844021 0.724375 0.803331 0.183969 0.898834 
0.36341 0.320951 0.801433 0.434309 0.000797034 
0.620271 0.61784 0.840295 0.857648 0.646363 
0.846823 0.114561 0.489846 0.422538 0.40842 
0.354898 0.134321 0.975087 0.490437 0.268616 
0.625084 0.766275 0.82294 0.553485 0.888198 
0.780203 0.226994 0.544689 0.309459 0.152169 
0.399675 0.418673 0.440732 0.672379 0.289248 
0.497004 0.1573 0.944406 0.879459 0.573505 
0.173994 0.0196159 0.0033993 0.62462 0.990836 
0.738022 0.68987 0.0257386 0.638022 0.651793 
0.833052 0.280844 0.782755 0.91376 0.775636 
0.296264 0.604214 0.0198088 0.203245 0.683153 
0.293729 0.738709 0.188153 0.0513579 0.998855 
0.14791 0.775925 0.382846 0.120762 0.993598 
0.827526 0.632082 0.0245163 0.239909 0.155215 
0.330029 0.392112 0.548015 0.991279 0.729111 
0.969903 0.681668 0.874305 0.770113 0.332682 
0.364188 0.328233 0.791395 0.157829 0.61518 
0.436178 0.687858 0.542629 0.47547 0.685942 
0.506326 0.859022 0.741109 0.968014 0.995819 
0.984785 0.558684 0.574511 0.641692 0.219464 
0.942756 0.752829 0.709535 0.644471 0.166099 
0.1725 0.525017 0.0282967 0.920966 0.572461 
0.723934 0.139353 0.43334 0.707235 0.597907 
0.706597 0.729793 0.908872 0.410536 0.072984 
0.639215 0.584569 0.87197 0.493432 0.366752 
0.432839 0.134814 0.126258 0.636204 0.473811 
0.436167 0.948052 0.618648 0.177102 0.5004 
0.413259 0.0924122 0.745181 0.283233 0.418317 
0.222131 0.124407 0.848206 0.166847 0.660975 
0.186708 0.739275 0.208399 0.487578 0.625594 
0.466666 0.797316 0.292196 0.0501352 0.779186 
0.0654773 0.49493 0.274854 0.00603789 0.818149 
0.239654 0.199191 0.0755899 0.233172 0.0764411 
0.0789701 0.54823 0.480221 0.397015 0.143455 
0.485907 0.949984 0.401801 0.311754 0.348068 
0.995669 0.914954 0.997258 0.707826 0.954625 
0.523475 0.830643 0.0814189 0.180128 0.514855 
0.795508 0.349342 0.784591 0.838589 0.590145 
0.713124 0.635026 0.33227 0.683885 0.0734814 
0.519396 0.983682 0.630044 0.740664 0.0854274 
0.895403 0.67099 0.499074 0.836553 0.80243 
0.177603 0.0656528 0.483892 0.196138 0.637537 
0.375952 0.0207904 0.292889 0.0598562 0.959214 
0.190752 0.0967979 0.638797 0.66334 0.241804 
0.761395 0.551002 0.762402 0.798225 0.763462 
0.826961 0.192447 0.15502 0.46009 0.905962 
0.831613 0.43502 0.0860854 0.0182772 0.614854 
0.537368 0.30786 0.427293 0.673573 0.365092 
0.954835 0.223856 0.805667 0.508969 0.151791 
0.527546 0.578014 0.850063 0.655755 0.48493 
0.992959 0.364667 0.772902 0.38257 0.0621685 
0.770679 0.281725 0.362292 0.951012 0.823774 
0.340825 0.916032 0.389876 0.365728 0.0744622 
0.72874 0.94084 0.39612 0.532798 0.504729 
0.949605 0.824853 0.209975 0.605824 0.430968 
0.287117 0.775372 0.882824 0.0345661 0.521515 
0.367821 0.0882171 0.0698649 0.205906 0.276847 
0.519427 0.529292 0.950496 0.39691 0.637411 
0.519376 0.681769 0.450082 0.591855 0.271094 
0.359209 0.52816 0.635321 0.877717 0.178139 
0.798322 0.478595 0.755379 0.253802 0.2896 
0.937405 0.945758 0.69486 0.176845 0.877355 
0.61592 0.809598 0.137651 0.873116 0.289764 
0.637964 0.436106 0.87035 0.702607 0.18898 
0.550586 0.925533 0.65601 0.0827417 0.3319 
0.386559 0.33034 0.918541 0.751689 0.873644 
0.613476 0.675323 0.344687 0.367575 0.341308 
0.677311 0.791832 0.128455 0.914873 0.813314 
0.817528 0.469694 0.128655 0.368595 0.0442589 
0.228804 0.397961 0.436087 0.111115 0.297166 
0.251099 0.467677 0.71328 0.182121 0.445859 
0.508961 0.780642 0.812734 0.936639 0.391302 
0.987226 0.00387137 0.0245403 0.586663 0.388008 
0.103852 0.122185 0.187834 0.770673 0.928836 
0.356158 0.587608 0.13994 0.491498 0.611985 
0.606039 0.630877 0.10771 0.919324 0.548434 
0.94477 0.903143 0.244099 0.541159 0.638531 
0.0429337 0.556996 0.891033 0.542676 0.922434 
0.0558597 0.225452 0.593792 0.0718362 0.204162 
0.420631 0.692765 0.307857 0.138092 0.0257926 
0.300414 0.0930264 0.787162 0.41173 0.0250954 
0.865074 0.738056 0.907216 0.0294726 0.152769 
0.385253 0.366122 0.878402 0.570551 0.115043 
0.790633 0.172052 0.597469 0.485749 0.369419 
0.574147 0.444257 0.678219 0.3582 0.158546 
0.561104 0.360575 0.245557 0.0767113 0.894779 
0.267833 0.0727038 0.276125 0.24217 0.437856 
0.229371 0.869178 0.611514 0.121687 0.731089 
0.557772 0.27681 0.0934345 0.293367 0.46247 
0.309057 0.328248 0.601831 0.929782 0.663106 
0.865466 0.915346 0.571205 0.430779 0.573902 
0.668536 0.538075 0.385346 0.645724 0.547272 
0.456472 0.556047 0.952123 0.592961 0.438322 
0.634003 0.974258 0.526827 0.102474 0.650391 
0.208904 0.611053 0.0839356 0.191179 0.743988 
0.272226 0.81755 0.790304 0.214718 0.571346 
