3000 5
0.622434 0.0870203 0.274002 0.972467 0.108126 
0.789257 0.386806 0.601515 0.527808 0.609656 
0.00929947 0.885706 0.823616 0.793463 0.630346 
0.734078 0.422047 0.556851 0.310975 0.495442 
0.697296 0.873573 0.968298 0.560402 0.828192 
0.492131 0.499373 0.456535 0.197253 0.437121 
0.549008 0.888323 0.476398 0.184182 0.618073 
0.418001 0.605784 0.200942 0.206772 0.408656 
0.454816 0.623244 0.847743 0.0759767 0.58613 
0.758402 0.217461 0.984147 0.0847391 0.400249 
0.117924 0.260328 0.40794 0.272303 0.314991 
0.526662 0.481422 0.420892 0.165565 0.304915 
0.678619 0.514931 0.494214 0.576121 0.257337 
0.960563 0.609667 0.190634 0.739415 0.472849 
0.669433 0.89351 0.265343 0.286326 0.733117 
0.317123 0.61043 0.417773 0.77175 0.205662 
0.966547 0.669363 0.412384 0.95812 0.321691 
0.767096 0.142437 0.0082578 0.410005 0.923877 
0.418796 0.881974 0.427469 0.141373 0.553297 
0.609798 0.151975 0.803867 0.614816 0.251895 
0.993952 0.0550111 0.713022 0.609702 0.265176 
0.485779 0.966363 0.364996 0.482977 0.933478 
0.229585 0.771877 0.0964465 0.423354 0.654934 
0.883302 0.743642 0.276711 0.170399 0.299508 
0.404806 0.0713048 0.791625 0.18208 0.491968 
0.240821 0.869051 0.107264 0.50043 0.601459 
0.659153 0.250132 0.518062 0.229962 0.770958 
0.813225 0.710187 0.705609 0.272094 0.459445 
0.0581932 0.862965 0.33744 0.781466 0.226711 
0.250013 0.550086 0.980595 0.504041 0.434896 
0.934977 0.243372 0.211869 0.757208 0.412631 
0.804257 0.95361 0.94127 0.280276 0.386097 
0.107052 0.0537114 0.177301 0.232193 0.673257 
0.260794 0.901315 0.493272 0.728975 0.940504 
0.620048 0.894111 0.481826 0.285513 0.511215 
0.411324 0.0887537 0.321694 0.885858 0.637641 
0.970494 0.799499 0.901336 0.189149 0.735401 
0.708872 0.192335 0.387419 0.299365 0.603265 
0.84849 0.0722626 0.703616 0.168339 0.159463 
0.195277 0.606686 0.889075 0.622535 0.179294 
0.371016 0.0872077 0.363498 0.855814 0.971723 
0.741461 0.0248322 0.708567 0.0940417 0.884021 
0.883336 0.418471 0.163345 0.840994 0.861106 
0.0561489 0.435344 0.661978 0.626299 0.147821 
0.461447 0.868648 0.744853 0.42187 0.345803 
0.865808 0.912274 0.889501 0.356879 0.548471 
0.0620832 0.785153 0.552079 0.101245 0.79872 
0.726995 0.572988 0.405362 0.985348 0.138138 
0.578661 0.305942 0.895104 0.164197 0.987914 
0.361866 0.85932 0.535172 0.31187 0.164645 
0.920628 0.120637 0.163248 0.565889 0.426298 
0.759915 0.738959 0.253737 0.355718 0.967259 
0.0751445 0.926381 0.608895 0.30425 0.576162 
0.353501 0.0527019 0.222881 0.651572 0.00373349 
0.458058 0.52118 0.58214 0.0123754 0.448082 
0.682322 0.871161 0.841376 0.375896 0.987966 
0.863279 0.882874 0.780817 0.642744 0.917551 
0.925102 0.429382 0.547852 0.602475 0.661968 
0.903616 0.186682 0.891551 0.335171 0.136446 
0.900443 0.316831 0.976841 0.0769612 0.930217 
0.921668 0.372238 0.771754 0.847209 0.164684 
0.78471 0.559174 0.94876 0.779991 0.422193 
0.26141 0.184603 0.592612 0.0907901 0.352102 
0.523217 0.490837 0.825568 0.082147 0.507952 
0.0908881 0.963746 0.924977 0.413184 0.807244 
0.318194 0.913183 0.652216 0.182116 0.423663 
0.253671 0.376253 0.644952 0.575316 0.328554 
0.235841 0.936017 0.527048 0.995751 0.822068 
0.756499 0.750054 0.792265 0.848792 0.461889 
0.914543 0.275146 0.327653 0.688097 0.175431 
0.974878 0.0223279 0.385638 0.0498005 0.858819 
0.0863786 0.131093 0.503385 0.276018 0.409882 
0.874869 0.264707 0.590472 0.569283 0.79024 
0.739491 0.950046 0.211102 0.560509 0.333608 
0.180758 0.905494 0.870242 0.5894 0.555636 
0.984788 0.928286 0.0386005 0.852575 0.378518 
0.724942 0.33059 0.0109512 0.929874 0.426121 
0.35828 0.158848 0.622807 0.305713 0.667552 
0.489854 0.706396 0.0624206 0.00840301 0.244277 
0.891099 0.486646 0.604542 0.294293 0.93531 
0.821366 0.290392 0.816332 0.48407 0.298508 
0.132786 0.616182 0.543432 0.24896 0.520815 
0.521194 0.632537 0.990041 0.0543066 0.554329 
0.230483 0.32879 0.68266 0.926364 0.109368 
0.0525448 0.051795 0.0163745 0.320229 0.311484 
0.795613 0.185424 0.565963 0.381532 0.75732 
0.138057 0.849923 0.787037 0.835104 0.984901 
0.16385 0.698512 0.344371 0.658135 0.0499819 
0.381915 0.277188 0.32091 0.220591 0.879772 
0.120963 0.0532648 0.387756 0.358108 0.594525 
0.763676 0.35615 0.684454 0.218153 0.865405 
0.704494 0.828652 0.310825 0.0346623 0.611765 
0.978816 0.555365 0.198198 0.396611 0.817912 
0.364674 0.770879 0.692652 0.778224 0.187178 
0.811818 0.240199 0.67513 0.587403 0.0794301 
0.968903 0.189653 0.0679667 0.964108 0.366541 
0.880564 0.0692963 0.428387 0.5726 0.163219 
0.760387 0.0811911 0.651919 0.292742 0.217881 
0.824215 0.955967 0.168923 0.457369 0.903837 
0.521051 0.797591 0.298929 0.915276 0.176821 
0.83527 0.119619 0.545207 0.688325 0.466897 
0.788152 0.392936 0.948244 0.16021 0.885456 
0.282856 0.912855 0.230679 0.221828 0.77655 
0.89432 0.665401 0.101562 0.98013 0.410362 
0.525937 0.0406341 0.401371 0.983109 0.357229 
0.241632 0.0819693 0.41257 0.502097 0.86183 
0.315024 0.765934 0.0750503 0.498702 0.611985 
0.449098 0.937178 0.783943 0.148253 0.34192 
0.283139 0.421587 0.528296 0.699244 0.223126 
0.536173 0.284625 0.204121 0.769644 0.752854 
0.162668 0.340296 0.402267 0.888524 0.0206917 
0.27516 0.102915 0.47263 0.625603 0.0857639 
0.466624 0.109523 0.49146 0.147067 0.440817 
0.993919 0.91371 0.374685 0.594456 0.825959 
0.197365 0.582062 0.648935 0.746072 0.562821 
0.939831 0.736885 0.636646 0.410442 0.677395 
0.857355 0.341926 0.489278 0.464872 0.129937 
0.774236 0.639851 0.091043 0.360206 0.92884 
0.0666666 0.122352 0.487185 0.157892 0.976847 
0.0950201 0.218178 0.935318 0.860019 0.114572 
0.324673 0.745354 0.662518 0.303125 0.500281 
0.283937 0.780465 0.871403 0.807728 0.779964 
0.853384 0.384246 0.51916 0.316832 0.244901 
0.117325 0.520889 0.723599 0.488684 0.22403 
0.883103 0.234612 0.00826965 0.202658 0.3018 
0.962909 0.61741 0.786481 0.226536 0.237701 
0.768457 0.735882 0.986551 0.408066 0.0948883 
0.344021 0.591654 0.824133 0.483436 0.505689 
0.215298 0.136144 0.435386 0.449959 0.967228 
0.451386 0.509466 0.993934 0.893173 0.301066 
0.749313 0.865286 0.350569 0.295831 0.669662 
0.38859 0.250235 0.140121 0.967745 0.935907 
0.944599 0.346623 0.610383 0.659067 0.580855 
0.877094 0.283723 0.0756951 0.865949 0.103029 
0.247173 0.189903 0.228131 0.174854 0.0394695 
0.905375 0.52257 0.722005 0.386134 0.383085 
0.167898 0.862566 0.703012 0.063806 0.00308973 
0.834259 0.848555 0.0729592 0.280899 0.198575 
0.593128 0.364358 0.241275 0.733287 0.541374 
0.601079 0.465764 0.94715 0.337628 0.542333 
0.964189 0.130215 0.418883 0.602099 0.268448 
0.543572 0.983503 0.0570227 0.646448 0.732184 
0.563955 0.648552 0.266911 0.0305934 0.182793 
0.705892 0.296533 0.818239 0.370291 0.282451 
0.0218857 0.0359168 0.0549995 0.648957 0.0366744 
0.519557 0.343623 0.386115 0.218132 0.619665 
0.491721 0.51313 0.683037 0.0132249 0.986248 
0.842188 0.631275 0.0560527 0.724714 0.392811 
0.029652 0.363821 0.630857 0.533206 0.628986 
0.00419753 0.784171 0.473801 0.325226 0.516129 
0.560217 0.208207 0.817432 0.838574 0.35735 
0.419814 0.54295 0.970591 0.0247107 0.527587 
0.505909 0.885241 0.811957 0.109886 0.769202 
0.957886 0.564486 0.367698 0.0996625 0.615763 
0.423088 0.191944 0.130919 0.674399 0.462851 
0.316772 0.051981 0.283113 0.318201 0.080751 
0.0190757 0.195427 0.771718 0.430529 0.171826 
0.830931 0.977022 0.303552 0.10552 0.114956 
0.539556 0.890635 0.24773 0.770843 0.592329 
0.65253 0.0431883 0.35623 0.46509 0.825785 
0.51322 0.759842 0.940584 0.939536 0.932645 
0.555232 0.573429 0.89975 0.656078 0.39231 
0.0332451 0.565169 0.0194817 0.878649 0.785477 
0.44763 0.0303095 0.431931 0.423078 0.521578 
0.0419741 0.300189 0.0607367 0.467111 0.709555 
0.0611999 0.342365 0.289814 0.853484 0.161539 
0.231125 0.339295 0.971301 0.0169589 0.531931 
0.192536 0.153837 0.110219 0.0485087 0.747246 
0.446432 0.722312 0.472418 0.716011 0.458726 
0.497802 0.489302 0.421925 0.476169 0.563037 
0.918207 0.450464 0.17119 0.485986 0.684444 
0.0608341 0.0429102 0.888058 0.231216 0.358896 
0.38712 0.112292 0.285734 0.844278 0.700519 
0.679034 0.546646 0.863734 0.481962 0.469004 
0.0184008 0.338651 0.278313 0.932802 0.58158 
0.0116734 0.594029 0.176452 0.513084 0.636625 
0.446345 0.588287 0.835559 0.594154 0.599061 
0.54208 0.0950406 0.322064 0.80905 0.520424 
0.201063 0.66589 0.717861 0.88288 0.75605 
0.325477 0.299553 0.388374 0.545667 0.809765 
0.488316 0.864371 0.345738 0.67854 0.37016 
0.637961 0.917851 0.416141 0.977057 0.60971 
0.380696 0.608871 0.800672 0.634578 0.492771 
0.511545 0.822113 0.118532 0.142599 0.948496 
0.728648 0.0776939 0.0918209 0.416496 0.501446 
0.419434 0.310868 0.900596 0.308733 0.303609 
0.236678 0.633272 0.13284 0.0616389 0.129759 
0.0936337 0.0715043 0.65827 0.90665 0.502579 
0.811086 0.494701 0.458751 0.406769 0.67363 
0.241538 0.739606 0.201468 0.321001 0.0898433 
0.817822 0.523061 0.0688453 0.572192 0.409553 
0.185358 0.357479 0.856199 0.27359 0.186559 
0.948254 0.559174 0.124749 0.756203 0.95817 
0.194148 0.737731 0.670283 0.741557 0.137002 
0.216165 0.666588 0.265786 0.600652 0.0888062 
0.879705 0.383896 0.231563 0.330187 0.750353 
0.839079 0.972544 0.105042 0.227954 0.584102 
0.842623 0.0626443 0.38635 0.677573 0.532317 
0.424194 0.205691 0.14794 0.501274 0.636369 
0.804342 0.90326 0.86679 0.624589 0.364932 
0.468086 0.167647 0.0240484 0.179998 0.754631 
0.638449 0.00383094 0.843739 0.202344 0.831895 
0.0886193 0.185349 0.296664 0.40028 0.54364 
0.146855 0.2897 0.381906 0.837318 0.375062 
0.668505 0.304949 0.867747 0.71658 0.32827 
0.798413 0.0313652 0.848923 0.309263 0.0778541 
0.628073 0.154352 0.225629 0.592984 0.309452 
0.595642 0.704713 0.302371 0.529592 0.703114 
0.647223 0.930184 0.126439 0.977314 0.622411 
0.0402772 0.318962 0.866115 0.0365937 0.621531 
0.272883 0.757178 0.397421 0.357145 0.636825 
0.991126 0.104313 0.00160804 0.490625 0.613256 
0.816372 0.941644 0.720059 0.514526 0.220648 
0.771816 0.819923 0.0825061 0.308113 0.0177438 
0.312986 0.0419037 0.744635 0.638563 0.872243 
0.20866 0.592233 0.188838 0.192594 0.479444 
0.0887763 0.876111 0.546785 0.292515 0.243363 
0.280594 0.676552 0.442141 0.773001 0.615462 
0.0259719 0.145763 0.670155 0.169423 0.699051 
0.152435 0.479285 0.319761 0.0375917 0.150135 
0.694752 0.641846 0.761117 0.987902 0.237967 
0.0636242 0.54507 0.589324 0.748559 0.745043 
0.0712204 0.416922 0.813011 0.0918189 0.87487 
0.322741 0.335188 0.67867 0.909108 0.869425 
0.572794 0.471851 0.0762431 0.959411 0.520024 
0.770556 0.418801 0.537396 0.254286 0.444825 
0.972852 0.0197732 0.980307 0.743982 0.260822 
0.732201 0.978693 0.998536 0.235048 0.287175 
0.878687 0.556403 0.431041 0.521841 0.13397 
0.888659 0.254083 0.131677 0.175951 0.00685416 
0.254819 0.304274 0.858229 0.226839 0.148125 
0.130251 0.437823 0.663465 0.64316 0.729553 
0.276326 0.476047 0.36346 0.11362 0.322488 
0.313653 0.298972 0.365499 0.891483 0.963739 
0.768103 0.390847 0.392272 0.577919 0.848247 
0.593737 0.7658 0.383122 0.479379 0.0173558 
0.247377 0.594962 0.857265 0.909586 0.642928 
0.928398 0.439076 0.799881 0.645676 0.388675 
0.136489 0.678599 0.128256 0.330521 0.0308331 
0.920449 0.520746 0.268389 0.589457 0.301785 
0.270721 0.161983 0.973918 0.807935 0.840252 
0.441298 0.891682 0.218204 0.322435 0.226319 
0.842925 0.833732 0.778988 0.888185 0.0786333 
0.345236 0.340892 0.31822 0.967882 0.34291 
0.894567 0.520997 0.679885 0.363885 0.639239 
0.443024 0.624625 0.0439557 0.115295 0.634004 
0.651436 0.634809 0.12774 0.198076 0.576254 
0.183963 0.635654 0.0307533 0.178648 0.0550012 
0.86793 0.116521 0.0385147 0.996356 0.270973 
0.311209 0.182855 0.85652 0.997308 0.708786 
0.423874 0.992784 0.123425 0.580812 0.465589 
0.34149 0.322149 0.86548 0.55551 0.598146 
0.831735 0.136625 0.578278 0.292974 0.707628 
0.689035 0.864248 0.533467 0.076266 0.834731 
0.257728 0.191192 0.43787 0.609417 0.423604 
0.552733 0.407478 0.00442553 0.981358 0.136511 
0.0307729 0.454938 0.0682136 0.0213188 0.296229 
0.517176 0.0165186 0.910272 0.603086 0.181963 
0.743372 0.446832 0.923045 0.647305 0.311373 
0.177077 0.105031 0.682721 0.38519 0.270433 
0.152912 0.135256 0.441395 0.355876 0.529252 
0.356544 0.321455 0.882591 0.841948 0.907013 
0.34866 0.00370843 0.836501 0.1722 0.711712 
0.523412 0.540451 0.975432 0.346409 0.0375005 
0.156427 0.583357 0.227312 0.17208 0.843309 
0.0253819 0.0773253 0.98736 0.652217 0.622058 
0.723762 0.349534 0.439833 0.18923 0.833177 
0.468898 0.813185 0.882051 0.181685 0.60832 
0.366535 0.688677 0.265092 0.48668 0.279908 
0.345073 0.0514538 0.151904 0.905642 0.940067 
0.667956 0.748213 0.473039 0.728621 0.916276 
0.48526 0.15702 0.408143 0.945435 0.46663 
0.186468 0.658406 0.144832 0.396842 0.610417 
0.435507 0.691332 0.157149 0.879122 0.274531 
0.906684 0.394735 0.698702 0.336095 0.129091 
0.242421 0.942046 0.802349 0.678557 0.823289 
0.133701 0.98574 0.0377542 0.880617 0.433136 
0.591012 0.649369 0.100126 0.04008 0.709821 
0.571863 0.294191 0.896718 0.757469 0.619254 
0.299087 0.860284 0.531433 0.0680731 0.111711 
0.855601 0.791096 0.35554 0.617509 0.884026 
0.724097 0.484771 0.769352 0.484058 0.629862 
0.954821 0.832503 0.276629 0.134359 0.817098 
0.937818 0.764872 0.109468 0.0707056 0.879713 
0.0469609 0.435298 0.448091 0.487586 0.0629803 
0.856628 0.439054 0.151726 0.87559 0.553043 
0.682668 0.0515145 0.139747 0.10185 0.643318 
0.0517186 0.705851 0.248788 0.3393 0.239592 
0.174046 0.159716 0.914774 0.2706 0.42929 
0.995942 0.312875 0.939367 0.703659 0.604163 
0.111886 0.567586 0.104197 0.915032 0.95244 
0.292393 0.288439 0.57047 0.800988 0.140734 
0.444329 0.14213 0.249063 0.459695 0.0255044 
0.604568 0.916584 0.992786 0.521801 0.472232 
0.642439 0.952283 0.738858 0.570378 0.114208 
0.17623 0.94149 0.311884 0.205553 0.271595 
0.616592 0.591966 0.62191 0.211621 0.111216 
0.985263 0.436036 0.893975 0.884498 0.382494 
0.00181048 0.477196 0.244687 0.770621 0.451279 
0.628164 0.0700341 0.958772 0.169138 0.776846 
0.595464 0.904791 0.58085 0.627258 0.0639676 
0.731812 0.143996 0.44387 0.17155 0.840293 
0.511191 0.714995 0.35772 0.346569 0.135846 
0.413571 0.606623 0.511556 0.592289 0.49565 
0.63012 0.531561 0.559444 0.154523 0.851105 
0.347261 0.122431 0.478428 0.557181 0.685951 
0.743772 0.567902 0.518516 0.780529 0.496261 
0.0476291 0.185634 0.0212288 0.103557 0.400502 
0.450852 0.51482 0.652949 0.97567 0.957093 
0.672497 0.233003 0.844365 0.214474 0.688689 
0.923822 0.0298571 0.433176 0.169108 0.51712 
0.574346 0.155288 0.266204 0.612087 0.840092 
0.169679 0.588689 0.652624 0.483297 0.93579 
0.0564321 0.903111 0.113503 0.148206 0.235304 
0.322701 0.102796 0.0378662 0.397884 0.87801 
0.919931 0.892771 0.543501 0.136302 0.822354 
0.385127 0.644555 0.43669 0.611883 0.227433 
0.320332 0.648755 0.723738 0.341051 0.658523 
0.217489 0.586993 0.616389 0.905465 0.322641 
0.224074 0.508321 0.543918 0.4534 0.0898556 
0.802465 0.194036 0.0256627 0.869416 0.43014 
0.664444 0.0307185 0.710707 0.847431 0.612838 
0.150066 0.253062 0.402463 0.604856 0.570869 
0.586065 0.615861 0.0852543 0.181416 0.452963 
0.755403 0.378683 0.286101 0.724339 0.554941 
0.416388 0.0785259 0.439739 0.798723 0.287288 
0.462942 0.508163 0.165304 0.912947 0.828328 
0.236072 0.139774 0.917901 0.477341 0.335409 
0.452452 0.0205446 0.316936 0.764624 0.708891 
0.0464468 0.980403 0.889486 0.336267 0.458889 
0.271548 0.0439919 0.780662 0.593524 0.849888 
0.503694 0.351478 0.0329463 0.313716 0.138084 
0.691516 0.322579 0.679379 0.385442 0.162837 
0.93092 0.825608 0.927912 0.337358 0.490323 
0.176566 0.586293 0.936915 0.460803 0.385623 
0.311563 0.189845 0.859178 0.123779 0.732447 
0.863697 0.509955 0.585064 0.257825 0.469243 
0.196003 0.834099 0.205807 0.234854 0.62574 
0.950347 0.0693748 0.922918 0.668485 0.623618 
0.832734 0.47254 0.180277 0.897762 0.8162 
0.572749 0.738836 0.457966 0.519045 0.888545 
0.678371 0.256989 0.215169 0.588539 0.380334 
0.35128 0.342322 0.243991 0.747282 0.54442 
0.0981919 0.314821 0.945924 0.0743757 0.99996 
0.549568 0.622442 0.762104 0.492765 0.636773 
0.929763 0.867493 0.956445 0.336525 0.840106 
0.920555 0.856623 0.895776 0.602581 0.386157 
0.794595 0.42286 0.155049 0.194906 0.669321 
0.437934 0.820258 0.567411 0.356003 0.250011 
0.803635 0.841425 0.231731 0.734294 0.336841 
0.686344 0.209348 0.639357 0.968242 0.032568 
0.9668 0.0347318 0.371145 0.539137 0.769045 
0.73816 0.628453 0.668862 0.177097 0.666339 
0.991636 0.923662 0.964265 0.0561875 0.579807 
0.681966 0.861035 0.822601 0.213795 0.317159 
0.0452999 0.938828 0.228581 0.605149 0.947809 
0.250721 0.266959 0.504776 0.52443 0.281958 
0.180937 0.950113 0.838422 0.181301 0.208872 
0.833069 0.369584 0.77044 0.583802 0.281554 
0.822808 0.165389 0.910786 0.830576 0.258399 
0.467936 0.0509735 0.774262 0.974253 0.941798 
0.788 0.365957 0.872402 0.298857 0.966953 
0.153159 0.0750549 0.968784 0.493078 0.620984 
0.600246 0.857859 0.0256143 0.900857 0.832867 
0.544728 0.380732 0.362213 0.866107 0.292224 
0.593365 0.478382 0.107911 0.814351 0.450292 
0.578942 0.894189 0.459847 0.639044 0.865341 
0.960991 0.0929964 0.436932 0.167444 0.161929 
0.928509 0.207311 0.629066 0.174148 0.778226 
0.173422 0.69813 0.663706 0.600344 0.553217 
0.0759676 0.550108 0.247206 0.368959 0.828136 
0.427423 0.0207359 0.0137471 0.257391 0.969451 
0.485768 0.805903 0.811087 0.618965 0.567125 
0.297165 0.281651 0.78832 0.858839 0.442262 
0.334319 0.560972 0.199759 0.394857 0.283633 
0.173423 0.32122 0.639114 0.720716 0.485013 
0.507194 0.977974 0.265132 0.610816 0.0737611 
0.876111 0.39138 0.295506 0.209633 0.01646 
0.996997 0.393813 0.515654 0.338362 0.106367 
0.96588 0.79109 0.920114 0.180882 0.891093 
0.562109 0.373503 0.634826 0.0333722 0.329991 
0.59583 0.224616 0.704169 0.604283 0.769653 
0.256767 0.954503 0.592762 0.0272199 0.42839 
0.0843285 0.526982 0.118409 0.220402 0.224647 
0.410641 0.214981 0.184351 0.521342 0.211149 
0.974371 0.35617 0.685187 0.00465995 0.755139 
0.686191 0.133697 0.967949 0.145542 0.350209 
0.131545 0.204187 0.473021 0.296675 0.471077 
0.970212 0.262346 0.0140109 0.4998 0.680439 
0.283734 0.332818 0.0206596 0.741188 0.86047 
0.961077 0.901263 0.541171 0.765057 0.598633 
0.162815 0.132028 0.763588 0.10823 0.350823 
0.640857 0.0325061 0.106552 0.593944 0.273671 
0.349491 0.1542 0.539707 0.61286 0.230911 
0.773639 0.164602 0.46274 0.375939 0.287774 
0.242337 0.0476584 0.494864 0.97149 0.768947 
0.820457 0.397849 0.045003 0.542439 0.744397 
0.355338 0.693303 0.813642 0.529645 0.626851 
0.891877 0.929305 0.0985443 0.52973 0.79469 
0.420307 0.745061 0.182639 0.0138469 0.826203 
0.815906 0.455185 0.0888835 0.586555 0.741145 
0.940729 0.360595 0.299525 0.840725 0.906523 
0.507858 0.196107 0.892523 0.954466 0.368499 
0.421784 0.781172 0.67948 0.0679652 0.712398 
0.18517 0.0646125 0.839943 0.923189 0.445288 
0.378993 0.27902 0.642066 0.777072 0.354962 
0.464627 0.119123 0.222872 0.822937 0.793885 
0.561212 0.355221 0.67045 0.106418 0.599728 
0.0156861 0.128141 0.419357 0.576311 0.80043 
0.137935 0.596184 0.807965 0.268467 0.183712 
0.149822 0.0309808 0.785406 0.489355 0.582493 
0.34944 0.571493 0.975556 0.597035 0.0990097 
0.716314 0.425984 0.403588 0.402661 0.815733 
0.202577 0.215904 0.0853489 0.21542 0.0403435 
0.105048 0.84096 0.903612 0.312984 0.0415683 
0.0984495 0.524687 0.784946 0.692947 0.471767 
0.74644 0.368049 0.255094 0.74576 0.32222 
0.204978 0.0112516 0.39068 0.763036 0.732818 
0.707381 0.5895 0.201421 0.644876 0.989563 
0.694614 0.659846 0.942866 0.647457 0.604181 
0.568611 0.382739 0.940358 0.246773 0.00513135 
0.522866 0.875605 0.464305 0.53419 0.179966 
0.607061 0.682201 0.146967 0.781295 0.428669 
0.693802 0.351221 0.0450832 0.939638 0.0615178 
0.128596 0.984611 0.911418 0.468799 0.0722992 
0.774401 0.32717 0.562181 0.777279 0.420444 
0.603403 0.540891 0.925817 0.6867 0.967619 
0.11662 0.63303 0.734245 0.979876 0.338248 
0.462878 0.519483 0.752675 0.510226 0.368025 
0.174967 0.00293063 0.238103 0.779362 0.448865 
0.374441 0.566153 0.546057 0.0217263 0.10473 
0.48509 0.45984 0.282569 0.960412 0.408917 
0.887353 0.611871 0.305393 0.561763 0.0025045 
0.143056 0.700506 0.0842701 0.320704 0.103915 
0.835598 0.270805 0.00830668 0.152514 0.686869 
0.124649 0.0215011 0.310455 0.0277226 0.247469 
0.0571446 0.243696 0.256215 0.0877322 0.257614 
0.897901 0.0651786 0.352546 0.411068 0.89421 
0.00814037 0.285309 0.257587 0.469472 0.335771 
0.821242 0.112515 0.399746 0.18765 0.868944 
0.502836 0.758889 0.962311 0.882298 0.25689 
0.599231 0.952891 0.297116 0.988339 0.400139 
0.473161 0.667753 0.104016 0.0713993 0.872899 
0.57221 0.350435 0.344922 0.272018 0.831657 
0.467634 0.762489 0.798639 0.418875 0.924295 
0.153947 0.551037 0.646676 0.810721 0.0244341 
0.672574 0.679114 0.0296949 0.13006 0.665156 
0.130512 0.236779 0.362561 0.275834 0.533778 
0.743751 0.754342 0.569609 0.0698174 0.7248 
0.117456 0.326173 0.15126 0.0427131 0.226371 
0.843812 0.758641 0.92084 0.364768 0.149787 
0.213799 0.0154787 0.0881666 0.286842 0.545385 
0.056231 0.079958 0.975237 0.600974 0.850667 
0.818485 0.843122 0.111517 0.0899465 0.264635 
0.45927 0.342597 0.237524 0.550244 0.683083 
0.936709 0.481018 0.352156 0.321 0.358748 
0.354694 0.505139 0.662602 0.186179 0.961596 
0.460771 0.547506 0.751368 0.586621 0.957854 
0.941578 0.513117 0.90143 0.114978 0.0483803 
0.297592 0.782945 0.204718 0.44493 0.0865479 
0.223193 0.97529 0.130281 0.400198 0.808922 
0.0669816 0.182622 0.193768 0.489276 0.845572 
0.631971 0.635431 0.936395 0.406015 0.629486 
0.586629 0.166579 0.408242 0.202325 0.0275161 
0.804012 0.253215 0.475751 0.135577 0.935488 
0.969159 0.0937269 0.993494 0.114132 0.2433 
0.993628 0.380219 0.134388 0.513225 0.284191 
0.993548 0.15122 0.355221 0.573599 0.0332373 
0.469156 0.591438 0.683063 0.910834 0.590091 
0.691487 0.3881 0.460912 0.686944 0.104409 
0.144646 0.482406 0.382801 0.0431948 0.351311 
0.435484 0.179209 0.440774 0.755885 0.0560277 
0.633905 0.0414339 0.0893242 0.0101147 0.72639 
0.16984 0.102073 0.178919 0.42201 0.597094 
0.196418 0.267955 0.559673 0.412649 0.508088 
0.771316 0.124037 0.913832 0.300458 0.817858 
0.631542 0.283374 0.676022 0.16633 0.887578 
0.318372 0.539424 0.663155 0.326303 0.856882 
0.0546075 0.301726 0.207291 0.727471 0.733451 
0.142518 0.610548 0.667328 0.344891 0.511478 
0.686651 0.219041 0.393284 0.207657 0.0580617 
0.213255 0.00347428 0.980078 0.584059 0.275925 
0.336337 0.439073 0.623488 0.327364 0.1711 
0.172359 0.440519 0.582438 0.412198 0.514725 
0.384957 0.315849 0.985018 0.260379 0.187923 
0.326807 0.639894 0.942558 0.351943 0.652673 
0.0876811 0.464369 0.36749 0.0138148 0.741811 
0.11605 0.832307 0.766901 0.57878 0.36206 
0.972441 0.273702 0.0505316 0.933466 0.277904 
0.813196 0.887289 0.343576 0.0834061 0.688774 
0.905439 0.407557 0.120187 0.341448 0.11644 
0.681481 0.196538 0.826586 0.82013 0.770944 
0.878876 0.617081 0.329436 0.764943 0.175833 
0.503139 0.612101 0.467254 0.0749011 0.976519 
0.899968 0.122312 0.702645 0.499771 0.165147 
0.996547 0.832742 0.255261 0.950728 0.93549 
0.667685 0.280577 0.866101 0.743973 0.912266 
0.713297 0.883534 0.851628 0.535225 0.44557 
0.537096 0.615851 0.0952993 0.457836 0.364854 
0.358943 0.0457661 0.293174 0.473025 0.924507 
0.345887 0.682638 0.887902 0.779656 0.992444 
0.253962 0.150973 0.236942 0.799076 0.146495 
0.44329 0.843543 0.807245 0.160026 0.604841 
0.25985 0.598191 0.616627 0.558972 0.0319942 
0.673296 0.494452 0.413996 0.570776 0.276875 
0.270009 0.345994 0.0282316 0.377717 0.272148 
0.247534 0.728807 0.171301 0.403238 0.53203 
0.230133 0.956643 0.472752 0.783058 0.266811 
0.512 0.212672 0.10375 0.269048 0.712438 
0.950162 0.579667 0.670072 0.166954 0.234394 
0.811975 0.756396 0.914344 0.608708 0.179213 
0.51008 0.710656 0.529343 0.978486 0.376766 
0.780267 0.994681 0.260023 0.515804 0.851586 
0.823012 0.388689 0.191193 0.0831269 0.310836 
0.825169 0.265688 0.0379756 0.461537 0.35249 
0.000537818 0.725343 0.179662 0.276728 0.817039 
0.514504 0.0165391 0.918767 0.27752 0.266007 
0.582717 0.753923 0.0385462 0.0307807 0.377981 
0.353687 0.2348 0.378197 0.500878 0.172193 
0.0104935 0.902302 0.0378419 0.480893 0.000866201 
0.918449 0.255448 0.63265 0.317321 0.558199 
0.0648196 0.358094 0.204912 0.111563 0.867954 
0.777996 0.960421 0.815857 0.556876 0.794819 
0.17751 0.647028 0.587475 0.24858 0.776371 
0.59017 0.148717 0.538646 0.237025 0.420438 
0.0756426 0.37684 0.278036 0.95289 0.606312 
0.378547 0.0144013 0.0452525 0.499818 0.927646 
0.843235 0.948123 0.915111 0.258588 0.197844 
0.244342 0.650338 0.158741 0.643012 0.237023 
0.168593 0.242326 0.490846 0.0334516 0.747173 
0.683755 0.259165 0.24156 0.600463 0.233729 
0.98494 0.94913 0.475603 0.705581 0.223403 
0.882207 0.205969 0.214436 0.332877 0.134354 
0.499225 0.570096 0.253009 0.0766895 0.330994 
0.170219 0.633469 0.831852 0.558235 0.813853 
0.407925 0.67315 0.0196212 0.132053 0.201589 
0.89305 0.353249 0.6467 0.472036 0.788516 
0.686497 0.873946 0.393842 0.472202 0.644063 
0.217636 0.0570132 0.204833 0.937672 0.0731235 
0.492306 0.911972 0.043322 0.0347543 0.425779 
0.0236282 0.826223 0.863447 0.533436 0.631644 
0.0447768 0.668585 0.953963 0.0807105 0.941414 
0.229215 0.841751 0.133936 0.18364 0.566831 
0.359756 0.319001 0.619213 0.683955 0.310358 
0.477858 0.606865 0.0396553 0.646691 0.850045 
0.418541 0.330084 0.683215 0.867273 0.814784 
0.985149 0.904457 0.699467 0.175743 0.658069 
0.150317 0.580722 0.0855063 0.157576 0.659236 
0.945044 0.977146 0.633802 0.610309 0.98794 
0.747691 0.13176 0.29051 0.840947 0.92023 
0.751419 0.041277 0.491033 0.596044 0.915145 
0.840899 0.146381 0.285377 0.68804 0.858419 
0.690185 0.997687 0.916101 0.0927487 0.936238 
0.967882 0.405406 0.252422 0.593447 0.367206 
0.763042 0.164816 0.466856 0.265353 0.398418 
0.0132092 0.6208 0.71801 0.174007 0.345761 
0.296818 0.847964 0.976459 0.440785 0.965921 
0.431075 0.902332 0.881748 0.427983 0.823371 
0.537567 0.18366 0.159894 0.99841 0.781753 
0.458016 0.405231 0.535418 0.463455 0.586623 
0.35544 0.975965 0.910241 0.309424 0.443834 
0.474251 0.882404 0.675445 0.925692 0.677005 
0.96535 0.998024 0.0154985 0.0288499 0.599002 
0.482258 0.789642 0.905758 0.356769 0.0722303 
0.371838 0.149703 0.0114167 0.310581 0.0326646 
0.835269 0.00785978 0.587468 0.145585 0.350503 
0.203053 0.793711 0.0695016 0.226034 0.575224 
0.931815 0.366192 0.0589018 0.77386 0.296014 
0.513944 0.853437 0.183437 0.651141 0.259396 
0.510723 0.837173 0.642188 0.37399 0.63606 
0.146547 0.321717 0.40415 0.555012 0.180357 
0.450142 0.561184 0.855135 0.807181 0.671573 
0.383868 0.964042 0.797855 0.519115 0.0770134 
0.304243 0.892658 0.437709 0.36293 0.0207564 
0.209967 0.28434 0.808026 0.764583 0.184317 
0.576004 0.595231 0.919717 0.551547 0.492472 
0.497396 0.444981 0.299529 0.226289 0.528632 
0.871234 0.902966 0.267551 0.73341 0.133792 
0.325637 0.861687 0.972298 0.0521025 0.354449 
0.287822 0.588785 0.392517 0.968641 0.353374 
0.612871 0.189431 0.287261 0.978436 0.746509 
0.123154 0.65541 0.724384 0.334485 0.642154 
0.134886 0.957273 0.542627 0.944305 0.190222 
0.46646 0.949803 0.863892 0.516845 0.988085 
0.277103 0.48565 0.7838 0.0115978 0.276219 
0.619039 0.0327966 0.545755 0.440469 0.290854 
0.443049 0.912983 0.102336 0.347558 0.955747 
0.715172 0.0397052 0.35885 0.715586 0.467217 
0.362593 0.566489 0.363184 0.0703351 0.664191 
0.396392 0.220858 0.433155 0.777201 0.150797 
0.513953 0.816593 0.914439 0.230215 0.546221 
0.53096 0.37881 0.40665 0.584468 0.347163 
0.737742 0.775405 0.649327 0.773846 0.789935 
0.103214 0.108365 0.670246 0.979788 0.286168 
0.694729 0.112071 0.00340976 0.954636 0.335281 
0.837193 0.651926 0.944601 0.24664 0.672379 
0.223638 0.97854 0.119486 0.643112 0.358603 
0.273638 0.655198 0.514004 0.222586 0.565889 
0.149452 0.848132 0.550592 0.64045 0.80685 
0.852517 0.506886 0.742827 0.355748 0.0423006 
0.987388 0.995712 0.674097 0.280384 0.707595 
0.182454 0.643216 0.453407 0.291766 0.775594 
0.758939 0.188717 0.0171026 0.428432 0.252393 
0.625934 0.930322 0.929923 0.0569093 0.410705 
0.0343921 0.91319 0.431531 0.94882 0.196583 
0.971299 0.374185 0.850466 0.542583 0.21664 
0.283927 0.0750165 0.977114 0.723115 0.505412 
0.717039 0.374928 0.480115 0.776146 0.852965 
0.131356 0.0209068 0.400067 0.810457 0.903596 
0.402156 0.350666 0.309315 0.561577 0.221725 
0.54138 0.734183 0.647031 0.0609097 0.322027 
0.163821 0.959018 0.146234 0.931916 0.827826 
0.779951 0.779511 0.675366 0.518554 0.182505 
0.83775 0.779851 0.425835 0.0437665 0.429793 
0.774853 0.127649 0.539338 0.350562 0.739011 
0.84858 0.673895 0.829711 0.672807 0.946531 
0.242469 0.642436 0.186132 0.52647 0.119812 
0.904691 0.0552789 0.524254 0.38676 0.852222 
0.505735 0.560558 0.092834 0.0988097 0.174645 
0.115095 0.686292 0.828039 0.72299 0.583174 
0.409835 0.0976404 0.789363 0.216915 0.290887 
0.303162 0.148283 0.0131088 0.941807 0.772664 
0.1578 0.0351736 0.848931 0.080306 0.46432 
0.591663 0.420559 0.506329 0.912486 0.889528 
0.299153 0.919664 0.789406 0.373706 0.200197 
0.25002 0.187466 0.564636 0.76064 0.332088 
0.931741 0.454594 0.0636703 0.84439 0.97116 
0.192881 0.0297707 0.448288 0.462922 0.311145 
0.307652 0.535812 0.28404 0.392428 0.278004 
0.659857 0.223937 0.874685 0.922259 0.170013 
0.451455 0.0980119 0.905349 0.248513 0.628183 
0.423554 0.665152 0.255427 0.874738 0.413694 
0.227063 0.740645 0.188369 0.919989 0.345317 
0.22579 0.38469 0.289275 0.914289 0.0820804 
0.610434 0.901974 0.689118 0.706976 0.172951 
0.0859388 0.544974 0.554173 0.65008 0.652249 
0.463701 0.213219 0.460377 0.561525 0.629696 
0.543981 0.420403 0.136782 0.682561 0.494532 
0.954336 0.935506 0.387467 0.427163 0.13236 
0.00740094 0.646662 0.934213 0.838032 0.847009 
0.0480947 0.771804 0.474654 0.229326 0.377356 
0.667433 0.304861 0.885543 0.663733 0.0196034 
0.335584 0.656029 0.631788 0.991361 0.312364 
0.298517 0.0538446 0.494739 0.43408 0.346297 
0.331026 0.394714 0.447405 0.949128 0.344819 
0.610075 0.175119 0.0828265 0.31814 0.367114 
0.176006 0.380861 0.996048 0.812354 0.863572 
0.607767 0.100344 0.20711 0.492208 0.498217 
0.949077 0.273582 0.682834 0.979214 0.319928 
0.887853 0.643194 0.351052 0.328026 0.645326 
0.934876 0.334048 0.771408 0.919295 0.993018 
0.987512 0.521132 0.79289 0.0780299 0.740141 
0.229143 0.696465 0.945797 0.824649 0.5132 
0.636959 0.932266 0.86477 0.12449 0.605513 
0.991402 0.630699 0.894622 0.149961 0.0343873 
0.211524 0.238966 0.781136 0.607008 0.329059 
0.485512 0.19458 0.296952 0.198056 0.325666 
0.609037 0.159952 0.447208 0.225669 0.683802 
0.869361 0.934405 0.842756 0.380278 0.289814 
0.491661 0.606113 0.247227 0.80879 0.285246 
0.742927 0.668939 0.427357 0.274514 0.136877 
0.0106269 0.851627 0.0959647 0.186329 0.313327 
0.068833 0.480818 0.732289 0.185351 0.539606 
0.0347687 0.50733 0.0552556 0.551083 0.922881 
0.174477 0.221519 0.612959 0.432098 0.454472 
0.300538 0.402563 0.683983 0.539052 0.806189 
0.666049 0.732794 0.06617 0.316494 0.376248 
0.964949 0.434237 0.0725507 0.840179 0.0964466 
0.571341 0.550563 0.677465 0.403858 0.349839 
0.844148 0.559051 0.14268 0.251217 0.0956876 
0.277995 0.775018 0.187576 0.954914 0.977077 
0.259353 0.0302336 0.125155 0.35116 0.0895407 
0.0213766 0.819601 0.779216 0.274552 0.072572 
0.780653 0.827139 0.40966 0.011894 0.413605 
0.532371 0.592497 0.0895002 0.761468 0.965695 
0.445088 0.253357 0.342861 0.0317015 0.943802 
0.923151 0.623975 0.778651 0.619085 0.476223 
0.452245 0.70066 0.775985 0.830938 0.490636 
0.365238 0.664293 0.518434 0.170981 0.683457 
0.339001 0.788065 0.095976 0.35039 0.904399 
0.480229 0.0681125 0.808939 0.0125085 0.282652 
0.610909 0.203178 0.0472471 0.797124 0.266793 
0.827747 0.669317 0.340632 0.76576 0.325167 
0.456876 0.505251 0.523554 0.693164 0.916461 
0.528423 0.93519 0.259028 0.951739 0.460558 
0.347367 0.348975 0.209018 0.115552 0.580754 
0.386584 0.638341 0.521484 0.634791 0.531533 
0.289691 0.326211 0.222094 0.734208 0.348858 
0.87511 0.41002 0.538198 0.422103 0.0846866 
0.152523 0.938936 0.370779 0.680921 0.31228 
0.373209 0.862762 0.57755 0.799476 0.621797 
0.478099 0.568311 0.0593195 0.821112 0.516781 
0.740509 0.740162 0.934926 0.25105 0.192499 
0.569417 0.612557 0.107638 0.0412685 0.989766 
0.414836 0.624308 0.456425 0.924483 0.536993 
0.345996 0.22673 0.841151 0.281909 0.57027 
0.446043 0.00252295 0.465434 0.781424 0.400297 
0.161797 0.484729 0.0642403 0.9369 0.591807 
0.870401 0.845079 0.258312 0.0571179 0.944163 
0.137939 0.1618 0.430479 0.440388 0.48853 
0.902677 0.0376397 0.240399 0.885264 0.288031 
0.255203 0.952164 0.356934 0.942064 0.0393279 
0.735011 0.398044 0.0605304 0.610608 0.842113 
0.171829 0.313911 0.153649 0.413505 0.103547 
0.476475 0.967214 0.671693 0.492294 0.202788 
0.19616 0.60479 0.271253 0.175684 0.821327 
0.636161 0.936386 0.411522 0.421813 0.894478 
0.413523 0.310472 0.241536 0.0707264 0.943132 
0.891136 0.805309 0.366957 0.122473 0.803539 
0.585644 0.426819 0.825159 0.714086 0.266046 
0.365507 0.257527 0.0619588 0.0886641 0.688255 
0.25393 0.384647 0.243957 0.106126 0.941771 
0.973546 0.927625 0.644497 0.710777 0.321761 
0.990724 0.146231 0.532734 0.302891 0.271568 
0.970398 0.546457 0.958946 0.00637935 0.517812 
0.162741 0.667096 0.0956942 0.931017 0.66186 
0.0705032 0.223861 0.701194 0.058378 0.334047 
0.735152 0.682121 0.29888 0.768495 0.979108 
0.801388 0.874014 0.765131 0.0884593 0.91193 
0.846486 0.76477 0.755707 0.273133 0.476602 
0.112434 0.415331 0.0530093 0.189658 0.082825 
0.485134 0.885458 0.301153 0.211104 0.162004 
0.390718 0.1868 0.755455 0.804101 0.00836567 
0.20064 0.324039 0.517536 0.164064 0.808282 
0.82582 0.359725 0.794429 0.0943819 0.00956866 
0.890491 0.19401 0.559765 0.0164835 0.864955 
0.0433363 0.637792 0.289194 0.38049 0.251442 
0.498376 0.825066 0.472414 0.924962 0.904017 
0.465773 0.111504 0.361231 0.558278 0.00971109 
0.648622 0.383121 0.700655 0.999422 0.930442 
0.94044 0.945326 0.0768191 0.987633 0.42723 
0.5083 0.683191 0.304368 0.451073 0.514103 
0.149176 0.994927 0.378816 0.0876884 0.63204 
0.0328347 0.820268 0.912203 0.374179 0.869314 
0.708818 0.288556 0.00764518 0.0878108 0.0093361 
0.00030589 0.190025 0.495189 0.64009 0.272494 
0.956136 0.904332 0.666104 0.146845 0.674543 
0.421802 0.946437 0.321578 0.286422 0.544858 
0.717705 0.197266 0.94462 0.00360279 0.0910457 
0.547808 0.480156 0.561714 0.571311 0.0419243 
0.171123 0.284871 0.476266 0.801687 0.0202051 
0.209987 0.200111 0.189584 0.10015 0.510429 
0.459941 0.582218 0.242833 0.187535 0.342166 
0.610608 0.0254929 0.387502 0.561461 0.723771 
0.6315 0.992443 0.15962 0.507988 0.305124 
0.549336 0.038307 0.328481 0.533924 0.822331 
0.952308 0.443127 0.467212 0.426327 0.301274 
0.861633 0.164846 0.0294597 0.322394 0.681782 
0.85868 0.351982 0.536299 0.745313 0.716505 
0.776458 0.617358 0.882626 0.241732 0.836246 
0.931296 0.80703 0.738779 0.226571 0.102307 
0.00995695 0.983342 0.136761 0.0464586 0.078261 
0.960224 0.166306 0.459217 0.672252 0.38151 
0.127393 0.269145 0.392289 0.412366 0.0577659 
0.231727 0.367818 0.147855 0.40596 0.677837 
0.947562 0.155459 0.777287 0.759052 0.20646 
0.689272 0.767081 0.249588 0.639766 0.847361 
0.814084 0.409593 0.578196 0.265494 0.0985101 
0.713299 0.903891 0.626832 0.995412 0.381022 
0.662495 0.628681 0.131999 0.595762 0.167988 
0.0206195 0.149771 0.0202009 0.0812474 0.569308 
0.728231 0.582031 0.838291 0.529688 0.139945 
0.562217 0.851588 0.673946 0.117802 0.40964 
0.912874 0.345155 0.592391 0.17429 0.501063 
0.766943 0.0354884 0.671817 0.126689 0.694709 
0.465244 0.421254 0.943945 0.153754 0.807951 
0.884581 0.521021 0.022687 0.511421 0.649811 
0.808821 0.435646 0.481432 0.0559974 0.0641967 
0.732157 0.120215 0.769411 0.8053 0.794693 
0.732421 0.549138 0.798781 0.383446 0.973665 
0.149706 0.952145 0.742714 0.765878 0.393626 
0.222996 0.127374 0.382992 0.62995 0.188412 
0.595295 0.786051 0.119363 0.764815 0.694566 
0.115558 0.526365 0.156426 0.513186 0.0993449 
0.196249 0.506123 0.167125 0.663903 0.286698 
0.99349 0.306262 0.223748 0.377237 0.176075 
0.351068 0.0331091 0.509964 0.804043 0.510908 
0.795393 0.182671 0.219741 0.337689 0.653477 
0.929324 0.387447 0.293193 0.0404326 0.662072 
0.136769 0.294355 0.847182 0.979694 0.0461843 
0.19023 0.770742 0.26307 0.281338 0.864173 
0.132291 0.292695 0.466061 0.500995 0.273999 
0.49991 0.297708 0.920513 0.607307 0.951319 
0.331186 0.256695 0.771451 0.80714 0.477215 
0.906932 0.164404 0.94634 0.427673 0.675115 
0.641517 0.31988 0.635804 0.0971772 0.62371 
0.103927 0.808808 0.733174 0.571259 0.0170854 
0.999979 0.639159 0.0149593 0.993965 0.925304 
0.248934 0.897341 0.0356829 0.781081 0.975397 
0.118954 0.722926 0.436155 0.162498 0.48008 
0.559789 0.921157 0.691288 0.454833 0.045885 
0.0784999 0.176732 0.71679 0.770142 0.54337 
0.0538439 0.629781 0.131454 0.169426 0.406987 
0.831381 0.728294 0.138761 0.434829 0.241304 
0.850382 0.468382 0.366966 0.881276 0.563777 
0.296684 0.635005 0.378471 0.132061 0.21976 
0.561339 0.182914 0.965082 0.869063 0.54633 
0.566894 0.0674616 0.3973 0.655938 0.0860557 
0.825973 0.178107 0.228376 0.462432 0.726422 
0.680656 0.817276 0.828967 0.562343 0.652608 
0.237577 0.289554 0.329612 0.930342 0.302957 
0.843069 0.518814 0.600397 0.209478 0.765806 
0.68903 0.991888 0.440891 0.172783 0.107477 
0.848199 0.751725 0.543331 0.876706 0.0735017 
0.3145 0.486778 0.321046 0.461432 0.122011 
0.28677 0.326469 0.412364 0.218822 0.669126 
0.877169 0.686066 0.130201 0.784705 0.477906 
0.419453 0.915184 0.829863 0.37804 0.702088 
0.246741 0.591626 0.102713 0.192622 0.920468 
0.865591 0.991829 0.370581 0.077215 0.101995 
0.62426 0.528176 0.3711 0.550945 0.671547 
0.667103 0.0223523 0.31161 0.702356 0.419769 
0.694217 0.355949 0.471304 0.764829 0.0572565 
0.961051 0.1899 0.69317 0.834102 0.814598 
0.972718 0.350103 0.0703426 0.273477 0.0871464 
0.434492 0.616375 0.28377 0.0720154 0.51064 
0.191335 0.596464 0.810459 0.482322 0.0681619 
0.91085 0.227097 0.114048 0.0619394 0.258556 
0.752578 0.795749 0.187979 0.828204 0.902258 
0.693781 0.798603 0.730044 0.5896 0.771025 
0.681941 0.999713 0.601057 0.94487 0.447552 
0.719148 0.820483 0.469343 0.138991 0.539246 
0.315951 0.107613 0.437631 0.219309 0.958902 
0.933297 0.533589 0.0609958 0.217729 0.789398 
0.365428 0.492221 0.145947 0.0911555 0.903584 
0.0192815 0.762152 0.419163 0.580259 0.960586 
0.123765 0.128803 0.162629 0.628128 0.894298 
0.123316 0.81555 0.116061 0.590179 0.234597 
0.691788 0.607037 0.666876 0.600532 0.885855 
0.474372 0.447803 0.537464 0.83349 0.803092 
0.957737 0.864326 0.31974 0.510575 0.0731559 
0.460053 0.979291 0.259653 0.917926 0.929589 
0.562658 0.861872 0.382205 0.259277 0.230022 
0.127972 0.441286 0.503958 0.0159438 0.0880945 
0.174327 0.300039 0.0524995 0.963055 0.370339 
0.416752 0.160284 0.714489 0.853875 0.247821 
0.845831 0.500654 0.903375 0.0430344 0.940623 
0.228212 0.680874 0.796001 0.178027 0.876812 
0.559431 0.280828 0.49145 0.152711 0.464858 
0.0244054 0.0441168 0.57677 0.567243 0.45049 
0.729691 0.366032 0.240752 0.988727 0.0568403 
0.636149 0.943782 0.973097 0.8436 0.85081 
0.386311 0.175634 0.0646691 0.978454 0.559793 
0.00260658 0.892767 0.437551 0.289902 0.00412335 
0.698799 0.642171 0.91707 0.816685 0.523037 
0.969581 0.331698 0.636866 0.21488 0.0597791 
0.812957 0.162918 0.811447 0.0398837 0.811212 
0.0564818 0.928092 0.669746 0.805605 0.878351 
0.114216 0.904319 0.553798 0.426499 0.874022 
0.248948 0.126882 0.490159 0.438238 0.700685 
0.404836 0.308091 0.753213 0.107493 0.0779173 
0.159707 0.470681 0.49391 0.411056 0.139587 
0.16308 0.758262 0.841424 0.722043 0.378344 
0.972601 0.951485 0.202072 0.41302 0.513829 
0.478621 0.0876423 0.0450731 0.522522 0.291532 
0.677204 0.712732 0.911956 0.217728 0.841006 
0.0814674 0.966461 0.105709 0.836557 0.276517 
0.978667 0.307077 0.073254 0.793913 0.378275 
0.438399 0.98408 0.891196 0.573738 0.172974 
0.526054 0.264815 0.456811 0.3895 0.522927 
0.222789 0.760162 0.89126 0.0559297 0.844216 
0.65682 0.93109 0.160156 0.608087 0.633706 
0.632877 0.638478 0.82935 0.397541 0.765122 
0.604012 0.0470649 0.8131 0.418904 0.936513 
0.18197 0.94869 0.42969 0.0363071 0.532355 
0.484198 0.454655 0.80022 0.604298 0.506276 
0.263975 0.284356 0.765768 0.537682 0.844453 
0.999814 0.270556 0.793747 0.763142 0.66892 
0.892244 0.327432 0.562345 0.501822 0.358017 
0.748921 0.631968 0.635654 0.0606942 0.580028 
0.894434 0.62544 0.790421 0.491525 0.0034766 
0.587321 0.645959 0.896743 0.143924 0.993071 
0.597473 0.756793 0.00527036 0.57279 0.901536 
0.907407 0.71557 0.192121 0.642913 0.880924 
0.282791 0.258555 0.395747 0.93668 0.912558 
0.330721 0.57556 0.161432 0.699017 0.598911 
0.774012 0.116763 0.483177 0.934155 0.727484 
0.67158 0.567748 0.97039 0.210184 0.0202729 
0.035206 0.20657 0.164481 0.381475 0.233715 
0.0999721 0.406177 0.353406 0.701304 0.531279 
0.879026 0.71516 0.276306 0.405303 0.0123875 
0.929912 0.978675 0.873047 0.145694 0.647394 
0.925523 0.633543 0.476196 0.725435 0.599425 
0.297496 0.574838 0.103145 0.837341 0.173178 
0.615711 0.100507 0.67333 0.751741 0.190297 
0.530626 0.884098 0.477137 0.559765 0.878692 
0.320542 0.769307 0.977501 0.927825 0.0631132 
0.869875 0.47123 0.613501 0.975808 0.481364 
0.157077 0.624494 0.131591 0.113704 0.563092 
0.676896 0.193261 0.843988 0.0475296 0.659654 
0.743559 0.105492 0.969576 0.906792 0.884771 
0.530335 0.684625 0.156648 0.473534 0.952955 
0.556331 0.930414 0.474583 0.0784067 0.878911 
0.777476 0.145456 0.165444 0.899255 0.291227 
0.679273 0.596196 0.531326 0.876125 0.825632 
0.673631 0.183483 0.106505 0.241212 0.497029 
0.352834 0.856763 0.414939 0.285958 0.110698 
0.766116 0.83396 0.690883 0.591636 0.463132 
0.897818 0.580537 0.72408 0.811372 0.747564 
0.373666 0.776244 0.723317 0.323496 0.891954 
0.452951 0.75847 0.0223584 0.929866 0.182991 
0.990935 0.561346 0.868817 0.333145 0.884332 
0.73746 0.494411 0.905485 0.0993326 0.248272 
0.883431 0.940776 0.403947 0.945552 0.956137 
0.625043 0.595001 0.318957 0.753722 0.875834 
0.373588 0.0248834 0.0597447 0.681615 0.0540858 
0.836341 0.158144 0.882277 0.246286 0.256379 
0.536876 0.751332 0.0528279 0.120194 0.21024 
0.293351 0.870742 0.547329 0.242543 0.470352 
0.918586 0.819728 0.271779 0.164542 0.814913 
0.581681 0.0799813 0.864234 0.454699 0.367085 
0.377704 0.0503106 0.855021 0.707653 0.228063 
0.0735623 0.510963 0.119148 0.750366 0.637517 
0.501338 0.756363 0.839694 0.0962057 0.417058 
0.819413 0.159543 0.814236 0.151013 0.416502 
0.235133 0.581552 0.775789 0.0343592 0.545941 
0.836834 0.351062 0.247137 0.878769 0.807483 
0.723472 0.898305 0.870242 0.764091 0.651593 
0.348314 0.0952457 0.405368 0.437437 0.563775 
0.500845 0.594782 0.9732 0.436132 0.224176 
0.657167 0.304842 0.696157 0.591144 0.206873 
0.418836 0.653862 0.978361 0.605505 0.0816033 
0.736169 0.963698 0.632188 0.0513484 0.0630658 
0.244201 0.236739 0.228301 0.687107 0.183575 
0.873858 0.970474 0.522891 0.977988 0.789916 
0.583567 0.0138087 0.581592 0.0837493 0.692226 
0.26766 0.848686 0.851785 0.764197 0.166262 
0.135126 0.0255167 0.278607 0.0720087 0.3896 
0.562676 0.110988 0.0991772 0.103351 0.0801502 
0.551936 0.156844 0.268775 0.588533 0.709572 
0.832522 0.0585626 0.99115 0.308447 0.784667 
0.56595 0.5839 0.208745 0.2962 0.825057 
0.995209 0.0843983 0.362968 0.371358 0.696179 
0.629667 0.274266 0.206308 0.510774 0.301497 
0.445532 0.199795 0.934797 0.510235 0.781046 
0.0558621 0.350896 0.153655 0.155836 0.856273 
0.324641 0.762157 0.218061 0.808964 0.820427 
0.493302 0.0647635 0.552306 0.284013 0.846331 
0.0580485 0.943984 0.546359 0.849034 0.580134 
0.0666707 0.392025 0.932274 0.437402 0.121222 
0.42917 0.736491 0.0531221 0.672564 0.756114 
0.311539 0.785206 0.491197 0.341732 0.757275 
0.656695 0.104751 0.722017 0.468153 0.823649 
0.823806 0.711013 0.153337 0.316926 0.870419 
0.178226 0.0087344 0.344344 0.659029 0.0944887 
0.107041 0.515735 0.111575 0.149177 0.530738 
0.307105 0.91701 0.609077 0.499934 0.801761 
0.800814 0.832385 0.854421 0.638503 0.506392 
0.351686 0.525465 0.243035 0.826943 0.171564 
0.965726 0.0439204 0.146414 0.73776 0.55061 
0.693957 0.645814 0.886402 0.517473 0.434028 
0.572023 0.991225 0.474104 0.314205 0.496307 
0.859054 0.182387 0.561593 0.558965 0.176876 
0.0205193 0.0897868 0.913245 0.0894014 0.329914 
0.789412 0.530708 0.751749 0.155926 0.411755 
0.477932 0.413105 0.66535 0.42654 0.411861 
0.0889177 0.438427 0.716891 0.712823 0.251872 
0.291721 0.868701 0.667346 0.958889 0.247963 
0.960877 0.720428 0.328434 0.20492 0.691307 
0.60987 0.124454 0.242978 0.95436 0.91796 
0.909844 0.650906 0.166244 0.0215299 0.753725 
0.92957 0.884228 0.647128 0.148208 0.671365 
0.595376 0.170023 0.192802 0.253717 0.459892 
0.148047 0.553465 0.911595 0.55974 0.964391 
0.54084 0.806697 0.4049 0.934963 0.84357 
0.388812 0.595114 0.845551 0.334126 0.783129 
0.641647 0.913128 0.418349 0.788807 0.269349 
0.824049 0.906868 0.915789 0.639447 0.444553 
0.770253 0.885495 0.14143 0.914068 0.543565 
0.253946 0.36765 0.339104 0.640097 0.204926 
0.590089 0.61925 0.784585 0.645201 0.170527 
0.450467 0.687986 0.849404 0.142443 0.384459 
0.731449 0.597927 0.949759 0.48269 0.950843 
0.206581 0.155351 0.992568 0.541401 0.753965 
0.0278198 0.711374 0.469189 0.850494 0.829819 
0.900538 0.0521252 0.169266 0.827426 0.202622 
0.461225 0.940908 0.462797 0.586087 0.693713 
0.468357 0.630609 0.494972 0.419868 0.823745 
0.540674 0.46999 0.32598 0.996484 0.690235 
0.350526 0.349269 0.00499792 0.847821 0.0275082 
0.495537 0.28558 0.654073 0.348393 0.398446 
0.36994 0.698397 0.711741 0.162902 0.344809 
0.313015 0.996423 0.699235 0.637436 0.552621 
0.117368 0.322099 0.519459 0.154881 0.57004 
0.920134 0.0749706 0.611047 0.0566263 0.225201 
0.827059 0.330531 0.551236 0.404982 0.595304 
0.339934 0.820146 0.42166 0.925231 0.827491 
0.581013 0.186886 0.241468 0.686472 0.0836944 
0.669675 0.720638 0.915149 0.636705 0.386593 
0.718791 0.518228 0.820726 0.699414 0.257406 
0.856827 0.190127 0.0129553 0.678578 0.3317 
0.739853 0.0247416 0.840543 0.258048 0.70982 
0.36459 0.575954 0.410039 0.981272 0.331773 
0.191294 0.37341 0.577479 0.439414 0.421137 
0.771088 0.628663 0.37536 0.140938 0.433431 
0.270534 0.00422466 0.517194 0.985457 0.878243 
0.623967 0.260542 0.514277 0.324023 0.682535 
0.520538 0.802934 0.83507 0.0141047 0.872531 
0.524368 0.430025 0.260029 0.287673 0.80568 
0.605565 0.154531 0.668017 0.233071 0.720426 
0.500829 0.622526 0.248036 0.655647 0.255595 
0.918698 0.0999048 0.156464 0.699296 0.138412 
0.280811 0.138826 0.316274 0.543028 0.386051 
0.881966 0.167695 0.889869 0.798493 0.453328 
0.0387502 0.0467718 0.742696 0.583382 0.615845 
0.828061 0.720944 0.45897 0.119346 0.180427 
0.404376 0.0539932 0.0363665 0.485622 0.901842 
0.655812 0.71705 0.449525 0.950089 0.662131 
0.166678 0.406837 0.468761 0.922562 0.248018 
0.532985 0.763211 0.486508 0.383065 0.665282 
0.703904 0.435699 0.302426 0.0908744 0.874435 
0.563822 0.787698 0.590879 0.8112 0.664173 
0.135078 0.710575 0.203754 0.168237 0.437434 
0.948787 0.542243 0.0191475 0.536252 0.196926 
0.791238 0.101174 0.0878578 0.63263 0.933536 
0.0472312 0.500708 0.365553 0.944263 0.508605 
0.560646 0.644049 0.754087 0.967188 0.543204 
0.583077 0.782681 0.174754 0.401948 0.556672 
0.692776 0.809765 0.112689 0.0449974 0.991038 
0.26622 0.748084 0.860087 0.896515 0.613508 
0.15389 0.0381388 0.506729 0.522079 0.521061 
0.851821 0.7049 0.263663 0.840088 0.746178 
0.796474 0.380258 0.135086 0.759247 0.102324 
0.801911 0.474008 0.0335076 0.776112 0.838855 
0.799873 0.062162 0.679309 0.0792518 0.838394 
0.593916 0.0901822 0.0505108 0.0586126 0.533258 
0.770665 0.0478462 0.719745 0.441184 0.492167 
0.544574 0.766414 0.445228 0.621688 0.912737 
0.864804 0.887024 0.837135 0.242519 0.0363379 
0.0665443 0.313157 0.645229 0.592227 0.727069 
0.325277 0.640303 0.218797 0.379646 0.699591 
0.613439 0.738667 0.042811 0.949981 0.0700641 
0.773085 0.46473 0.38937 0.425735 0.110244 
0.564177 0.111392 0.244973 0.681292 0.753812 
0.398879 0.621357 0.928954 0.0840859 0.15928 
0.341911 0.322097 0.342367 0.408736 0.950572 
0.620891 0.148219 0.771238 0.154248 0.537492 
0.704814 0.0745826 0.0515021 0.192637 0.216822 
0.880434 0.477 0.674696 0.856402 0.520059 
0.264614 0.699221 0.43926 0.117647 0.431346 
0.737809 0.418251 0.614047 0.282349 0.19506 
0.680095 0.622421 0.90336 0.897557 0.891486 
0.891924 0.0984832 0.171545 0.965757 0.251507 
